# .PCD v0.7 - Point Cloud Data file format
VERSION 0.7
FIELDS x y z normal_x normal_y normal_z curvature
SIZE 4 4 4 4 4 4 4
TYPE F F F F F F F
COUNT 1 1 1 1 1 1 1
WIDTH 626
HEIGHT 1
VIEWPOINT 0 0 0 1 0 0 0
POINTS 626
DATA ascii
102.73897 29.094366 924.21704 -0.42982221 -0.04825848 -0.90162295 0.0089543853
125.39767 28.672329 925.26642 0.47394094 -0.83410096 -0.28223333 0.0084958905
126.38519 29.187828 924.65283 0.36691457 -0.88651723 -0.28188825 0.0077669285
101.35941 30.72068 925.02515 -0.56594598 0.17008737 -0.80670661 0.018932788
102.56196 30.767874 924.41949 -0.53077614 0.081733935 -0.84356165 0.015854808
101.81308 32.117531 924.88965 -0.60896289 0.11578851 -0.784702 0.023000808
102.57838 32.37326 924.55939 -0.56445366 0.044297058 -0.82427537 0.032358158
103.86057 32.890526 924.07812 -0.49463406 0.0096965674 -0.86904734 0
101.87696 34.006752 925.46033 -0.61800236 -0.25040773 -0.74523091 0.098940983
102.91133 33.906944 924.54272 -0.51364881 -0.15434708 -0.8440035 0.084144719
103.88551 33.965145 924.29443 -0.48720098 -0.045655027 -0.87209564 0.068714328
100.27284 34.53997 925.46112 -0.64530408 -0.44495329 -0.62096637 0.058996193
101.27949 34.519165 924.88654 -0.55153698 -0.39916891 -0.7324419 0.052453142
70.820961 41.430191 924.65814 -0.47667789 -0.71484667 -0.51163697 0.09755148
109.19995 41.958855 924.00189 -0.49085754 0.47073197 -0.73312372 0.020190088
64.259514 42.862019 924.92743 -0.27489799 -0.63961858 -0.71785736 0.030193837
65.222076 43.029861 924.70093 -0.21134658 -0.62173814 -0.75417137 0.028542945
66.55175 43.027653 924.63989 -0.12478203 -0.73014587 -0.67180091 0.023541525
68.187332 43.050556 925.11456 -0.16136287 -0.86548775 -0.47422877 0.038248349
69.50354 42.772926 924.86963 -0.30651039 -0.82276696 -0.47865009 0.061465893
108.92811 42.702789 924.71429 -0.34233555 0.38823605 -0.85561621 0
109.7451 43.030109 924.08612 -0.53735769 0.478461 -0.69449395 0.032631867
150.81352 42.573509 924.922 -0.23039646 -0.93753582 -0.26066074 0.0049014394
152.48798 42.058872 925.3219 -0.1217453 -0.95541215 -0.26900867 0.008345902
153.84935 42.065693 925.44025 -0.020703904 -0.97411728 -0.22509302 0.0069999411
62.637268 44.222786 925.12952 -0.45169526 -0.40562811 -0.79463017 0.042181805
63.881557 44.09127 924.59906 -0.37221926 -0.41077924 -0.83229405 0.016027749
65.284233 43.900745 924.3161 -0.28259394 -0.49174869 -0.82360423 0.028294116
66.508667 43.532867 924.03949 -0.19074014 -0.58306289 -0.78971887 0.025951343
79.849449 44.610233 924.11438 0.11659308 0.50890952 -0.85288745 0.12435285
110.43581 43.70636 924.27228 -0.54016143 0.4773241 -0.69309986 0.053916417
112.41488 44.631588 924.05701 -0.50868529 0.5287202 -0.67948085 0.084292628
61.272022 45.732834 925.45782 -0.49461672 -0.2956095 -0.81729394 0.025190972
62.305412 45.70808 924.94739 -0.46669403 -0.30249584 -0.83107936 0.021814473
63.678913 45.495483 924.2276 -0.40817463 -0.30905411 -0.85899889 0.018789003
64.916435 45.40247 924.13074 -0.35009831 -0.31210998 -0.88318658 0.0089752162
80.747032 45.681721 924.2019 0.10366654 0.14810273 -0.98352367 0.1062365
81.700424 45.804832 924.52295 -0.13777685 0.21524671 -0.96679175 0.13611898
112.43347 45.172424 924.20612 -0.49567139 0.85783035 -0.13578288 0.10262306
60.790646 47.322807 925.23096 -0.52384877 -0.31937292 -0.78967297 0.045489412
62.271667 47.28281 924.43427 -0.44638199 -0.28665242 -0.84768713 0.012848279
80.910545 46.739853 924.03003 0.2202622 -0.071768396 -0.97279698 0.11334873
81.72541 47.281864 924.19043 0.08675652 -0.035692122 -0.99558997 0.096825242
59.521721 49.055466 925.19916 -0.56531268 -0.28396407 -0.77445853 0.0089020375
60.695148 48.900486 924.78125 -0.48282245 -0.30742919 -0.81998158 0.012353701
62.0769 48.513508 924.1709 -0.39513877 -0.27418914 -0.87674725 0
64.916733 49.400272 924.10468 -0.20781939 -0.038443033 -0.97741157 0.015760511
81.984833 48.877132 924.09503 0.16901945 -0.053303577 -0.98417032 0.020411924
82.803886 48.888744 924.30286 -0.17490096 0.083427452 -0.98104507 0.11752713
59.358566 50.230915 924.72736 -0.5956974 -0.27961135 -0.75296885 0.022050155
60.575703 50.297443 924.30365 -0.48129937 -0.29309788 -0.82610202 0.018141843
64.420212 50.494766 924.62311 0.017367546 -0.20164429 -0.97930485 0.050751973
65.205383 50.48354 924.40887 -0.12183915 -0.27553874 -0.9535374 0.10463311
82.813454 50.227608 924.39893 0.19754569 -0.007787819 -0.98026276 0.036015969
59.15276 51.625965 924.62799 -0.59719658 -0.24497351 -0.76376975 0.01077229
60.120125 51.264992 924.12292 -0.54216647 -0.27947056 -0.79243404 0.051709104
83.14006 51.490131 924.30994 0.28474131 -0.0050058411 -0.95859134 0.04096695
84.167725 52.107471 924.60071 0.17335065 0.11909772 -0.97763246 0.11534442
58.052868 53.18919 925.14893 -0.74362862 -0.22990337 -0.62782246 0.022285372
58.807011 53.14769 924.41937 -0.60631168 -0.23214948 -0.7605871 0.0055924733
83.497162 53.038509 924.55731 0.54592937 -0.11665533 -0.82967019 0.11984599
84.544533 53.187687 924.81909 0.20869647 0.063617237 -0.97590911 0.13612171
188.37447 52.770561 924.6499 0.43744978 -0.84355301 -0.31153813 0.0075926082
189.70688 53.571472 924.58313 0.50238514 -0.76721019 -0.39874518 0.012011617
190.95799 53.890163 925.43018 0.49125293 -0.73169333 -0.47254145 0.014384673
57.821342 54.879536 924.8465 -0.71954381 -0.2064335 -0.66305506 0.0064710947
58.788567 54.197029 924.11938 -0.60231197 -0.21995099 -0.76736033 0.02684282
83.610313 54.492233 924.3205 0.47542834 -0.11868621 -0.87171185 0.071076944
84.719215 54.853012 924.76654 0.32534331 -0.018365901 -0.94541758 0.077797078
85.775497 55.31324 924.63556 -0.30215049 0.20932399 -0.92999387 0.11490472
191.42688 54.916004 924.65186 0.56454796 -0.66003674 -0.49561784 0.010281675
192.52029 55.215927 925.16345 0.57996476 -0.61732554 -0.5315544 0.013412157
56.984505 56.65609 925.10394 -0.74999809 -0.16233678 -0.6412096 0.019572787
57.744213 56.349895 924.45258 -0.70073622 -0.17633106 -0.69128591 0.017443372
85.002449 56.398129 924.93018 0.3953267 -0.0044186604 -0.91852993 0.067745358
86.168831 56.405071 925.02808 0.04979001 0.23991658 -0.96951586 0.13774365
192.81886 55.823399 924.86823 0.59233493 -0.57375735 -0.56563401 0.005848784
193.59245 56.554523 925.12976 0.59325802 -0.51023775 -0.6226576 0
56.961212 57.966366 924.71362 -0.76682079 -0.13429478 -0.62765497 0.010680221
57.618114 57.823479 924.55579 -0.73699033 -0.15170436 -0.6586585 0.031177606
84.709175 57.891937 924.62994 0.53471243 0.055330198 -0.84322071 0.062256198
86.880363 57.472485 925.00763 -0.30628231 0.41539252 -0.85652804 0.11164916
87.404556 58 924.89581 -0.61426592 0.54752719 -0.5682354 0.1798813
193.41287 57.304131 924.26483 0.69204652 -0.4792935 -0.5397678 0.030730745
194.2692 57.710327 924.75244 0.70454741 -0.41314206 -0.57699788 0.021365898
56.954674 59.292984 924.59491 -0.73712206 -0.13916832 -0.66127396 0.0034104683
57.469086 59.273666 924.289 -0.69909626 -0.14012858 -0.70116216 0.0086811995
83.589737 59.543926 924.04651 0.55556583 -0.012723077 -0.83137524 0
84.766518 59.10815 924.51648 0.53872728 0.0061150892 -0.84245795 0.020984456
85.84462 59.362267 925.34369 0.48541975 0.069249414 -0.87153435 0.048513182
87.766365 59.071484 924.94562 -0.42016482 0.5061782 -0.75315684 0.16064127
194.50426 58.91497 924.3244 0.68899626 -0.30471274 -0.65759736 0.008745702
195.16949 59.221912 924.9248 0.70563024 -0.27619961 -0.65253329 0.011456805
56.819519 60.757736 924.55341 -0.75982952 -0.15188348 -0.63213176 0.014255662
57.4631 60.067097 924.185 -0.6735698 -0.15790862 -0.72205859 0
84.75737 60.635223 924.40204 0.60684258 -0.0040475926 -0.79481173 0.016837373
85.848137 61.23357 925.36359 0.6481849 0.063308291 -0.75884682 0.049113363
88.394257 60.08213 924.05164 -0.63962084 0.55944365 -0.52716994 0.099699244
88.974396 60.914215 924.52527 -0.69966692 0.53917676 -0.46877998 0.064886138
195.41997 60.822037 924.82123 0.73180377 -0.12728786 -0.669523 0.016237067
56.5 62.303738 924.40179 -0.74276924 -0.20422313 -0.63764155 0.011022569
84.704742 62.245674 924.53809 0.61497116 0.027617833 -0.78806579 0.0090372814
85.849602 62.302525 925.36841 0.70854664 0.053955417 -0.70359826 0.031680703
89.549889 62.277214 924.93951 -0.81708664 0.5371173 -0.20946229 0.0060059656
195.31718 62.304619 924.57599 0.72318673 0.0072378735 -0.69061458 0.0011835285
56.026871 63.96521 924.6438 -0.72563338 -0.22950228 -0.64867938 0.0081337504
83.595215 64.346649 924.05853 0.57831746 0.021726612 -0.81552249 0
84.709518 63.849651 924.57336 0.62415725 0.051346235 -0.77960962 0.0060723815
85.855614 63.908936 925.41675 0.71591318 0.063072868 -0.69533455 0.022625037
195.4686 63.781002 925.02411 0.78522527 0.1542048 -0.5997017 0.018412344
55.251755 65.327835 925.04944 -0.76128811 -0.19695669 -0.61777705 0.031849962
56.041149 65.041512 924.13397 -0.70365471 -0.18910934 -0.68491435 0.0064206743
83.603935 65.419876 924.14374 0.61027932 0.02728009 -0.79171646 0.016362207
84.553673 65.44754 924.52209 0.63889915 0.044197485 -0.76801986 0.0064034062
194.5025 65.331848 924.25647 0.79202604 0.27080289 -0.54713857 0.015507028
195.20303 64.852165 925.03162 0.7527796 0.24080095 -0.61264813 0.0034625013
55.359665 66.764648 924.60742 -0.7502774 -0.14258695 -0.64556396 0.007687863
83.605385 66.754181 924.14539 0.65823585 0.029739764 -0.75222415 0.023419036
84.608955 66.735405 924.61133 0.65837884 0.038394537 -0.75170684 0.0084227165
194.27339 66.712746 924.86017 0.71575147 0.41835657 -0.55917579 0.0048363921
55.178818 68.094269 924.54315 -0.76086587 -0.13320422 -0.63509035 0.011508626
83.600502 67.550163 924.08282 0.62699884 0.017575003 -0.77882195 0
84.452278 68.125481 924.63593 0.67184752 0.036977883 -0.73976582 0.0056534708
193.62569 67.80587 925.1839 0.60501778 0.52724528 -0.59662879 0
54.859058 69.739449 925.12939 -0.81881303 -0.10550737 -0.56428146 0.043665502
84.457748 69.730614 924.67792 0.71048981 0.040004309 -0.70256943 0.018094428
54.826916 71.298645 924.56915 -0.82817078 -0.10100871 -0.5512988 0.018201048
84.463768 71.33651 924.7254 0.70705485 0.039310183 -0.7060653 0.0048440839
54.333023 72.684647 925.22736 -0.77343261 -0.045885917 -0.63221556 0.012357617
83.606865 72.88813 924.0921 0.66793936 0.048915125 -0.74260634 0
84.339409 72.811859 924.80945 0.71780527 0.060709819 -0.69359201 0.0061983485
54.330753 74.015892 925.17316 -0.80230325 0.092283748 -0.58973998 0.021266317
83.625702 74.504799 924.28125 0.72016317 0.08394105 -0.68870819 0.021517029
84.498825 74.302414 925.07446 0.71981412 0.090181835 -0.68828398 0.0017371482
54.737694 75.696541 924.81378 -0.74642622 0.44332522 -0.49629697 0.038214009
55.872372 76.070557 924.15674 -0.54878604 0.59963411 -0.58247131 0.022711039
83.633636 75.578743 924.35571 0.69010472 0.10133284 -0.71658015 0
84.379364 75.516174 925.2157 0.74280655 0.098423466 -0.66223204 0.0093127228
56.695282 76.635475 924.52625 -0.41374803 0.74833184 -0.51847082 0.0073196446
60.173767 76.918312 924.68378 -0.20426923 0.83380181 -0.51288259 0.046715043
61.735069 77.669891 924.07947 -0.57833743 0.70350754 -0.41304123 0.028657524
83.514137 77.325294 924.48846 0.68618017 0.17773159 -0.70538515 0.01354333
84.257545 77.262215 925.32367 0.7463513 0.15858126 -0.64638358 0.012408784
81.481964 79.028297 924.13074 0.4081232 0.54791468 -0.73022252 0.062181689
83.186203 78.797585 924.53333 0.63890606 0.37534916 -0.67149991 0.049350061
84.269409 78.341339 925.44055 0.72492963 0.2267908 -0.65041763 0.0082387691
78.844528 79.856857 924.48596 0.10000417 0.8865785 -0.45163891 0.027493481
79.970734 79.916504 925.1626 0.071723774 0.75934321 -0.6467253 0.026908169
81.626076 80.238228 924.74127 0.24704878 0.69710797 -0.67305815 0.065268554
82.770638 80.049202 924.59937 0.46076506 0.56618243 -0.6834712 0.056078393
139.02277 99.96447 924.88867 -0.67774832 -0.65055203 -0.34269404 0.040044926
139.90924 99.783333 924.84375 -0.76165801 -0.58759421 -0.2731488 0.031912193
135.63179 100.85065 924.90436 0.1683052 -0.95686692 -0.23681012 0.033404425
137.65663 101.83639 924.08435 -0.13952884 -0.94278598 -0.3027977 0.073899947
138.50992 101.34058 924.42505 -0.38843301 -0.86358315 -0.32147142 0.07710699
114.13011 112.4854 924.10327 -0.80321443 -0.54012901 -0.25121161 0.045594867
98.284836 17.477829 926.95392 -0.17790981 -0.53264207 -0.82743007 0.071483485
101.2321 17.478844 926.96619 -0.030522583 -0.51201171 -0.85843599 0.016712436
102.83258 17.478157 926.90649 0.0638256 -0.55213892 -0.8313055 0.0422635
96.938889 19.080513 926.88232 -0.2461182 -0.33252871 -0.91041225 0.0087667024
98.185532 18.608112 926.64563 -0.17011194 -0.42263824 -0.89019036 0.031440504
99.845978 18.539337 926.52747 -0.093554355 -0.44478631 -0.89073724 0.023959182
101.42822 18.535423 926.30884 -0.024681771 -0.45886332 -0.88816398 0.017141066
102.77732 18.53776 926.40594 0.061951417 -0.48017466 -0.87498248 0.038001668
104.06947 18.60865 926.5882 0.16069017 -0.48144722 -0.861619 0.033329122
105.64046 18.863955 926.62616 0.29122674 -0.49123085 -0.82090151 0.038511291
95.463745 20.282701 926.85413 -0.38976923 -0.16987257 -0.90510952 0.067974173
96.64212 20.143856 926.60168 -0.30551916 -0.23909864 -0.92167777 0.014368385
98.194382 20.133305 926.0932 -0.20913967 -0.33771023 -0.91772133 0.053808451
99.772614 20.128355 925.84222 -0.11901292 -0.35459888 -0.92741328 0.044539355
101.43375 20.059978 925.7439 -0.026161864 -0.35888389 -0.93301547 0.026143754
102.86597 20.020597 925.75421 0.051413208 -0.35656536 -0.93285465 0.0085168947
104.12599 20.064135 925.89612 0.12026075 -0.40379107 -0.90691239 0.033989508
105.68621 20.13549 926.08466 0.20419869 -0.44685259 -0.87099129 0.011837391
107.23616 20.466463 926.52521 0.20383538 -0.54985118 -0.81000912 0.0038460393
108.96958 20.68466 926.69025 0.15695505 -0.71045697 -0.68601459 0.032795746
110.05683 20.509714 926.82208 0.16320232 -0.7477383 -0.64362448 0.031321492
111.12996 20.688602 926.83325 0.125597 -0.7228837 -0.67945904 0.032989163
113.81265 20.155205 926.85864 -0.067618452 -0.70819098 -0.70277542 0.1385694
114.36269 20.692877 926.97064 -0.21790406 -0.53327584 -0.81739509 0.097481057
94.003777 22.290455 926.97052 -0.41455519 0.018622721 -0.90983367 0.13150249
95.311295 21.214348 926.6709 -0.40862277 -0.079604119 -0.90922529 0.055192564
96.609726 21.740417 926.2868 -0.40273979 -0.11930925 -0.90750539 0.031559452
98.218826 21.66017 925.68854 -0.24805054 -0.22980063 -0.94109648 0.030237265
99.634636 21.724184 925.54932 -0.13295972 -0.2361808 -0.96256971 0.026041117
103.48795 21.19195 925.57086 0.046224486 -0.30550653 -0.95106739 0
106.19399 21.199074 925.84216 0.15871325 -0.49710891 -0.85304922 0.040653542
107.26189 21.466049 925.81958 0.13139945 -0.57663244 -0.80636793 0.027678475
108.87276 21.467651 925.86432 0.096549399 -0.66309404 -0.74228334 0.022509424
110.30175 21.646559 925.87616 0.12331359 -0.67439729 -0.72799861 0.0052951388
111.69851 21.569231 926.36005 0.12794146 -0.67160624 -0.72977805 0.013139782
113.31457 21.927973 926.43164 0.026393 -0.64046198 -0.76753622 0.045217086
114.75362 21.815088 926.33679 0.028965821 -0.64369041 -0.76473767 0.10388077
116.11955 22.275688 926.01233 0.10544584 -0.59515482 -0.79666299 0.10957243
94.001648 23.894299 926.94403 -0.45991734 0.070848897 -0.88513082 0.11609701
96.527344 23.339975 926.13342 -0.49488166 -0.051054336 -0.86745924 0.045219161
113.69247 22.805731 925.87164 0.070415191 -0.61190456 -0.78779095 0.028992081
114.89544 22.939426 925.85614 0.091891304 -0.64587748 -0.7578907 0.076528333
116.44912 23.189062 925.89172 0.1915838 -0.65122885 -0.73430008 0.088304587
117.97523 23.608881 925.85907 0.096166864 -0.59431845 -0.79845953 0.049341798
93.998154 24.428167 926.90765 -0.51655763 0.13024744 -0.84628832 0.1379095
95.573502 25.222736 926.60358 -0.49053049 0.031464975 -0.87085581 0
96.516426 25.006859 926.02179 -0.49634722 0.035844304 -0.86738384 0.022558415
97.737595 25.061497 925.55151 -0.35085315 0.07336998 -0.93355179 0.020432193
122.07964 25.060724 926.10742 0.52570832 -0.6893062 -0.49848542 0.095463596
95.592926 26.297291 926.78754 -0.50848985 0.12138048 -0.8524698 0
96.600471 26.28051 926.18146 -0.48777768 0.15182865 -0.85966331 0.035627302
97.789925 26.354147 925.6203 -0.36976624 0.20501621 -0.9062236 0.067961544
99.738884 26.529751 925.5069 -0.2137862 0.13361424 -0.96769977 0
121.17315 26.011929 925.72791 0.42118025 -0.67772484 -0.60274065 0.048079804
122.30581 26.025526 926.19244 0.44854894 -0.65715623 -0.60576361 0.077595107
123.35552 26.555977 926.02399 0.49385339 -0.72623003 -0.47822464 0.074950524
95.59005 27.365929 926.75549 -0.54733348 0.22096042 -0.80721897 0.030250886
96.616058 27.62097 926.32507 -0.43962702 0.23747069 -0.86621922 0.014662723
98.186852 27.611849 925.99597 -0.32495502 0.23995881 -0.91478086 0.0051859086
99.226456 27.870823 925.70996 -0.34646696 0.24357007 -0.90588868 0.059344955
96.666924 28.972275 926.8064 -0.46371129 0.36775017 -0.80605936 0.050100226
98.23468 29.22897 926.44055 -0.36825532 0.34944129 -0.86155611 0.012806116
99.505363 29.209717 925.81122 -0.44563091 0.26973668 -0.85361308 0.03477874
98.792458 30.305115 926.64569 -0.41336435 0.37447199 -0.8300004 0
99.898041 30.763657 926.34473 -0.53810287 0.32141668 -0.77918977 0.013305987
100.8351 31.344704 925.72937 -0.60135674 0.23180771 -0.76461452 0.0022334876
100.19394 32.34063 926.72186 -0.63379359 0.1591226 -0.75695813 0.0075103776
101.22473 32.491985 925.79297 -0.64061481 0.10115586 -0.76117021 0.019653557
100.39146 34.046196 926.55865 -0.66614294 -0.10135148 -0.73890555 0
101.30098 33.707912 926.06482 -0.64618999 -0.13209593 -0.75165766 0.030384973
99.530487 34.560314 926.01837 -0.63297647 -0.36299706 -0.68379384 0.021623541
61.087952 42.85524 926.73645 -0.38338366 -0.6159901 -0.68816656 0.032986451
62.504784 42.952785 925.9436 -0.36069846 -0.66598606 -0.65296191 0.046693549
63.627148 42.736965 926.08057 -0.2515201 -0.7576043 -0.60230672 0.014954443
65.302635 42.549019 925.84644 -0.089630477 -0.87878174 -0.46873122 0.031229444
66.688164 42.581432 926.53815 0.038595952 -0.95000201 -0.30984902 0.011410275
68.589432 42.601055 926.94495 -0.088099293 -0.97202474 -0.21773025 0.019403184
69.841919 42.283169 925.82367 -0.43247315 -0.81938988 -0.37625432 0.025305066
147.94505 43.001831 926.54669 -0.23865207 -0.89761806 -0.37057662 0.021471644
149.21315 42.6506 926.64044 -0.24687904 -0.88310808 -0.39896208 0.02026468
150.69878 42.252857 926.69214 -0.22076042 -0.90226424 -0.37038368 0.018561905
151.90675 42.120049 926.68646 -0.17954338 -0.9086442 -0.3770012 0.009299471
155.27872 42.090836 925.9613 0.063595578 -0.97715968 -0.20276748 0.0024513048
59.751171 44.190643 926.72412 -0.53593516 -0.39224687 -0.74760675 0.021179074
60.794632 44.172401 926.3316 -0.47166961 -0.39052257 -0.790582 0.010863557
61.949436 44.005539 925.61969 -0.44449303 -0.41448119 -0.79412293 0.023256935
59.356869 45.860718 926.51996 -0.59761167 -0.28143561 -0.7507692 0.017714161
60.696136 45.751247 925.83716 -0.50422311 -0.29514715 -0.81157088 0.016112121
58.15509 47.937572 926.82062 -0.67605275 -0.23538393 -0.6982457 0
59.243607 47.432384 926.08173 -0.60255164 -0.27613434 -0.74878663 0.017938824
60.217476 47.344028 925.65088 -0.52636725 -0.30916649 -0.79205662 0.031085571
58.138145 48.725197 926.54486 -0.70666742 -0.21538576 -0.67396599 0
58.848866 48.854687 925.95276 -0.64709395 -0.2511884 -0.71984285 0.0098262457
58.12785 50.05217 926.37018 -0.74609399 -0.21865146 -0.62891585 0.01105474
58.619865 50.283283 925.69824 -0.69732976 -0.23493923 -0.67715198 0.010737279
57.849651 51.645176 926.18311 -0.72890085 -0.21452996 -0.6501388 0.0077516227
58.617699 51.082253 925.65759 -0.69428056 -0.22759178 -0.68277115 0
187.09064 51.789604 926.29028 0.29628038 -0.91785806 -0.26411077 0.0049380469
188.04736 52.139652 926.13556 0.32024762 -0.89070106 -0.32263467 0.0041773315
189.37302 52.363968 926.90912 0.29683572 -0.87139803 -0.39058179 0.0040678186
57.328205 53.259502 926.37842 -0.73883051 -0.19073246 -0.64633626 0.028452573
84.809128 53.776352 925.75958 0.89872634 -0.41117051 -0.15241314 0.14785625
190.01469 53.033421 926.08887 0.39276674 -0.79598033 -0.46059701 0.0066442266
191.30533 53.314655 926.59619 0.4185645 -0.75688899 -0.50191921 0.0064441031
192.23219 53.947296 926.38049 0.47329855 -0.6928609 -0.54399663 0.0022476569
54.958855 55.43111 926.95648 -0.50963455 -0.21037135 -0.83427614 0.066809326
57.195545 54.729683 926.38068 -0.76977623 -0.2051584 -0.6044457 0.047643274
84.787094 54.296379 925.51447 0.41244781 -0.052714862 -0.90945482 0.085529312
192.86787 54.607441 926.19128 0.54645115 -0.64759094 -0.53105289 0.013565278
193.96053 55.053345 926.9021 0.55464506 -0.60546243 -0.57077497 0.0049923179
54.946648 56.220551 926.74316 -0.57347554 -0.23333699 -0.78528953 0.082176536
56.551094 56.221924 926.75244 -0.7201075 -0.23965602 -0.65116066 0.061619714
57.022732 55.8932 925.73169 -0.77350962 -0.22425075 -0.59278542 0.034333192
86.430878 56.994186 925.92102 0.029400244 0.26043266 -0.96504432 0.060372487
194.27437 56.087261 926.24609 0.61401212 -0.54100251 -0.57472199 0.010039706
54.773743 57.562283 926.82104 -0.49648342 -0.13541563 -0.85741872 0.0096585983
56.31147 57.638775 926.31708 -0.72493029 -0.14836504 -0.67265433 0.052553587
86.15271 57.78812 925.79761 0.31282318 0.19973506 -0.92857283 0.11916652
87.015518 58.096447 926.44165 0.49716225 0.10793616 -0.86091781 0.15713844
194.78232 57.124794 925.66193 0.64147872 -0.45595163 -0.61693859 0
195.53033 57.817425 926.00873 0.65208 -0.41630247 -0.63362753 0.0085997675
196.66901 58.278904 926.92615 0.66496676 -0.3582778 -0.65532917 0
54.737312 59.378925 926.79083 -0.58220249 -0.056832269 -0.81105506 0.06673263
56.254944 59.131527 926.25323 -0.73839897 -0.073320605 -0.67036629 0.050486919
86.3078 59.004856 926.01556 0.50290239 0.11398785 -0.856794 0.096548691
87.225632 59.270058 926.38916 0.083410688 0.34610218 -0.93448156 0.1296691
196.05208 59.420494 925.91327 0.72123319 -0.2601642 -0.6419791 0.016498575
196.86591 59.330051 926.57336 0.71236044 -0.24563611 -0.65742344 0.008469617
54.404079 60.754803 926.56567 -0.47713915 -0.076250345 -0.87551373 0.050200682
56.253887 60.73333 926.22015 -0.75342208 -0.10205351 -0.64956927 0.049189344
86.22435 60.632103 925.96497 0.55420434 0.092207521 -0.82725781 0.042365469
87.382469 60.598648 926.52734 0.24030851 0.35424402 -0.90374947 0.1355301
88.58812 61.015511 926.07031 -0.45161086 0.6417619 -0.61983001 0.16165519
196.43062 60.886612 925.77881 0.709777 -0.10433108 -0.69665754 0.0034493685
197.0779 60.92104 926.2879 0.74130744 -0.10211151 -0.66335255 0.012236153
53.752377 62.510414 926.83258 -0.49288028 -0.17977513 -0.85132247 0.044777256
55.469116 62.888554 926.47687 -0.65924829 -0.28846431 -0.69439191 0.050586794
55.981922 62.063103 926.12555 -0.76430917 -0.20778032 -0.61045784 0.056135692
86.451302 62.351471 926.08838 0.70193172 0.14072405 -0.69820386 0.068902582
87.067543 62.410294 926.9538 0.63889962 0.16286062 -0.75185347 0.068334207
89.324654 62.368408 926.29767 -0.33072516 0.62889475 -0.70364213 0.13948198
196.41064 62.219452 925.67249 0.77757072 0.042920504 -0.62732887 0.027745308
197.07962 62.261578 926.28369 0.73534006 0.059003811 -0.67512482 0.0016953223
53.659576 63.858635 926.60144 -0.6054669 -0.23490037 -0.76041543 0.053711683
55.096706 64.116539 926.19464 -0.67815351 -0.28500155 -0.67740822 0.04188633
86.252472 63.761074 925.85272 0.72829092 0.065223664 -0.68215698 0.015446144
90.21373 63.436302 926.25824 -0.44251931 0.68927842 -0.57364792 0.074086331
196.13574 63.020569 925.63922 0.74311692 0.12082907 -0.6581623 0.0099008689
196.79784 63.597099 926.21411 0.75499719 0.16579023 -0.6344232 0.011279171
53.557251 65.146896 926.66815 -0.66606772 -0.1870608 -0.72205406 0.05213638
54.555363 65.354492 926.06177 -0.70200402 -0.18947425 -0.68650562 0.04444192
85.332428 64.985008 925.52856 0.66857558 0.056291923 -0.74151057 0.0071653849
86.240204 65.132088 926.08923 0.74679649 0.076079912 -0.66068655 0.013800192
87.068924 65.085739 926.94092 0.78321207 0.093205675 -0.61472887 0.019746842
195.7951 65.317268 925.91742 0.70209098 0.30193028 -0.64490801 0.00066026003
196.68068 65.254875 926.91718 0.70861042 0.30561 -0.63598257 0.0030719342
53.481205 66.701363 926.39355 -0.64869863 -0.12879127 -0.75006855 0.025874136
54.640976 66.596748 925.99188 -0.68002719 -0.13287766 -0.72104543 0.014183294
85.342995 66.59549 925.6261 0.71863401 0.068429902 -0.69201332 0.013044419
86.201904 66.640198 926.23663 0.73350137 0.079515234 -0.67502081 0.0032630081
194.89987 67.07309 926.12866 0.64333707 0.47627863 -0.59939647 0.0029850325
195.67336 66.467865 926.39374 0.70479351 0.40708545 -0.58098835 0.011736862
53.327255 68.226303 926.35437 -0.61560357 -0.093153693 -0.7825309 0.019088728
54.590015 68.095383 926.01746 -0.68156189 -0.086959608 -0.72657508 0.018871522
85.345032 68.199532 925.63068 0.72963995 0.049901593 -0.68200833 0.0095583433
86.062469 68.239059 926.15771 0.75030208 0.062584512 -0.65812606 0.0048034876
194.14648 68.162445 926.38159 0.63553506 0.54801643 -0.5438503 0.003643163
52.290749 69.871986 926.90979 -0.61303234 -0.083781116 -0.78560299 0.015621005
53.329975 69.766129 926.38245 -0.60543984 -0.069879688 -0.79281735 0.037053857
54.390961 69.823479 926.24762 -0.62581497 -0.061965007 -0.77750623 0.025159113
85.353661 69.809074 925.70624 0.75023627 0.054535404 -0.65891683 0.007878066
86.181252 69.873749 926.5542 0.74178129 0.074368022 -0.66650569 0.007625225
52.270889 71.448822 926.53973 -0.54343241 -0.041094664 -0.8384465 0.025596147
53.319054 71.354645 926.17419 -0.57076204 -0.014955002 -0.8209793 0.038179412
54.364811 71.392044 925.78394 -0.77545947 -0.042039029 -0.62999618 0.068613917
85.355507 71.413208 925.70807 0.7726053 0.061765265 -0.6318751 0.012922499
85.980286 71.221298 926.68152 0.76117659 0.065839641 -0.64519399 0
51.996414 72.77504 926.39825 -0.52974725 0.06756708 -0.84545994 0.050856665
53.452827 72.526718 926.63116 -0.5661369 0.028022815 -0.82383472 0.051944815
85.179604 72.839561 925.71661 0.74598938 0.063137345 -0.66295815 0.0082884217
85.993324 72.569145 926.80615 0.80290264 0.095705256 -0.5883773 0.0069636623
51.949474 74.013412 926.49884 -0.5241971 0.17315094 -0.83380818 0.051963545
53.886562 74.138832 926.71454 -0.56525725 0.052332286 -0.82325304 0.057294101
85.241417 73.96759 925.89026 0.75128824 0.087173596 -0.65419173 0
85.982056 73.896667 926.66895 0.73345977 0.083307818 -0.67460841 0
53.862919 75.709648 926.28876 -0.7516458 0.1901338 -0.63156772 0.075691827
54.358974 76.190483 925.62799 -0.7898038 0.41703221 -0.44977099 0.042045604
85.189926 75.836479 926.17987 0.78805918 0.11281607 -0.60517371 0.010160528
55.96257 76.727386 925.64221 -0.47845271 0.79439187 -0.37419868 0.028565178
84.953896 77.239906 926.11621 0.79304725 0.14318283 -0.59209359 0.010609184
84.588661 78.924225 926.00208 0.712587 0.3027603 -0.63289493 0.011331673
80.577843 80.256638 925.995 -0.049039606 0.83991754 -0.54049397 0.043041002
83.5401 80.279549 926.22131 0.55948442 0.58193827 -0.59019065 0.028351029
84.649582 79.783112 926.65784 0.66698581 0.40994251 -0.62215519 0.019357067
81.626183 81.038162 925.74219 0.1088371 0.86498153 -0.48985863 0.064052761
82.697403 81.041069 925.76129 0.37577966 0.7299549 -0.57092518 0.034403581
138.44225 100.41663 925.78137 -0.44388053 -0.82693857 -0.3451705 0.11238975
137.37427 101.30978 925.80292 -0.1301924 -0.87055707 -0.4745318 0.094122492
138.41066 100.92869 925.56171 -0.45731178 -0.80470204 -0.37857702 0.1038767
94.150551 16.433353 928.43427 -0.11940287 -0.45898551 -0.88038361 0.073885344
95.220383 16.433094 928.40668 -0.086803749 -0.51305276 -0.8539567 0.051747132
97.167015 16.25168 928.21649 -0.23270203 -0.60382646 -0.76239312 0.05600895
98.39222 16.043642 927.97003 -0.19902998 -0.55538023 -0.80742794 0.037007697
99.734886 15.891307 927.99103 -0.046589199 -0.5505513 -0.83350033 0.010212035
101.07724 15.891856 928.00684 0.0042998344 -0.59659886 -0.80252808 0.02785139
102.61675 15.95882 927.98621 0.095505953 -0.62634075 -0.77367687 0.030493449
104.11414 16.070822 927.98724 0.16312982 -0.61796808 -0.7690931 0.012692279
105.66214 16.432674 928.23541 0.29073727 -0.57923347 -0.76155132 0.0030543911
110.78376 15.901741 928.43567 -0.58830231 -0.059756827 -0.8064301 0.086379521
92.546608 17.505127 928.48138 -0.34209755 -0.29485697 -0.8922044 0.070190169
93.709793 17.288073 928.31641 -0.23313801 -0.39624384 -0.88805258 0.081248417
95.078598 17.283787 928.06836 -0.1819676 -0.47415227 -0.86143333 0.060049675
96.863029 17.27737 927.69934 -0.21746702 -0.51124841 -0.83146447 0.034124564
98.325943 17.164101 927.34192 -0.17607984 -0.52602762 -0.83204013 0.04310853
99.926514 17.216818 927.27802 -0.063474163 -0.53368336 -0.84329897 0.038899619
101.25848 16.94841 927.20905 0.0048375875 -0.535541 -0.84449542 0.021973524
102.47408 17.084122 927.29889 0.052023415 -0.55593878 -0.82959366 0.028541584
104.22189 17.219334 927.35229 0.16774598 -0.55375665 -0.81560707 0.018305518
105.87669 17.227371 927.76172 0.32106581 -0.5275172 -0.78653818 0.0030684441
107.02106 17.507153 928.3844 0.45733151 -0.50594032 -0.73134971 0
92.353455 18.930519 928.33307 -0.37712452 -0.19271822 -0.90589011 0.046191465
93.564346 18.565783 927.93488 -0.33023447 -0.25864035 -0.90777218 0.029826403
95.132355 18.558372 927.54382 -0.27424276 -0.37508813 -0.88549411 0.052244037
96.628464 18.399288 927.20892 -0.25968704 -0.4473404 -0.85583246 0.057842791
98.839096 18.016205 927.12787 -0.12760293 -0.43526313 -0.89121467 0
104.72482 18.016508 927.05786 0.22840971 -0.52516997 -0.81977165 0.041142602
105.94139 18.152441 927.15289 0.31524968 -0.48775908 -0.81406927 0.010669301
107.20783 18.564459 927.67596 0.41576552 -0.532076 -0.73758668 0.027101846
108.62154 19.113169 928.29816 0.33395788 -0.63834155 -0.69353598 0.026722156
112.32359 18.837402 927.84436 0.038130492 -0.65976447 -0.75050449 0.097102791
112.77892 19.091471 927.17621 -0.037417229 -0.65506762 -0.75464326 0.10773952
92.252258 20.177504 928.21063 -0.39362112 -0.1255395 -0.91066039 0.010415776
93.538368 20.166208 927.67297 -0.38319799 -0.15333518 -0.91084987 0.035914149
94.780258 20.050177 927.23962 -0.32656765 -0.16184631 -0.93121392 0.035200227
107.14463 19.62365 927.1264 0.30517563 -0.54749793 -0.7791751 0.024415798
108.5216 19.898357 927.44257 0.26055068 -0.66936058 -0.69575119 0.025829704
110.17217 19.90641 927.79584 0.14045389 -0.72185761 -0.67763877 0.032555506
111.98592 20.268566 928.00604 0.11330977 -0.73024577 -0.67372257 0.062900163
113.24113 20.252405 927.82263 -0.11574248 -0.5943476 -0.79583573 0.064159207
91.46376 22.055237 928.36389 -0.44367597 -0.01098741 -0.89611995 0
92.238007 21.780588 928.06183 -0.41828406 -0.051665988 -0.90684569 0.011669659
93.461319 21.702528 927.56873 -0.33980611 -0.036671206 -0.93978029 0.016103053
95.026985 21.915466 927.25128 -0.39657074 -0.020093234 -0.91778427 0.062337466
113.14392 21.411772 927.23114 0.061362311 -0.67644984 -0.73392802 0.057396889
91.454262 23.391794 928.263 -0.52692038 0.097904213 -0.84425688 0.043128084
92.344154 23.461138 927.96985 -0.41633922 0.06938149 -0.90655828 0.016881255
93.503281 23.21578 927.31531 -0.3294473 0.047866609 -0.94295979 0.028637361
95.136993 23.375675 927.57336 -0.42505011 0.028964246 -0.90470636 0.056606233
92.332497 24.637533 928.104 -0.44673565 0.17415923 -0.87755108 0.032120135
93.423988 24.766903 927.5863 -0.37038112 0.13166399 -0.91950119 0.0089789908
95.020218 24.657541 927.4762 -0.45821732 0.06142522 -0.88671523 0.046120979
92.539665 26.073446 928.38403 -0.453749 0.29879782 -0.83954257 0.028210206
93.495415 25.993107 927.8905 -0.42043522 0.24152936 -0.87458432 0.016815536
94.868736 26.051392 927.5611 -0.49776876 0.14466952 -0.85515898 0.024380194
93.463531 27.274702 928.23425 -0.48670486 0.35140112 -0.79977226 0.026593219
95.056938 27.659569 927.64862 -0.57967323 0.27366194 -0.76752079 0.03967597
95.322426 29.272457 927.86603 -0.61266977 0.33747721 -0.71466416 0.024616258
96.69352 29.782553 927.05762 -0.41326207 0.41910708 -0.80843288 0.018565031
95.467621 30.620531 928.15411 -0.54724413 0.40902561 -0.7302205 0.0077387793
96.777878 30.879385 927.86188 -0.3873449 0.48000678 -0.78711963 0.0028658332
98.270538 30.931736 927.40259 -0.41312528 0.45795184 -0.78715163 0.013605405
99.373138 31.388996 927.06256 -0.53909141 0.36019951 -0.76133877 0
97.377815 31.97117 928.46497 -0.39927328 0.41762576 -0.81619215 0.026029039
98.516304 32.172504 928.07166 -0.51501656 0.33545774 -0.78881305 0.033689104
99.593391 32.472538 927.4458 -0.62771773 0.19760464 -0.7529428 0.030819045
98.775932 33.746563 928.15131 -0.63947332 -0.02880442 -0.76827347 0.057642251
99.778923 33.634403 927.50433 -0.6413573 -0.026199056 -0.76679492 0.011189602
97.069092 34.635136 928.06433 -0.49834913 -0.25534597 -0.82852072 0.076232076
98.342407 34.61227 927.43115 -0.58264667 -0.30900508 -0.75169057 0.037948754
143.0479 40.046204 928.47626 0.59898597 -0.76869643 -0.22432496 0.15050977
144.30008 40.021694 927.87848 0.48213917 -0.60055554 -0.63786745 0.091732159
144.85754 41.099941 927.99695 0.45907173 -0.540757 -0.70486528 0.050234836
150.57793 41.661354 928.43646 -0.130376 -0.73803455 -0.66204768 0.054248042
152.05089 41.624195 927.5708 -0.092629507 -0.87526792 -0.47468495 0.038427565
153.60637 41.610016 927.21704 0.0038627558 -0.93040234 -0.36651963 0.023981372
155.32347 41.639511 927.83624 0.17078373 -0.91066951 -0.37618333 0.01506381
156.74217 41.660408 928.26978 0.14961417 -0.9172138 -0.36923486 0.014692655
58.251003 43.197971 928.38409 -0.73084241 -0.39650765 -0.55556375 0.020383786
59.378193 42.817593 927.86987 -0.52440578 -0.54737222 -0.65221334 0.020463005
60.752403 42.499519 927.73383 -0.33848995 -0.7143625 -0.61246288 0.022974735
62.210228 42.357185 927.52893 -0.20164096 -0.84239084 -0.49971846 0.029850222
63.570549 42.105328 927.85864 -0.087272353 -0.965253 -0.24631321 0.012782851
65.170952 42.102345 927.77686 0.0068963813 -0.9833737 -0.18146265 0.0087526217
67.791725 42.603577 927.00873 -0.024978464 -0.98023689 -0.19624415 0.017982172
146.18787 42.705013 927.89594 0.14650545 -0.87320113 -0.46481827 0.096869357
147.42766 42.880402 927.79865 -0.20187119 -0.78400898 -0.58700752 0.048486393
149.4756 42.18935 928.27374 -0.20489244 -0.76154727 -0.61486983 0.055272046
58.236591 44.257797 928.14716 -0.78481919 -0.30137995 -0.54150623 0.026917113
59.003468 44.230942 927.57733 -0.6463545 -0.35109153 -0.67746621 0.01633287
58.206196 45.83963 927.65112 -0.79249561 -0.25705945 -0.55305618 0.025657132
58.713417 45.550789 927.21216 -0.71935141 -0.27049181 -0.63981849 0.03074475
57.88097 47.334267 927.5755 -0.72015452 -0.27054805 -0.63889068 0.0080432212
58.700726 46.877567 927.0022 -0.65715271 -0.25694501 -0.70861107 0
56.37606 49.086128 928.33276 -0.6234014 -0.27109578 -0.73340148 0.029354483
57.351673 48.622662 927.65955 -0.70106578 -0.24500799 -0.66968489 0.019024903
55.034462 50.689037 928.27191 -0.55183899 -0.24055701 -0.79850245 0
56.193058 50.063538 928.25055 -0.58068335 -0.23954624 -0.77809018 0.022746483
57.394428 50.111553 927.47412 -0.68805677 -0.20848401 -0.69506276 0.020540588
54.857666 51.939819 928.29083 -0.6104961 -0.23974633 -0.75486165 0.052091349
56.0849 51.80822 927.92255 -0.53200471 -0.19179037 -0.82473481 0.028898418
57.129242 51.718109 927.49738 -0.67668349 -0.20321018 -0.70767581 0.048685174
186.89709 51.3479 928.00916 0.25658497 -0.91690552 -0.30569321 0.017682377
188.65749 51.8522 927.37183 0.25447187 -0.90487331 -0.34124538 0.0054952237
189.82227 52.056122 927.79071 0.28381053 -0.87667459 -0.38844967 0.0065840557
191.21419 52.427788 927.99316 0.32577458 -0.83876973 -0.43627542 0.010768935
54.75182 53.3512 927.99811 -0.52745199 -0.16564874 -0.83327961 0.035631534
56.059204 53.322464 927.4845 -0.53194249 -0.14522286 -0.83423465 0.033235736
192.61528 53.380585 927.71191 0.45197195 -0.73509985 -0.5053212 0.0063644992
193.68237 53.515915 928.16736 0.44510213 -0.57497108 -0.68650746 0
53.960438 54.968227 928.18304 -0.64503556 -0.20347828 -0.73656344 0.076200016
54.673664 54.825188 927.56824 -0.57562357 -0.19210717 -0.79482847 0.071664788
56.172855 54.810783 928.0882 -0.4979353 -0.16953763 -0.85048068 0.051723748
194.20378 54.447899 927.55383 0.55556166 -0.60780317 -0.56738567 0.0070588849
195.3313 54.868988 928.29102 0.58224833 -0.56074727 -0.5886845 0.014315459
53.939892 56.285194 927.81787 -0.61466753 -0.18769519 -0.76612949 0.049492016
54.450352 56.259865 927.39587 -0.56250185 -0.20977464 -0.79974145 0.059308212
55.858452 56.117249 927.68213 -0.5279755 -0.21668713 -0.82115078 0.051632535
195.77339 56.27383 927.81293 0.59694564 -0.53015608 -0.60215479 0.0099433921
197.25739 56.7621 928.43927 0.60881156 -0.46907604 -0.6397782 0.004652869
53.686359 57.637974 928.05005 -0.7171399 -0.13619292 -0.68349242 0.050249934
54.621338 57.589432 927.25873 -0.50591266 -0.14991809 -0.84945691 0.0065550753
55.647079 57.456768 927.26837 -0.47870734 -0.19005769 -0.85715652 0.0086301267
196.25531 57.510204 927.52814 0.62875789 -0.46278435 -0.62489533 0.0089699123
197.15125 57.68214 927.67737 0.63390303 -0.415647 -0.6522305 0.0036898651
198.05347 58.102196 928.35889 0.67197514 -0.32456836 -0.66566116 0.0028472177
53.67078 59.226562 927.76508 -0.62253976 -0.097765207 -0.77645749 0.034131479
54.973557 58.921936 927.17291 -0.58255833 -0.075247742 -0.80929816 0.065851107
55.500893 58.91423 927.04651 -0.57971841 -0.059365038 -0.81265146 0.042485639
197.77382 59.267288 927.67017 0.72704941 -0.24380019 -0.64184165 0.010630104
53.39241 60.819607 927.56512 -0.61352009 -0.086485289 -0.78492886 0.064112402
55.005833 60.829407 927.69904 -0.50408047 -0.037830934 -0.86282778 0.070386536
55.651726 60.670887 927.3158 -0.59419155 -0.022326801 -0.80401367 0.093352839
88.010857 61.198441 927.50275 0.16350602 0.41139194 -0.8966729 0.083353691
197.84134 60.722916 927.34088 0.79611009 -0.10228228 -0.59644526 0.019156761
198.62071 60.797279 928.46033 0.78255963 -0.051223986 -0.6204648 0.016515728
53.069801 62.315666 927.52234 -0.61787415 -0.15150729 -0.77154207 0.065356381
54.754719 62.453259 927.96344 -0.51455867 -0.19773763 -0.83434361 0.095077217
55.513523 62.136627 927.22675 -0.4889999 -0.14677973 -0.85984582 0.062182233
87.761284 62.370663 927.68317 0.53519887 0.26753217 -0.80124199 0.091760784
88.745941 62.194874 927.70947 0.055685256 0.52064353 -0.85195631 0.11766434
197.89076 62.07999 927.56049 0.76909763 0.040769417 -0.63782978 0.0019509759
198.61946 61.602749 928.44714 0.81457579 0.020445734 -0.57969677 0.016411075
52.367294 63.816353 928.33209 -0.74788082 -0.21748288 -0.62719649 0.04550267
52.871666 63.779037 927.78528 -0.70952255 -0.21186686 -0.67207903 0.051902391
54.627926 63.658367 927.31268 -0.51142496 -0.2680147 -0.81646353 0.027734682
87.770309 63.6992 927.89972 0.67829221 0.23427695 -0.69644386 0.10340533
89.568253 63.279316 927.88977 -0.19593035 0.66626364 -0.71951652 0.15284511
90.326477 64.050781 927.41016 -0.32068548 0.67667395 -0.66277695 0.13757917
197.78976 63.834995 927.70337 0.77221918 0.17792967 -0.60993314 0.00061967754
52.35297 65.137108 928.06439 -0.76458246 -0.16792816 -0.6222651 0.0062606945
52.853313 65.094276 927.4494 -0.70950508 -0.17054451 -0.68375224 0.031761896
87.688988 65.225609 927.83337 0.73076415 0.16629724 -0.66206419 0.038895171
91.079109 65.149345 927.78809 -0.55953485 0.63987088 -0.52676928 0.062750578
197.53078 65.180199 927.74268 0.74667871 0.28629807 -0.60042012 0.0045692958
198.04112 65.349907 928.2348 0.78120714 0.300511 -0.54718244 0.006326355
52.075073 66.730019 927.86768 -0.77183789 -0.15686533 -0.61616516 0.015673947
52.837997 66.412529 927.16663 -0.67331803 -0.13609533 -0.72671926 0.007685665
87.438087 66.768074 927.99957 0.7900089 0.10017891 -0.60485536 0.012508865
92.003326 66.778809 928.08191 -0.85485536 0.48696667 -0.17912503 0.0046065389
196.09868 67.267151 927.54785 0.68891382 0.51019078 -0.51488173 0.017734649
197.12169 66.595024 928.13409 0.71943849 0.43137881 -0.54435337 0.0062126447
51.873085 68.401024 927.82965 -0.78466368 -0.1313284 -0.60585117 0.028045297
86.561348 68.316589 927.20483 0.76297283 0.073061064 -0.64228845 0.0084499232
87.387527 68.269882 928.01575 0.80119485 0.07348901 -0.59387386 0.013869233
194.55531 68.479973 927.04205 0.61364657 0.58627617 -0.52888399 0.0062221298
195.40379 68.168854 927.65753 0.65167671 0.57910323 -0.48985398 0.015905179
51.648495 69.933044 927.72607 -0.7268824 -0.11875019 -0.67641741 0.01575591
53.371258 70.421867 927.09467 -0.54468572 -0.047364358 -0.83730173 0
86.552124 69.91433 927.08789 0.68480265 0.082489088 -0.72404486 0
87.368095 69.639572 928.17383 0.80556518 0.080259383 -0.58704609 0.014940418
50.76968 71.056732 928.41852 -0.82118428 -0.12812904 -0.55609304 0.0032726913
51.52536 71.259155 927.55804 -0.69058448 -0.091939703 -0.71738422 0.034886871
86.588974 71.282188 927.46729 0.67706162 0.083146304 -0.73121423 0
87.18589 71.065071 928.12115 0.78863174 0.095873371 -0.60734522 0.0096840048
50.762604 73.188812 928.26459 -0.77735806 0.042544123 -0.62761807 0.038995828
51.393196 72.46521 927.57263 -0.65630293 0.001263143 -0.75449646 0.028562583
53.111565 73.1064 927.19958 -0.54976416 0.10373351 -0.82885391 0.07931228
86.608955 72.637085 927.66559 0.80594927 0.11771711 -0.58016235 0.010519541
87.214714 72.427948 928.41235 0.82403064 0.13617171 -0.54993707 0.018977296
50.760235 74.256485 928.20911 -0.74466753 0.22710115 -0.62761074 0.070087358
51.529045 74.340858 927.58368 -0.54193264 0.20883943 -0.81406087 0.024356946
53.127583 74.198708 927.46722 -0.56685168 0.17418025 -0.80519593 0.080255024
86.319099 74.223679 927.40979 0.83713657 0.14394514 -0.52771407 0.018808044
51.53331 75.283798 927.65369 -0.56937671 0.40713149 -0.71418077 0.090819508
53.394295 75.535156 927.43555 -0.56730163 0.12591217 -0.8138274 0.07971777
86.101654 75.873863 927.93506 0.86547673 0.082150087 -0.49416733 0.028641066
85.49205 77.948341 927.1109 0.78402704 0.12556328 -0.60789424 0.017292591
86.072739 77.186722 927.60681 0.80648893 0.08492589 -0.58511817 0.035055086
85.496552 78.487541 927.15302 0.77330375 0.1965975 -0.60278589 0.029652825
86.111862 78.775078 928.00793 0.76963687 0.21458133 -0.60134345 0.046341304
83.909485 80.645012 927.34351 0.57525522 0.65381104 -0.49154103 0.033279587
84.741959 80.406113 927.66504 0.60790467 0.57310516 -0.54954743 0.043938227
86.285988 80.163567 927.93927 0.63466156 0.39978454 -0.66134483 0.034353375
83.678177 81.21524 927.73987 0.45347583 0.79173046 -0.40929511 0.040859453
94.29216 13.239467 929.83716 0.10207637 -0.46359 -0.88015044 0.039606582
94.835129 13.24038 929.89441 0.12143084 -0.55118978 -0.82549644 0.10882488
98.048714 13.239639 929.80255 -0.13238621 -0.58107585 -0.80300993 0.058799941
100.21394 13.242205 929.95361 0.083488338 -0.67252731 -0.73534805 0.0033284903
91.07373 14.580528 929.87592 -0.25492033 -0.331139 -0.90849465 0.024101501
92.220192 14.465104 929.8316 -0.19072865 -0.36486965 -0.91131377 0.011372962
93.721504 14.307027 929.50305 -0.0011485803 -0.42320243 -0.90603435 0.025104661
94.922241 14.306148 929.43005 0.081051767 -0.47609863 -0.87564868 0.058433659
97.325722 14.304761 929.30933 -0.19975364 -0.55492151 -0.80756456 0.061092459
98.246544 14.302157 929.13141 -0.23795477 -0.59486234 -0.76779962 0.049517274
99.598373 14.303768 929.22235 -0.02763078 -0.65799916 -0.7525115 0.042172685
101.13293 14.369821 929.13763 0.071042061 -0.68649274 -0.72365785 0.027573857
102.82171 14.457932 929.2345 0.16179301 -0.73283654 -0.66088843 0.029453451
104.36272 14.632044 929.56738 0.23353602 -0.72753918 -0.64509505 0.0069104703
105.83005 14.849335 929.71332 0.34175983 -0.73930681 -0.58019453 0.013471079
89.468811 16.190605 929.93683 -0.32581177 -0.21075587 -0.92164451 0
90.667488 15.994178 929.64124 -0.30401284 -0.27465588 -0.91221726 0.043151405
92.094574 15.912586 929.33606 -0.26902986 -0.32617477 -0.90621901 0.036418214
93.596832 15.838993 928.92853 -0.090860657 -0.38266587 -0.91940808 0.020561708
95.212158 15.908792 929.07379 -0.028513383 -0.51769722 -0.85508865 0.040153246
96.764694 15.909353 929.07544 -0.194001 -0.60393357 -0.77306396 0.054642528
98.463913 15.366527 928.64783 -0.21344802 -0.61061251 -0.762622 0.054663226
103.28443 15.366279 928.56573 0.14842334 -0.69261265 -0.70587409 0.034970004
104.75481 15.55098 928.91376 0.23999131 -0.67882854 -0.69397116 0.019094573
105.74936 15.642021 929.00305 0.32962126 -0.68144506 -0.65343904 0.02389738
107.06908 15.983939 929.38654 0.45401037 -0.65290719 -0.60628939 0.024649866
110.82176 16.443174 928.75275 -0.44732946 -0.29005313 -0.84602928 0.16146453
57.245975 16.982718 929.57617 0.65376896 -0.72502512 -0.2166214 0.020430503
89.556236 17.313314 929.72693 -0.37178573 -0.15393467 -0.91546679 0.0061763478
90.744759 17.251123 929.25122 -0.31557459 -0.20367134 -0.92678505 0.00083546632
91.946213 17.191664 928.91846 -0.31712091 -0.27000597 -0.90913755 0.035750069
93.10585 16.973814 928.71149 -0.27300763 -0.3576068 -0.8930757 0.082034446
95.840874 16.983788 929.22144 -0.11752615 -0.57838935 -0.80725056 0.056410041
96.366165 16.981892 929.11047 -0.18992235 -0.59931815 -0.77765501 0.0489293
107.41865 17.156443 928.72949 0.49670538 -0.54462367 -0.67577273 0.013375153
108.41433 17.351458 929.59344 0.39735627 -0.55560356 -0.73035103 0.047541693
110.83472 16.98114 928.86023 0.0049730348 -0.5791381 -0.81521428 0.16870773
111.37966 17.518579 928.92444 -0.23442149 -0.46323407 -0.85467005 0.093022771
89.43586 18.597788 929.58862 -0.44037098 -0.084271684 -0.89385206 0.020493828
90.726562 18.587547 929.06134 -0.38486457 -0.15478219 -0.90990204 0.025874356
91.867126 18.40484 928.83936 -0.35528234 -0.19919793 -0.91328776 0.026583418
108.70402 18.323418 929.00409 0.35828725 -0.59846371 -0.71656919 0.040732425
110.34973 18.865923 929.29395 0.10823447 -0.66744715 -0.73674947 0.067785762
111.67095 18.594725 929.11182 -0.17829719 -0.51123118 -0.84074539 0.086593203
89.426277 20.204399 929.48578 -0.53133512 -0.0034124553 -0.84715492 0.042478815
90.704369 20.190496 928.82953 -0.42110693 -0.084674329 -0.90304995 0.014234883
91.504341 20.189718 928.78156 -0.39460376 -0.10015457 -0.91337669 0
110.79594 19.654463 928.52814 0.12955067 -0.80389649 -0.58048874 0.081264161
111.68752 19.669952 929.24609 0.022900656 -0.71093303 -0.7028867 0.081211284
89.420097 21.811516 929.41724 -0.59188074 0.040957261 -0.80498433 0.019035231
90.82563 21.723055 928.89014 -0.46654192 -0.011899538 -0.88441908 0.0073133828
89.571762 23.496262 929.39337 -0.58204544 0.1396455 -0.8010757 0.0053627873
90.725677 23.411024 929.03766 -0.51099563 0.12270885 -0.85077965 0.002931833
89.98838 24.769211 929.73047 -0.57331502 0.24778679 -0.78096843 0
90.997742 24.752054 929.07257 -0.5468896 0.22895773 -0.80528885 0.014980705
92.047012 25.013878 928.82806 -0.49717122 0.2067353 -0.84266323 0
90.834961 25.999599 929.59766 -0.576065 0.311818 -0.75559151 0.0063079372
91.781059 26.086136 928.84735 -0.50866747 0.28606233 -0.81205028 0.0056459359
94.163528 26.613928 928.53003 -0.49250242 0.28815466 -0.82122362 0.045330331
91.071762 27.454247 929.81616 -0.57949078 0.4182958 -0.69944197 0.021423174
92.15992 27.640015 929.28168 -0.43979433 0.45918116 -0.77183777 0.0084957741
93.802193 28.026917 929.19543 -0.48815304 0.46205637 -0.74041235 0.030073404
94.701332 28.221704 928.53735 -0.67687398 0.40241572 -0.61636299 0.07982529
92.391693 28.788807 929.58307 -0.42843828 0.57783133 -0.69465941 0.021345101
94.302399 29.067413 929.88916 -0.61180866 0.43881792 -0.65812534 0.037978142
94.728531 29.30162 928.79907 -0.66127074 0.36783341 -0.65377337 0.028349923
95.082191 31.134033 929.10175 -0.63339436 0.39915007 -0.66294098 0.023896273
95.428543 32.214573 929.3324 -0.57570857 0.37034726 -0.72897357 0.068515144
96.799759 32.314228 929.09436 -0.431714 0.3720012 -0.82172877 0.024002017
97.936211 32.514454 928.67023 -0.47051075 0.3106319 -0.82591009 0.023736265
94.289795 34.159496 929.73999 -0.72608197 0.25196686 -0.63977945 0.10726
95.923134 34.168205 929.953 -0.46306625 0.059925001 -0.88429558 0.0089752246
96.95726 33.618176 929.56879 -0.47922197 0.14554486 -0.86554205 0.050664477
98.072533 33.512905 929.11035 -0.54620397 0.11013409 -0.83038038 0.048200537
99.010933 33.587234 928.67902 -0.70489591 -0.014764645 -0.70915711 0.11866829
95.545105 34.664913 928.88635 -0.57777345 0.1046038 -0.80946642 0.13813013
