# .PCD v0.7 - Point Cloud Data file format
VERSION 0.7
FIELDS x y z normal_x normal_y normal_z curvature
SIZE 4 4 4 4 4 4 4
TYPE F F F F F F F
COUNT 1 1 1 1 1 1 1
WIDTH 442
HEIGHT 1
VIEWPOINT 0 0 0 1 0 0 0
POINTS 442
DATA ascii
-62.85651 -129.0294 961.96503 -0.1115469 -0.17529149 -0.97817701 0
-57.38718 -128.69038 961.84076 -0.085185826 -0.14698268 -0.9854641 0.026826501
-63.03252 -126.63112 961.87048 -0.10395058 -0.14898019 -0.98336118 0.005247009
-61.491882 -126.41646 961.7782 -0.095340848 -0.1527677 -0.98365247 0.014949741
-59.355362 -127.64033 961.93402 -0.097752526 -0.15438716 -0.98316282 0.023133079
-56.625496 -127.07498 961.63391 -0.081668846 -0.12728779 -0.98849785 0.027682841
-62.399467 -125.73075 961.93152 -0.10426062 -0.14291762 -0.98422778 0.029904077
-60.999756 -124.94258 961.61713 -0.097169518 -0.11681049 -0.98838931 0.0090523502
-59.342461 -124.38774 961.72864 -0.087709092 -0.10104673 -0.99100792 0
-56.333561 -125.06542 961.62909 -0.082527094 -0.09026967 -0.99249214 0.0014741067
-55.832481 -125.08792 961.72058 -0.089322455 -0.087028027 -0.99219328 0.011077623
-60.980728 -122.94147 961.37439 -0.096319675 -0.066907935 -0.99309915 0
-59.340462 -123.06532 961.41174 -0.089271769 -0.068208657 -0.99366903 0
-61.025837 -121.51231 961.46295 -0.097574905 -0.031127363 -0.99474132 0
-59.964409 -121.97319 961.50452 -0.092337228 -0.041700412 -0.99485427 0
-66.363686 -134.72301 963.91266 -0.12205867 -0.36499465 -0.92297381 0.038446784
-64.439613 -134.21156 963.9541 -0.12727812 -0.32270247 -0.93790376 0.025888009
-62.860939 -134.20483 963.84473 -0.11294424 -0.30875885 -0.94441074 0.016438426
-66.616821 -132.8716 963.67456 -0.15218203 -0.29359448 -0.94373882 0.01444527
-64.78894 -132.66158 963.63867 -0.14397742 -0.26898631 -0.95232183 0.0093144244
-62.943722 -132.81912 963.68256 -0.12829612 -0.2612443 -0.95670867 0.0033303737
-61.323742 -132.74611 963.64117 -0.10924224 -0.25092298 -0.96182311 0.002296353
-59.733658 -132.52625 963.45319 -0.074797004 -0.25495982 -0.96405441 0.018678093
-66.412857 -131.13278 963.474 -0.16174628 -0.23562396 -0.95828986 0.00037346216
-64.975639 -130.98482 963.23657 -0.15065725 -0.22459178 -0.96273613 0.0008148682
-63.113213 -130.96213 963.19543 -0.13066968 -0.21061684 -0.96879619 0.0019982534
-61.020416 -130.92686 963.23035 -0.10867953 -0.20065336 -0.97361547 0.0021788913
-59.23719 -130.94121 963.22656 -0.091602586 -0.1972798 -0.97605824 0.016470715
-66.393547 -129.19983 963.5871 -0.14708059 -0.20839806 -0.96692169 0
-65.00206 -128.95668 962.81281 -0.13232215 -0.18754655 -0.97330213 8.7476823e-05
-63.08934 -128.99142 962.63995 -0.11513396 -0.18112497 -0.9766975 0.001743161
-60.986469 -128.96573 962.72363 -0.10669976 -0.17056766 -0.97955179 0.0058585005
-58.912945 -129.01688 963.02399 -0.095886491 -0.16166262 -0.98217666 0.010871499
-57.546974 -128.2944 962.16498 -0.088035613 -0.14754957 -0.98512888 0.028099949
-66.076965 -127.46301 963.50116 -0.13059877 -0.16812152 -0.97707683 0
-64.902863 -127.04601 963.18097 -0.12038856 -0.15496916 -0.98055655 1.1455618e-05
-63.009544 -127.09525 962.27576 -0.10664679 -0.1548848 -0.9821595 0.0021810373
-60.824116 -127.08482 962.35107 -0.094344385 -0.15319949 -0.98368132 0.0024632181
-58.848724 -126.99616 962.62177 -0.089155562 -0.14198589 -0.98584545 0.0086900014
-57.372169 -126.79258 962.64618 -0.081326127 -0.13052668 -0.98810369 0.013893547
-64.617691 -125.07845 963.4715 -0.10645656 -0.12611261 -0.98628736 0.00030930017
-63.142597 -124.94006 962.72174 -0.10450126 -0.12460782 -0.9866876 0.010779312
-60.527016 -125.41479 962.12372 -0.0943859 -0.12639765 -0.98747909 0.0066073001
-58.92527 -125.27015 962.32086 -0.083458975 -0.11696535 -0.98962307 0.00024831397
-57.379772 -124.9885 962.56854 -0.079565719 -0.10572818 -0.99120677 0.0010902546
-64.267563 -123.5676 963.1748 -0.11130194 -0.092897974 -0.98943514 0.0044945646
-62.901051 -123.10301 963.3288 -0.10878558 -0.083823375 -0.99052477 0.011608436
-61.518661 -123.20036 962.02789 -0.1013732 -0.078593835 -0.99173909 0.0010777228
-58.74506 -122.71999 962.60321 -0.089619599 -0.062016901 -0.99404335 0
-57.252262 -123.19862 962.95593 -0.088716559 -0.067437626 -0.99377137 0.00037874826
-55.863342 -123.52981 962.55316 -0.095829964 -0.065022968 -0.99327165 0.0077948319
-62.791138 -121.48589 963.08746 -0.11544815 -0.034112889 -0.99272758 0.0066676438
-60.790733 -121.40538 962.58643 -0.098865278 -0.031624682 -0.99459821 0
-59.216454 -121.68797 963.17426 -0.093373954 -0.038797617 -0.99487495 0
-57.78336 -121.81293 962.91821 -0.097211935 -0.037555952 -0.99455488 0
-68.428337 -136.43016 965.69586 -0.12795588 -0.38891059 -0.91234636 0
-66.724663 -136.69308 965.58948 -0.12110236 -0.38732344 -0.91395557 0.0057156109
-65.5121 -136.67456 965.64899 -0.10471981 -0.40874311 -0.90662169 0.033510823
-62.865185 -136.78204 965.64148 -0.033479664 -0.47602713 -0.87879312 0.069543004
-61.754101 -136.52362 965.26819 -0.025926135 -0.46250516 -0.88623744 0.061970506
-68.672432 -134.97557 965.38507 -0.13328104 -0.37059006 -0.91918397 0.0082835304
-67.115005 -134.96588 965.01593 -0.1273815 -0.36060575 -0.92397922 0.014843225
-65.091873 -135.05783 964.995 -0.10885344 -0.37350535 -0.92121917 0.041196916
-63.004986 -135.09254 965.16223 -0.086720265 -0.37854478 -0.92151153 0.043798734
-61.257614 -134.7827 964.72717 -0.084575325 -0.33336633 -0.93899626 0.0069358218
-68.599228 -133.24866 965.34723 -0.14758202 -0.33523786 -0.93050265 0.014876086
-67.248695 -133.07761 964.37396 -0.15183444 -0.3200095 -0.93516856 0.030547947
-65.119934 -133.31564 964.4248 -0.14034425 -0.3001197 -0.9435209 0.020319417
-62.903824 -133.34749 964.21582 -0.12397037 -0.28108165 -0.95164299 0.0084860893
-61.007252 -133.08337 964.39868 -0.1045052 -0.26792914 -0.95775396 0.0066093914
-59.895779 -132.68425 964.18024 -0.086276613 -0.25762427 -0.96238565 0.019629883
-68.367683 -131.95338 965.59351 -0.16623102 -0.29953489 -0.93949252 0.017456807
-67.246925 -130.93806 964.39679 -0.17151813 -0.24647173 -0.95385182 0.0081826849
-62.678997 -131.7879 964.16528 -0.13786954 -0.22871931 -0.96368021 0
-61.274277 -131.43538 964.10522 -0.10979166 -0.21567221 -0.97027379 0.00029429523
-59.524021 -131.0925 964.10211 -0.091139808 -0.20315273 -0.97489619 0.0015796757
-66.939003 -129.35855 964.5708 -0.16064344 -0.21552134 -0.96319479 0
-65.42511 -126.63934 964.3338 -0.12638108 -0.15017781 -0.98054796 0
-64.964844 -125.19185 964.22046 -0.10970772 -0.12830634 -0.98564792 0
-64.275352 -123.02972 964.45496 -0.11371796 -0.078095213 -0.990439 0.0057946616
-63.882736 -122.63757 964.11975 -0.11377696 -0.063443229 -0.99147862 0.002931955
-63.434761 -121.75769 964.08698 -0.11910528 -0.044563156 -0.99188113 0.015679393
-70.69339 -138.40598 967.67944 -0.14327244 -0.43456274 -0.88917279 0
-69.045731 -138.83099 967.53271 -0.1295895 -0.43868142 -0.8892498 0
-66.914925 -138.36804 966.77655 -0.11962668 -0.42432192 -0.89757478 0.0096230544
-64.966934 -138.58696 967.48865 -0.10276034 -0.4502342 -0.88697767 0.027549515
-63.867218 -138.28479 966.98077 -0.098411076 -0.43477854 -0.8951441 0.020903625
-70.528183 -136.90358 966.75543 -0.1429733 -0.4137772 -0.89908117 0.00098252471
-69.069695 -137.09035 966.86707 -0.12936805 -0.40835398 -0.90360993 8.6387736e-05
-67.020256 -137.16721 966.61658 -0.11976901 -0.40379679 -0.90697497 0.0038667293
-64.843231 -137.17604 966.76642 -0.09702421 -0.43093279 -0.8971529 0.036227535
-63.477779 -136.96936 966.61127 -0.06293916 -0.45721403 -0.88712686 0.053617503
-70.386856 -135.36002 966.8512 -0.1403603 -0.4000136 -0.90569752 0.0051756492
-69.603287 -135.12106 966.45868 -0.13740242 -0.38537505 -0.91247284 0.0062997178
-66.711876 -135.81902 966.29462 -0.12306964 -0.37386382 -0.91928214 0.0045458688
-64.266365 -135.95818 966.35321 -0.081873015 -0.41993916 -0.90385169 0.050988249
-62.489727 -135.56757 966.01514 -0.048902608 -0.42902231 -0.90196919 0.059370968
-68.892769 -133.44101 966.18207 -0.14746642 -0.34749088 -0.92601496 0.01725308
-66.938965 -140.19231 968.88837 -0.11440356 -0.47222012 -0.87402517 0
-70.703957 -138.82909 968.84851 -0.12799013 -0.4621664 -0.87750828 0
-68.95121 -138.95799 968.58392 -0.12588379 -0.45418933 -0.88196677 0
-67.257278 -139.3838 968.55127 -0.12089396 -0.44552642 -0.88706863 0
-65.818275 -138.67705 968.14856 -0.11199502 -0.46792415 -0.87664372 0.042386647
-70.018517 -137.94479 968.13422 -0.13735987 -0.4350132 -0.88988531 0
-62.303932 -120.97942 975.43152 0.51935285 0.16716598 -0.83805019 0.040678162
-61.103367 -121.05048 975.55212 0.57793504 0.17645803 -0.79677713 0.053098053
-59.271427 -121.23317 975.651 0.5840432 0.15931349 -0.79593509 0.045099676
-61.520977 -119.78793 975.81921 0.58810216 0.22475906 -0.77692938 0.063573495
-59.104614 -122.0872 976.35168 0.59133005 0.14422844 -0.79342741 0.046361092
-63.088657 -120.49199 976.95734 0.57414007 0.23329642 -0.78481591 0.069000535
-60.403065 -120.6108 976.37537 0.6005367 0.19717515 -0.77490497 0.052179541
-58.773689 -120.7253 976.69012 0.5779348 0.16375957 -0.79948372 0.040542789
-57.745953 -120.46899 977.59003 0.55671579 0.15091616 -0.81687939 0.031424511
-64.185745 -119.44868 977.50372 0.55601424 0.32695538 -0.7641651 0.093613803
-62.948231 -119.10321 977.34857 0.58372027 0.30965355 -0.75059003 0.08483544
-60.971928 -119.00136 976.72009 0.61738944 0.27139133 -0.738361 0.074029841
-58.962891 -118.99326 977.03693 0.58772528 0.22766295 -0.77636892 0.048520107
-57.332573 -118.69701 977.63745 0.57316005 0.2101604 -0.79203552 0.037558492
-63.148949 -117.62471 977.55786 0.42135727 0.32996503 -0.84473735 0.044333912
-60.771454 -117.22353 977.479 0.55903494 0.29726258 -0.7740252 0.064255156
-59.223881 -117.36082 977.69751 0.58287728 0.27615118 -0.76419544 0.060173854
-57.430878 -117.35064 977.78882 0.57966703 0.24950004 -0.77571642 0.049764547
-60.185356 -115.50385 977.82593 0.53299314 0.30107555 -0.79074132 0.067155316
-56.393738 -122.8947 979.8407 0.51812375 0.061604027 -0.85308421 0.036871824
-63.078747 -120.14513 978.0592 0.60630155 0.28439704 -0.74264175 0.080955736
-57.421665 -120.53252 978.09235 0.55383533 0.153515 -0.81835175 0.029886607
-62.510384 -118.32973 978.33234 0.56928957 0.31477541 -0.75949043 0.071934804
-58.107422 -118.39208 978.08765 0.60125065 0.25271851 -0.7580443 0.05443554
-57.479218 -118.96067 978.34686 0.56365889 0.20192659 -0.80094588 0.033492427
-62.41906 -116.87632 978.9765 0.47487074 0.32449654 -0.81804633 0.050573345
-61.497112 -116.5865 978.43158 0.51817971 0.31020665 -0.79703295 0.058233116
-58.83189 -116.83276 978.30695 0.57989687 0.27767181 -0.76590985 0.060993262
-57.321438 -116.84772 978.53882 0.54874402 0.24793532 -0.79837847 0.041560952
-62.286587 -115.24392 979.15222 0.41089356 0.34629744 -0.84335315 0.057165217
-60.993191 -115.11523 978.93292 0.47241521 0.31503978 -0.82314873 0.058406468
-59.007977 -115.10449 978.92023 0.52770597 0.28550184 -0.80000943 0.059365943
-57.328663 -115.03031 978.98016 0.55646765 0.27205527 -0.78506666 0.060277663
-60.697823 -113.53813 979.60205 0.35468939 0.33237466 -0.87391222 0.049262311
-59.079994 -113.14501 979.40948 0.39533111 0.30900595 -0.8650021 0.045840353
-57.343277 -113.37168 979.52051 0.46573675 0.27882025 -0.83985031 0.048171107
-59.209358 -111.83151 979.88348 0.22236487 0.32763842 -0.91826308 0.02001095
-56.380348 -111.85581 979.98499 0.34647572 0.27915913 -0.89555836 0.030810542
-55.111286 -128.5585 981.58984 0.35340154 -0.046570737 -0.93431181 0.033500165
-53.100197 -128.53519 981.87976 0.32620731 -0.023034066 -0.94501752 0.03103612
-51.340557 -129.98579 981.95032 0.2971018 -0.077724464 -0.9516772 0.014721669
-54.865192 -127.00121 981.39105 0.4333759 -0.0048561101 -0.90120012 0.035261247
-52.924099 -126.89782 981.66827 0.36045864 -0.002681656 -0.93277133 0.032024141
-51.146164 -127.14446 981.87103 0.33273566 0.00056075322 -0.94301993 0.041333422
-56.562843 -124.62814 980.95203 0.50192124 0.0082927709 -0.86487359 0.035916232
-54.941509 -124.97821 980.92346 0.49552292 0.0072835367 -0.86856431 0.040112797
-53.011177 -125.0513 981.31519 0.43684369 0.0053193378 -0.89952171 0.040249094
-51.319069 -124.85291 981.84454 0.33169422 -0.011667716 -0.94331485 0.00098379538
-56.759602 -122.99123 980.80096 0.50025332 0.039071664 -0.86499709 0.029040299
-54.926697 -122.99231 980.56042 0.49543548 0.025533997 -0.86826932 0.034651261
-53.021385 -122.93594 981.46051 0.47982123 0.015395929 -0.87723124 0.046285614
-51.981647 -123.2938 981.896 0.39163181 -0.017415166 -0.91995722 0.018676111
-56.53957 -121.19068 981.16278 0.5458566 0.12480501 -0.82853144 0.044108804
-54.928909 -121.07664 980.95538 0.52406019 0.097162709 -0.84612077 0.041367766
-53.251926 -121.28992 981.65021 0.50155425 0.05193869 -0.86356568 0.040086932
-56.193378 -119.89412 981.55701 0.50715333 0.12529409 -0.85269982 0.016710406
-55.306633 -119.18076 981.38654 0.52330947 0.15682614 -0.83758742 0.024982911
-55.342697 -117.51971 981.58881 0.50224477 0.18878637 -0.84386605 0.0095121758
-62.230026 -114.39035 980.55103 0.33770114 0.3522552 -0.87285405 0.048685491
-61.559494 -114.3555 980.22729 0.38385975 0.33212256 -0.86159515 0.051352307
-62.129734 -112.67321 981.12189 0.12974371 0.37212345 -0.9190706 0.013551383
-61.172562 -112.85541 980.70776 0.21970244 0.34662667 -0.91191053 0.022639742
-58.665794 -112.36843 980.19348 0.33386779 0.3059763 -0.89157772 0.035323549
-57.293785 -112.60482 980.33557 0.4158791 0.28109536 -0.86488724 0.043051358
-62.49794 -111.00287 981.60693 -0.070512898 0.40867105 -0.90995383 0.00070260098
-61.031612 -111.12028 981.33252 0.035752617 0.37521064 -0.9262498 0.0036855489
-59.035557 -111.02352 980.60602 0.13576774 0.34422046 -0.9290207 0.0093980469
-57.067947 -111.01209 981.11639 0.25950035 0.30827153 -0.91522032 0.032155812
-62.139004 -109.88769 981.72394 -0.13311432 0.42127663 -0.89711016 0
-60.533001 -109.23643 981.68646 -0.1349597 0.42583334 -0.89467973 0.020697413
-59.083591 -108.99953 981.42444 -0.10504271 0.42230648 -0.90034622 0.03474658
-57.048008 -109.64109 981.71161 0.084140934 0.36470461 -0.92731375 0.042862769
-55.50264 -108.88453 981.71063 0.0022002526 0.38940647 -0.9210633 0.054286703
-60.357616 -107.78061 981.95776 -0.25745195 0.46736988 -0.84574461 0.041485358
-59.591465 -107.44205 981.73273 -0.25481766 0.46815586 -0.8461076 0.040939104
-59.267708 -105.63703 981.88593 -0.28072548 0.48423958 -0.82867682 0.051948443
-50.741917 -132.02611 983.78107 0.26585752 -0.15767297 -0.95103055 0.014882208
-48.261135 -132.42612 983.98981 0.27727994 -0.13682286 -0.95099699 0.02752218
-54.738476 -130.22501 982.72699 0.25891656 -0.13134249 -0.95692807 0.00094213331
-53.030212 -130.59515 983.15442 0.27472499 -0.11911231 -0.95411664 0.0067699705
-51.065845 -130.74725 983.39813 0.30098316 -0.091396898 -0.94923955 0.029390469
-49.045166 -130.66823 983.72113 0.31747392 -0.055794131 -0.94662416 0.044586305
-47.115749 -130.84116 983.79022 0.30518728 -0.063584082 -0.95016724 0.034503222
-56.354927 -129.34312 982.70233 0.25260034 -0.12331375 -0.95968062 0.0070948545
-55.014835 -129.08684 982.56494 0.29695264 -0.069659553 -0.95234799 0.015352395
-52.945866 -128.97662 982.38867 0.32194826 -0.028474854 -0.946329 0.028475082
-50.979553 -129.05862 982.84448 0.31916469 -0.024618689 -0.94737941 0.022073846
-49.027351 -129.0463 983.33929 0.32547694 -0.019208765 -0.94535482 0.035506032
-47.126335 -128.9724 983.61359 0.31700361 -0.027173143 -0.948035 0.033286601
-44.91629 -129.05333 983.94977 0.31221214 -0.03888474 -0.94921631 0.034620464
-55.655567 -127.19928 982.25848 0.43828425 0.0020379822 -0.89883405 0.043300342
-52.702538 -127.40804 982.14374 0.34943858 0.0053208931 -0.93694419 0.04781919
-50.862343 -126.87661 982.37061 0.32396793 -0.00099181023 -0.94606757 0.028972531
-49.066807 -127.04016 982.81586 0.32144645 0.0017921433 -0.94692606 0.024212867
-46.952324 -126.98568 983.31506 0.31883389 -0.0086329617 -0.94777131 0.025231188
-45.70903 -127.392 983.81976 0.31465185 -0.015844114 -0.94907492 0.021224363
-50.967842 -125.02964 982.22705 0.3179675 -0.0045236275 -0.94809085 0.0042602601
-48.994953 -124.9409 982.80682 0.32333499 0.014198303 -0.94617802 0.030341001
-46.969818 -125.07619 983.63983 0.32893157 0.013029618 -0.94426388 0.032378141
-45.694683 -125.60624 983.87958 0.31423572 -0.0020089615 -0.94934285 0.0067033707
-51.040844 -123.05019 982.51019 0.34740335 -0.0054056593 -0.93770033 0.0053229737
-49.206383 -123.05537 983.34924 0.31541231 0.025101516 -0.9486227 0.0096114865
-47.376423 -123.5662 983.69238 0.33814371 0.041512415 -0.94017845 0.035927989
-56.735249 -120.61597 982.21619 0.53225851 0.12895133 -0.8367033 0.034024976
-54.11071 -120.01188 982.43793 0.53523767 0.12563372 -0.83530647 0.043483038
-52.771385 -120.65244 982.60791 0.47246903 0.042071976 -0.88034254 0.029226664
-51.176899 -121.13309 983.15881 0.38696525 0.0155064 -0.92196393 0.019675601
-49.617565 -121.5434 983.5564 0.33741143 0.049933963 -0.94003201 0.018382993
-56.43187 -118.89164 982.4682 0.50596505 0.16963565 -0.84570867 0.012447629
-54.567078 -118.83303 982.76434 0.54949003 0.18445548 -0.8148846 0.036068041
-53.048595 -119.13556 983.39771 0.50381076 0.10748689 -0.85710049 0.027594397
-51.259579 -119.74068 983.52466 0.42595148 0.05786984 -0.9028933 0.025363153
-56.253967 -117.74713 983.02209 0.48499799 0.19124539 -0.85334766 0.0030178111
-55.131611 -117.50011 982.7077 0.5302217 0.21015835 -0.82140028 0.023466401
-63.080402 -112.28552 982.75507 -0.01167043 0.39780721 -0.91739476 0
-64.001389 -111.43449 982.84753 -0.14817281 0.43344787 -0.88891381 0
-62.984871 -110.97609 982.86102 -0.10699475 0.41354322 -0.90417594 0.0014766505
-61.152878 -110.89757 982.20105 0.010413214 0.37851328 -0.92553735 0.0061842594
-55.769566 -110.30509 982.01208 0.23493494 0.30492336 -0.9229449 0.038595803
-62.639576 -109.07479 983.37177 -0.22230555 0.44375756 -0.86813557 0.02604394
-61.212326 -109.01208 982.5957 -0.18474916 0.44003722 -0.87876898 0.025217598
-58.374065 -108.30859 982.35211 -0.22385252 0.45546585 -0.86165005 0.055150274
-56.991577 -108.78348 982.42218 -0.058259688 0.41397199 -0.90842336 0.055275243
-55.757202 -108.52927 982.09302 -0.059911501 0.4109576 -0.9096837 0.058384646
-62.412819 -107.95023 983.58044 -0.22473198 0.45901215 -0.85953677 0.029967703
-60.720203 -107.06086 983.11975 -0.23014762 0.46954873 -0.85238266 0.034799684
-58.835361 -106.79397 982.39233 -0.23976374 0.47178471 -0.84848839 0.039580543
-57.020489 -106.98544 982.71289 -0.2063406 0.4622418 -0.86241293 0.035610747
-55.286354 -106.91631 982.60815 -0.19036891 0.45864978 -0.8679862 0.035751775
-60.220612 -105.53013 983.5827 -0.28614518 0.48858663 -0.82425964 0.054779004
-58.938896 -104.92448 982.9068 -0.28131086 0.48715895 -0.82676494 0.056160953
-57.008888 -104.9686 983.12549 -0.24266466 0.47709578 -0.84468544 0.045940697
-54.976086 -105.06004 983.44525 -0.18696527 0.46926305 -0.86303896 0.031804424
-58.809357 -103.36473 983.51111 -0.27480066 0.48979285 -0.82739806 0.062521659
-57.495014 -103.29805 983.53601 -0.22117588 0.48015338 -0.84884274 0.049951911
-44.610512 -134.11823 985.72485 0.27012923 -0.13290536 -0.95360702 0.018985674
-43.187157 -134.491 985.7644 0.27521405 -0.11700804 -0.95423597 0.018607376
-41.22607 -134.16423 985.93176 0.28869393 -0.056158856 -0.955773 0
-50.440117 -132.25844 984.82941 0.25944659 -0.15379331 -0.95343333 0.00037125649
-48.901482 -132.68822 984.89166 0.2681005 -0.15391998 -0.95101565 0.020799104
-47.140148 -132.80554 985.13623 0.27386934 -0.12856172 -0.95313561 0.013651802
-44.844604 -132.93515 985.37537 0.28646865 -0.082849726 -0.95450073 0.0077218609
-43.048012 -132.93639 985.64539 0.29931149 -0.071412228 -0.95147938 0.029335044
-41.178764 -132.65144 985.79785 0.29638892 -0.043370482 -0.95408207 0.0017064451
-52.783871 -131.19774 984.37622 0.26289287 -0.1431621 -0.95414466 0
-50.832241 -131.23479 984.40936 0.28448561 -0.10636664 -0.95276129 0.0098679336
-48.959087 -131.32678 984.52124 0.3039799 -0.084911518 -0.94888681 0.037652958
-46.909218 -131.16603 984.41467 0.30075726 -0.068155885 -0.95126224 0.028483059
-45.007542 -131.0497 984.83185 0.29798824 -0.062638998 -0.95251209 0.016629815
-43.016022 -130.97133 985.16199 0.31096986 -0.043995284 -0.94940096 0.033390507
-41.058167 -131.0004 985.55823 0.31133497 -0.035279173 -0.94964516 0.027550491
-39.524693 -130.68898 985.89087 0.30011916 -0.042282842 -0.95296413 0
-46.53833 -129.16049 984.26422 0.31576276 -0.035531674 -0.94817263 0.038987007
-45.015343 -128.93141 984.31384 0.31006989 -0.036992583 -0.94999379 0.029214751
-43.093475 -128.97032 984.80994 0.31451821 -0.021988237 -0.94899678 0.028616553
-40.964291 -129.01396 985.50232 0.31927028 -0.023609465 -0.94736952 0.04058937
-39.537388 -129.55946 985.87335 0.30068514 -0.043250218 -0.95274228 0.0032948412
-46.074066 -127.41441 984.00665 0.31554484 -0.014548139 -0.94879913 0.020027582
-44.971363 -126.95789 984.49707 0.31137139 -0.0098082349 -0.95023769 0.0118334
-43.104492 -126.98212 984.91083 0.32318845 0.0065632872 -0.94631183 0.030375965
-41.273502 -127.32213 985.60413 0.32759365 -0.0019503209 -0.94481665 0.043862902
-39.732277 -126.98293 985.97949 0.31841809 -0.012565031 -0.9478671 0.028395452
-46.586952 -124.73265 984.09528 0.3210288 0.01114471 -0.94700384 0.016452782
-44.970337 -124.86987 985.00543 0.31620201 0.018326186 -0.94851482 0.0015543239
-43.195969 -125.07209 985.43323 0.31774315 0.027508905 -0.94777775 0.0022667956
-48.574608 -122.7095 984.34113 0.32383239 0.038830083 -0.94531733 0.021057921
-46.929459 -122.97271 984.8208 0.3471072 0.07139121 -0.93510425 0.024643175
-45.072956 -123.18436 985.16388 0.34435791 0.093144298 -0.93420649 0.0036659453
-43.355846 -123.52098 985.46014 0.3445915 0.090489484 -0.93438125 0.006012354
-50.673435 -120.75983 984.64862 0.36397603 0.074880265 -0.92839342 0.026587542
-49.097977 -121.11606 984.98346 0.35968679 0.11064915 -0.92648917 0.037483905
-47.427021 -121.63495 985.53955 0.37286073 0.13980874 -0.91729403 0.023547255
-45.734776 -121.8679 985.54291 0.37498006 0.15549181 -0.91389948 0.018094141
-53.129822 -119.15963 984.22021 0.47584975 0.078619383 -0.87600565 0.018433454
-50.875507 -119.6403 984.15601 0.40533555 0.064519897 -0.9118883 0.026098825
-61.92688 -108.38646 984.27612 -0.21273173 0.45709932 -0.86360031 0.028236037
-62.26659 -107.0684 984.22681 -0.23106198 0.47177827 -0.8509028 0.036776084
-61.594395 -106.79516 984.42743 -0.21943022 0.47166139 -0.85404092 0.034267686
-60.977177 -105.09389 984.70416 -0.29573715 0.49438345 -0.81738883 0.06296663
-59.743156 -104.09226 984.15283 -0.26295537 0.48482776 -0.83414423 0.059638411
-56.18734 -104.10886 984.16901 -0.21169163 0.48026511 -0.85119456 0.052778944
-55.592918 -104.49139 984.38153 -0.18580942 0.47263804 -0.86144543 0.039192688
-60.534149 -103.29554 985.10541 -0.27090532 0.49299008 -0.82678354 0.061963234
-59.052444 -102.67813 984.72906 -0.19472556 0.47474983 -0.85830909 0.041493781
-56.806767 -102.72305 984.76959 -0.15327327 0.46940389 -0.86957878 0.029678248
-55.176117 -103.03857 985.10443 -0.12973633 0.47282067 -0.87155563 0.027163202
-58.926628 -101.41647 985.2818 -0.17058204 0.48712224 -0.85651255 0.042710923
-56.799034 -101.47628 985.34735 -0.1396216 0.48434311 -0.86366522 0.035049397
-55.486759 -101.34758 985.40533 -0.11424112 0.49101108 -0.86363018 0.029372973
-40.413383 -136.18245 987.48022 0.279883 -0.1367453 -0.95024538 0.036036823
-38.091957 -136.21231 987.60687 0.29095635 -0.089977488 -0.95249593 0.01911363
-36.937672 -136.6875 987.73749 0.28868839 -0.076968752 -0.95432431 0.0043238951
-35.594452 -136.2572 987.83563 0.29424056 -0.066348478 -0.95342559 0.0093128309
-44.464436 -134.33322 986.41608 0.26543704 -0.11974016 -0.95666373 0.003811267
-42.802589 -134.59447 986.50659 0.27831787 -0.10059056 -0.95520717 0.014804919
-41.057003 -134.90088 986.96161 0.28777719 -0.073604941 -0.9548648 0.012435366
-38.982319 -134.9623 987.37183 0.29876319 -0.065797664 -0.95205629 0.021543328
-37.05463 -134.90611 987.6051 0.29451689 -0.056288209 -0.95398712 0.0034136192
-35.277821 -134.68047 987.72534 0.29854512 -0.054410499 -0.95284331 0.0095284283
-33.783154 -134.09612 987.79144 0.3012242 -0.06264925 -0.95149308 0.023812337
-46.713451 -133.52205 986.27362 0.26359054 -0.16327854 -0.9507156 0.019759664
-45.514935 -133.3316 986.15039 0.28007635 -0.10712945 -0.9539814 0.015469891
-42.871712 -133.3961 986.39752 0.28897548 -0.076985613 -0.95423603 0.010691901
-40.962536 -133.34549 986.58923 0.295194 -0.04571512 -0.95434308 0.0041619418
-38.918808 -133.00862 986.61285 0.30592194 -0.054121476 -0.95051706 0.02320423
-36.953163 -132.97212 987.00854 0.3045437 -0.041008588 -0.9516151 0.010573532
-35.068356 -132.94896 987.57153 0.30871448 -0.040469218 -0.95029342 0.01966962
-40.135719 -131.14438 986.18225 0.29913467 -0.042112973 -0.95328116 0
-38.728741 -131.06042 986.3985 0.30195379 -0.042418409 -0.95237845 0.0007876989
-36.922676 -131.01291 987.02423 0.30474126 -0.028527258 -0.95200783 0.00061671849
-35.057743 -131.09706 987.57623 0.31716368 -0.024839407 -0.94804543 0.02509908
-40.107407 -128.78427 986.01831 0.30952346 -0.034705203 -0.95025831 0.024699533
-38.821583 -128.8927 986.51318 0.30614048 -0.032617368 -0.9514274 0.0013683387
-37.028278 -129.09149 987.05634 0.31171244 -0.018734552 -0.94999176 0.0032047406
-35.571758 -129.3412 987.69025 0.32853651 -0.018412856 -0.94431174 0.038565371
-40.643414 -126.68688 986.50861 0.32135767 0.0024732675 -0.94695461 0.025268219
-38.960712 -127.01463 987.18646 0.31869155 -0.015738321 -0.94772774 0.018924942
-37.361469 -127.43545 987.61877 0.31639382 -0.0052603027 -0.94861335 0.0015208635
-35.511211 -127.75838 987.63831 0.34081078 -0.0020433366 -0.9401297 0.047350075
-42.628128 -124.63582 986.36523 0.32834512 0.04789196 -0.94334292 0.0090440381
-41.29707 -125.23476 986.67401 0.33048055 0.048983816 -0.94254076 0.0095298635
-39.077896 -125.60757 987.85889 0.35603145 0.044295236 -0.93342352 0.047795072
-46.313637 -122.33109 986.40344 0.35784164 0.12055873 -0.92596704 0.0095377741
-45.237839 -122.84917 986.19318 0.3483575 0.1074984 -0.93117732 0.0048148944
-43.811073 -123.20988 986.1488 0.3420532 0.095510915 -0.93481404 0
-46.746033 -121.5918 986.2533 0.38693538 0.17105511 -0.90610212 0.028022172
-60.218449 -102.53675 986.39056 -0.1966382 0.48107105 -0.85434425 0.042574782
-59.858391 -102.35582 986.3584 -0.19582118 0.48743394 -0.85091847 0.047405146
-54.977051 -102.65014 986.12622 -0.12747072 0.48727608 -0.86389422 0.040151052
-60.252308 -100.71356 987.23956 -0.17358468 0.51888174 -0.83703649 0.043885168
-58.949299 -100.60192 986.76141 -0.16662812 0.51808107 -0.83894402 0.051513314
-57.076691 -100.63808 986.60754 -0.14597519 0.52258778 -0.83999604 0.056684554
-55.142578 -101.4037 986.31476 -0.11501899 0.50693357 -0.85427684 0.041557912
-60.27285 -99.807243 987.72247 -0.19465362 0.56365907 -0.80274433 0.06656459
-58.959942 -99.628304 987.67261 -0.15715225 0.55207354 -0.81885159 0.059405655
-57.254364 -99.711838 987.36877 -0.13788058 0.55188298 -0.82244396 0.062271696
-32.682602 -138.54591 989.46149 0.29312146 -0.069425434 -0.95355123 0.029541068
-31.021843 -138.55663 989.90393 0.29980704 -0.068551205 -0.95153373 0.044457488
-29.507624 -138.22079 989.77264 0.28922781 -0.054080002 -0.95573151 0.017862873
-38.76368 -136.4994 988.73071 0.28965917 -0.10591433 -0.95125169 0.0296611
-36.832333 -136.85736 988.9151 0.28643042 -0.077395022 -0.95497 0.0029414077
-34.923244 -136.99071 988.95905 0.28936937 -0.069963299 -0.95465726 0.0029969832
-32.951916 -136.96779 989.14008 0.29779881 -0.046931468 -0.9534744 0.011259609
-31.021803 -136.92389 989.46582 0.30003679 -0.036009215 -0.95324779 0.01616046
-29.049215 -136.8033 989.79156 0.29755235 -0.040887795 -0.95382953 0.023575939
-27.779222 -136.95435 989.96271 0.32047534 -0.024769424 -0.94693291 0.069824472
-40.61581 -135.79451 988.1629 0.28770003 -0.10342181 -0.95212007 0.03031615
-38.887035 -135.46233 988.30463 0.29593533 -0.0740209 -0.9523356 0.019779896
-36.914768 -135.52255 988.22949 0.29191518 -0.062039036 -0.9544301 0.0027344611
-34.861538 -135.31546 988.21338 0.2924923 -0.064052954 -0.95412034 0.0026537082
-32.891285 -134.95996 988.61639 0.29793814 -0.05339615 -0.95309067 0.011082352
-30.963921 -135.0011 989.02521 0.30055624 -0.030753892 -0.95326805 0.0032940954
-28.990505 -134.99495 989.58673 0.29884073 -0.027020603 -0.95392042 0.0057229721
-27.576662 -134.5894 989.8512 0.32680517 -0.009802741 -0.94504094 0.06566073
-34.791386 -133.20787 988.1969 0.30567789 -0.041588053 -0.95122629 0.014365338
-32.903618 -133.00346 988.40863 0.3083936 -0.047868766 -0.95005363 0.029738463
-30.979614 -132.97916 988.97931 0.29918203 -0.042646516 -0.95324254 0.0059552481
-29.256533 -133.19131 989.65332 0.3057172 -0.017592102 -0.95195985 0.0019279438
-27.208246 -133.1575 989.94208 0.29974687 -0.021018857 -0.95378721 0.014996808
-34.568352 -130.26941 988.19867 0.31948739 -0.017706417 -0.94742513 0.027881168
-32.896339 -131.01199 988.72791 0.31316024 -0.033542022 -0.94910777 0.028928556
-31.07859 -131.24281 989.28345 0.30722564 -0.030114539 -0.95116007 0.012183655
-29.209139 -131.63521 989.78497 0.31583476 -0.0061891414 -0.94879401 0.0097680958
-36.446766 -128.07263 988.70862 0.32416332 -0.017499167 -0.94583929 0.024294963
-34.813026 -128.9296 988.68951 0.33235109 -0.003032529 -0.94315088 0.041054484
-33.153324 -129.18102 989.38361 0.32893375 -0.010014778 -0.94429988 0.043856956
-31.463902 -129.61951 989.31018 0.31770572 -0.0042785667 -0.94817978 0.012311024
-38.149925 -126.45599 988.35352 0.31643665 -0.0017620795 -0.94861203 0
-36.913464 -126.96854 988.55396 0.32521954 0.007246804 -0.9456107 0.0097132279
-35.388813 -127.54606 988.58057 0.35275936 0.016351597 -0.93557119 0.057290483
-39.038422 -125.78947 988.34235 0.33920968 0.029422579 -0.94025052 0.025609577
-59.11784 -99.517159 988.35382 -0.17723216 0.59276605 -0.78563166 0.077063173
-57.807972 -99.521172 988.34149 -0.13762072 0.57336271 -0.80766076 0.065912783
-28.852592 -140.4388 991.61243 0.28346536 -0.081162654 -0.95554179 0.037248157
-26.879303 -140.43152 991.48517 0.30510613 -0.083356082 -0.94866329 0.084252186
-25.12429 -140.53224 991.4881 0.30553326 -0.062754326 -0.95011115 0.081167199
-23.310104 -141.11212 991.88409 0.28365338 -0.042646267 -0.95797813 0.054352503
-21.293779 -140.50133 991.76184 0.2848503 -0.030884407 -0.95807433 0.065880567
-19.940216 -140.30562 991.60828 0.25846028 -0.011202801 -0.96595693 0.028452739
-32.713799 -138.79491 990.37775 0.29146415 -0.073144317 -0.95378113 0.027359465
-30.954035 -138.89902 990.53552 0.29667616 -0.072872818 -0.95219374 0.043484312
-28.973305 -139.09271 990.6358 0.28609303 -0.066375352 -0.95590019 0.028507486
-26.969303 -138.97276 990.94006 0.30241579 -0.06426008 -0.95100754 0.065702692
-24.960182 -138.98572 991.43945 0.3165772 -0.042551726 -0.94761187 0.085296772
-23.036757 -138.86977 991.71344 0.30434465 -0.040529631 -0.95169938 0.073519282
-21.013821 -138.99524 991.8717 0.28903592 -0.013276552 -0.95722616 0.056853723
-19.572916 -139.17049 991.68646 0.26168734 -0.011146292 -0.96508831 0.025703013
-34.244652 -137.29079 990.02966 0.29405919 -0.05134676 -0.95440704 0
-30.308058 -137.71066 990.29596 0.30399692 -0.062672779 -0.95060927 0.046533719
-29.085598 -137.22931 990.18958 0.29485911 -0.046970744 -0.95438564 0.024939459
-26.828463 -137.06613 990.53162 0.31571454 -0.042252228 -0.94791299 0.075095542
-24.967981 -136.92006 991.04071 0.32130986 -0.035012141 -0.94632667 0.083707854
-23.039629 -137.06519 991.53137 0.30838025 -0.0358827 -0.95058608 0.068887204
-21.392368 -137.09592 991.78601 0.30528823 -0.027733753 -0.95185608 0.072677553
-19.748154 -137.99683 991.94427 0.31140628 -0.011050276 -0.9502126 0.093954377
-28.131237 -135.87907 990.04779 0.307538 -0.026771827 -0.95115912 0.044749133
-27.017475 -135.05116 990.37482 0.32620057 -0.0088012135 -0.94525957 0.068095066
-25.146374 -135.00229 991.10645 0.31719086 -0.029724272 -0.94789582 0.071304336
-23.317604 -135.22832 991.71912 0.30041414 -0.029314714 -0.95335829 0.048330408
-28.311539 -132.62511 990.35864 0.30762109 -0.0077642989 -0.95147717 0.0015181334
-27.076023 -132.94818 990.76031 0.32055646 0.0057531339 -0.94721198 0.037414663
-25.355843 -133.3499 991.37866 0.3209385 -0.0077180364 -0.94706857 0.061334975
-23.849936 -133.97612 991.85657 0.30709106 -0.015264707 -0.95155776 0.047498442
-32.033188 -130.09367 990.19165 0.30632746 -0.025274655 -0.95159066 0.0064840172
-30.678667 -130.54564 990.5769 0.31888342 -0.010929849 -0.94773096 0.019572547
-29.069273 -130.97643 990.66541 0.32527834 0.0073452205 -0.94558978 0.01881858
-27.542048 -131.645 991.72052 0.30969515 -0.0062691616 -0.9508152 0.010419536
-32.633572 -129.63513 990.39233 0.31495532 -0.026046909 -0.94874907 0.02874353
-31.083061 -129.66078 990.52802 0.32569593 0.00028939603 -0.94547451 0.025812857
-29.533966 -129.8118 990.70099 0.32457569 0.02114928 -0.94562334 0.0040930687
-24.666601 -142.12561 993.10303 0.25837925 -0.029145028 -0.96560383 0.004345139
-22.873604 -142.35777 993.3869 0.25299436 -0.029030068 -0.96703213 0.027260572
-21.418703 -142.10432 992.82928 0.25247601 -0.016637245 -0.9674601 0.035317402
-28.233414 -140.88905 992.20581 0.2952646 -0.086317778 -0.95150834 0.06972336
-26.743509 -140.77367 992.61285 0.30823839 -0.082617 -0.94771492 0.093922995
-24.820543 -141.14101 992.35724 0.29004791 -0.050735869 -0.9556663 0.058516473
-23.023188 -140.97653 992.52869 0.27834168 -0.040121801 -0.95964378 0.04994772
-21.060272 -140.97978 992.43298 0.27059203 -0.023584632 -0.96240515 0.055439025
-19.599173 -140.27 992.62561 0.23678857 0.0087479502 -0.97152185 0
-22.868832 -139.55434 992.17993 0.29816169 -0.044213064 -0.95349091 0.074121043
-20.960606 -138.97528 992.21637 0.29119495 -0.010797269 -0.95660281 0.064226806
-19.549004 -138.81514 992.16962 0.27338442 -0.0073603438 -0.96187669 0.045364928
-22.198557 -136.55919 992.1308 0.30796057 -0.029663673 -0.9509365 0.071080446
-20.840069 -136.97525 992.46552 0.30187461 -0.01973681 -0.95314336 0.071036264
-19.44104 -136.9906 992.66223 0.30495355 -0.0022017569 -0.95236468 0.078170806
-24.403484 -134.3978 992.3161 0.30636007 -0.030971577 -0.95141172 0.058739189
-22.652451 -134.75882 992.53473 0.2916286 -0.022730883 -0.95626146 0.034191918
-21.079777 -135.23775 992.92163 0.28813776 -0.015191181 -0.95746845 0.034261771
-19.792364 -135.65305 993.36609 0.30497956 0.013071028 -0.95226926 0.060043387
-26.365332 -132.45224 992.29681 0.33796611 0.013866954 -0.94105607 0.076490998
-24.879641 -132.98787 992.8772 0.31006324 -0.016153239 -0.95057869 0.052296698
-23.188015 -133.49382 993.14233 0.29660398 -0.018189773 -0.95482731 0.036033031
-21.366673 -133.85529 993.55151 0.27594492 -0.014726595 -0.96106064 0.0067477203
-26.807508 -131.74776 992.2381 0.32116291 0.0041238917 -0.94701505 0.045158565
-22.103163 -134.29512 994.14874 0.27373302 -0.023804856 -0.96151114 0.013785996
-21.382401 -134.29898 994.14954 0.28509209 -0.0099505503 -0.95844853 0.021847418
-22.104776 -133.95927 994.35126 0.27528119 -0.016274557 -0.96122599 0.0080252616
-21.742128 -133.94762 994.25079 0.27553666 -0.013737897 -0.96119243 0.0032395248
