ply
format ascii 1.0
comment Created by CloudCompare v2.11 beta (Anoia)
comment Created 2020/4/1 下午4:12
obj_info Generated by CloudCompare!
element vertex 1793
property float x
property float y
property float z
end_header
-22.9336 -168.118 985.393 
-22.5828 -168.176 985.716 
-22.2183 -168.131 985.441 
-21.8521 -168.072 985.083 
-21.5037 -168.151 985.528 
-21.1475 -168.17 985.626 
-20.793 -168.203 985.805 
-20.4276 -168.148 985.468 
-20.076 -168.205 985.792 
-19.7142 -168.179 985.622 
-19.3579 -168.199 985.727 
-18.9977 -168.185 985.633 
-18.6355 -168.152 985.427 
-18.2811 -168.19 985.636 
-17.9258 -168.222 985.805 
-17.5701 -168.25 985.956 
-17.2124 -168.26 986.001 
-16.8533 -168.256 985.963 
-16.4951 -168.261 985.982 
-16.1373 -168.271 986.023 
-15.7779 -168.263 985.966 
-15.418 -168.25 985.874 
-15.0646 -168.31 986.211 
-14.7062 -168.314 986.222 
-14.3545 -168.397 986.693 
-14.0039 -168.498 987.272 
-13.636 -168.39 986.624 
-13.2744 -168.356 986.414 
-12.9189 -168.4 986.655 
-12.5694 -168.527 987.385 
-12.2119 -168.551 987.512 
-11.8541 -168.571 987.617 
-11.4949 -168.573 987.615 
-11.1436 -168.693 988.306 
-10.7887 -168.766 988.718 
-10.4366 -168.888 989.42 
-10.0681 -168.746 988.573 
-8.74622 -171.026 1001.87 
-8.38084 -171.008 1001.75 
-8.01062 -170.884 1001.01 
-7.64799 -170.918 1001.2 
-7.28481 -170.943 1001.33 
-6.91814 -170.883 1000.97 
-6.55219 -170.836 1000.67 
-6.18838 -170.842 1000.7 
-5.82448 -170.846 1000.7 
-5.46169 -170.885 1000.92 
-5.09746 -170.881 1000.88 
-4.73318 -170.874 1000.83 
-4.36802 -170.832 1000.57 
-4.00333 -170.802 1000.38 
-3.64061 -170.858 1000.69 
-3.27736 -170.898 1000.91 
-2.91332 -170.902 1000.92 
-2.54947 -170.919 1001.01 
-2.18595 -170.967 1001.27 
-1.82137 -170.935 1001.07 
-1.45733 -170.949 1001.14 
-1.09322 -170.96 1001.19 
-0.728878 -170.926 1000.98 
-0.36481 -170.951 1001.11 
-63.4198 -170.204 997.024 
-63.0674 -170.232 997.178 
-62.7183 -170.27 997.385 
-62.3513 -170.26 997.31 
-61.9869 -170.256 997.275 
-61.6065 -170.208 996.981 
-61.2296 -170.17 996.739 
-60.8629 -170.159 996.664 
-60.4799 -170.102 996.318 
-56.9639 -170.434 998.119 
-56.6169 -170.483 998.394 
-56.2876 -170.587 998.986 
-55.9254 -170.591 998.998 
-55.5296 -170.492 998.406 
-55.1383 -170.406 997.888 
-54.8014 -170.488 998.354 
-54.4564 -170.546 998.677 
-54.0705 -170.475 998.251 
-53.692 -170.427 997.955 
-53.3215 -170.404 997.806 
-52.9712 -170.446 998.036 
-52.6237 -170.497 998.322 
-52.2679 -170.522 998.452 
-51.8886 -170.47 998.133 
-51.5146 -170.434 997.912 
-51.1638 -170.476 998.142 
-50.8017 -170.48 998.151 
-50.4169 -170.407 997.711 
-50.0627 -170.438 997.877 
-49.7175 -170.5 998.225 
-49.3727 -170.564 998.585 
-49.0242 -170.616 998.877 
-48.6355 -170.528 998.347 
-48.2676 -170.512 998.24 
-47.9081 -170.525 998.306 
-47.5417 -170.514 998.227 
-47.1818 -170.527 998.285 
-46.8177 -170.524 998.256 
-46.4523 -170.516 998.198 
-46.0981 -170.55 998.382 
-45.7393 -170.567 998.468 
-45.3685 -170.539 998.29 
-45.0143 -170.574 998.478 
-44.6661 -170.632 998.806 
-44.3004 -170.624 998.743 
-43.9435 -170.65 998.879 
-43.5835 -170.663 998.947 
-43.212 -170.632 998.748 
-42.8401 -170.599 998.539 
-42.4876 -170.642 998.78 
-42.1142 -170.602 998.532 
-41.7624 -170.65 998.796 
-41.4007 -170.657 998.827 
-41.0453 -170.691 999.008 
-40.6815 -170.69 998.99 
-40.3083 -170.649 998.736 
-39.9426 -170.64 998.668 
-39.575 -170.622 998.549 
-39.2175 -170.647 998.684 
-38.865 -170.696 998.953 
-38.5032 -170.703 998.983 
-38.1432 -170.719 999.062 
-37.7946 -170.787 999.445 
-37.4264 -170.766 999.31 
-37.0545 -170.729 999.075 
-36.6953 -170.749 999.179 
-36.3335 -170.757 999.216 
-35.9699 -170.757 999.202 
-35.6116 -170.783 999.34 
-35.2428 -170.758 999.18 
-34.872 -170.723 998.959 
-34.5171 -170.766 999.194 
-34.1552 -170.774 999.231 
-33.7863 -170.748 999.061 
-33.4259 -170.764 999.143 
-33.0738 -170.823 999.474 
-32.7001 -170.771 999.155 
-32.3295 -170.734 998.925 
-31.9495 -170.646 998.396 
-27.9948 -168.705 986.905 
-27.5849 -168.395 985.077 
-27.2776 -168.712 986.914 
-26.8765 -168.449 985.361 
-26.5277 -168.511 985.711 
-26.179 -168.575 986.072 
-25.7847 -168.343 984.702 
-25.4694 -168.628 986.355 
-25.1139 -168.651 986.473 
-24.7381 -168.536 985.788 
-24.3592 -168.396 984.956 
-24.0071 -168.441 985.203 
-23.6549 -168.485 985.449 
-23.3025 -168.53 985.696 
-22.9428 -168.522 985.636 
-22.5777 -168.473 985.34 
-22.2107 -168.409 984.951 
-21.849 -168.383 984.785 
-21.5016 -168.469 985.272 
-21.1456 -168.488 985.372 
-20.7956 -168.558 985.762 
-20.4377 -168.564 985.787 
-20.0733 -168.516 985.494 
-19.7123 -168.495 985.358 
-19.3601 -168.55 985.665 
-18.9942 -168.485 985.272 
-18.6319 -168.451 985.055 
-18.2821 -168.53 985.505 
-17.9266 -168.56 985.664 
-17.5669 -168.549 985.589 
-17.2162 -168.626 986.026 
-16.8516 -168.567 985.668 
-16.5016 -168.655 986.168 
-16.1392 -168.618 985.936 
-15.7736 -168.544 985.49 
-15.412 -168.51 985.279 
-15.0654 -168.643 986.042 
-14.7116 -168.701 986.365 
-14.3548 -168.725 986.49 
-13.9965 -168.732 986.521 
-13.6395 -168.756 986.646 
-13.2821 -168.775 986.745 
-12.9264 -168.819 986.985 
-12.5724 -168.887 987.368 
-12.2228 -169.02 988.132 
-11.857 -168.93 987.595 
-11.5128 -169.151 988.872 
-11.1503 -169.11 988.62 
-10.796 -169.194 989.093 
-8.75029 -171.412 1001.98 
-8.37959 -171.286 1001.23 
-8.01117 -171.197 1000.69 
-7.64739 -171.203 1000.71 
-7.28592 -171.263 1001.05 
-6.91971 -171.213 1000.75 
-6.55431 -171.178 1000.53 
-6.1909 -171.194 1000.61 
-5.82773 -171.219 1000.74 
-5.46485 -171.256 1000.94 
-5.1014 -171.279 1001.06 
-4.73635 -171.247 1000.86 
-4.37015 -171.165 1000.36 
-4.00592 -171.151 1000.27 
-3.64307 -171.2 1000.54 
-3.27994 -171.245 1000.79 
-2.91608 -171.257 1000.85 
-2.55217 -171.269 1000.9 
-2.1886 -171.311 1001.13 
-1.82428 -171.299 1001.05 
-1.46018 -171.306 1001.08 
-1.09577 -171.268 1000.84 
-0.731712 -171.274 1000.86 
-0.367792 -171.354 1001.31 
-63.4191 -170.555 996.939 
-63.0739 -170.603 997.207 
-62.729 -170.652 997.481 
-62.3545 -170.621 997.285 
-61.9667 -170.554 996.875 
-61.5891 -170.513 996.623 
-61.2087 -170.464 996.323 
-56.2693 -170.883 998.58 
-55.5682 -170.963 999.019 
-55.1646 -170.84 998.283 
-54.8256 -170.916 998.713 
-54.4679 -170.934 998.807 
-54.0834 -170.868 998.406 
-53.71 -170.836 998.207 
-53.343 -170.825 998.125 
-52.9798 -170.825 998.114 
-52.6298 -170.869 998.353 
-52.2663 -170.868 998.337 
-51.891 -170.829 998.095 
-51.5335 -170.849 998.194 
-51.1766 -170.87 998.304 
-50.7977 -170.818 997.987 
-50.4084 -170.73 997.457 
-50.0522 -170.753 997.581 
-49.7162 -170.846 998.111 
-49.3714 -170.91 998.471 
-49.0192 -170.95 998.687 
-48.6431 -170.905 998.414 
-48.2781 -170.9 998.367 
-47.9112 -170.887 998.281 
-47.553 -170.906 998.374 
-47.1929 -170.918 998.43 
-46.8287 -170.915 998.401 
-46.4592 -170.893 998.255 
-46.0907 -170.873 998.128 
-45.7303 -170.884 998.178 
-45.3717 -170.902 998.268 
-45.0237 -170.96 998.595 
-44.6727 -171.008 998.858 
-44.3037 -170.987 998.722 
-43.9353 -170.968 998.597 
-43.576 -170.984 998.678 
-43.211 -170.978 998.629 
-42.8485 -170.982 998.638 
-42.4931 -171.014 998.812 
-42.1209 -170.979 998.593 
-41.765 -171.01 998.761 
-41.4011 -171.009 998.737 
-41.0499 -171.06 999.022 
-40.6872 -171.064 999.03 
-40.3153 -171.028 998.809 
-39.942 -170.986 998.551 
-39.5759 -170.975 998.469 
-39.216 -170.99 998.544 
-38.8703 -171.068 998.984 
-38.508 -171.073 999.004 
-38.1433 -171.068 998.96 
-37.7921 -171.125 999.274 
-37.4231 -171.1 999.117 
-37.0572 -171.089 999.039 
-36.6989 -171.114 999.169 
-36.3332 -171.104 999.099 
-35.9709 -171.11 999.122 
-35.6173 -171.159 999.389 
-35.2477 -171.13 999.208 
-34.8797 -171.109 999.069 
-34.5206 -171.131 999.184 
-34.157 -171.131 999.17 
-33.7848 -171.087 998.902 
-33.4264 -171.113 999.039 
-33.0645 -171.122 999.076 
-32.6906 -171.068 998.747 
-32.3163 -171.011 998.399 
-27.958 -168.823 985.478 
-27.5861 -168.742 984.991 
-27.2553 -168.914 985.976 
-26.8778 -168.796 985.274 
-26.5159 -168.774 985.136 
-26.1404 -168.664 984.48 
-25.8056 -168.818 985.362 
-25.4156 -168.609 984.129 
-25.0641 -168.654 984.376 
-24.7189 -168.742 984.88 
-24.3495 -168.666 984.421 
-23.9855 -168.625 984.168 
-23.6456 -168.755 984.914 
-23.2811 -168.711 984.64 
-22.9384 -168.826 985.298 
-22.5814 -168.837 985.349 
-22.2156 -168.781 985.011 
-21.8511 -168.734 984.721 
-21.5064 -168.841 985.333 
-21.1524 -168.878 985.531 
-20.7951 -168.888 985.576 
-20.4299 -168.833 985.244 
-20.0762 -168.873 985.464 
-19.7104 -168.812 985.09 
-19.361 -168.89 985.537 
-18.9966 -168.838 985.219 
-18.6344 -168.805 985.011 
-18.2823 -168.863 985.335 
-17.9228 -168.854 985.266 
-17.5681 -168.89 985.464 
-17.2102 -168.897 985.489 
-16.8592 -168.973 985.919 
-16.4992 -168.959 985.824 
-16.1435 -168.991 985.997 
-15.7796 -168.935 985.661 
-15.4171 -168.893 985.398 
-15.0646 -168.96 985.774 
-14.7129 -169.04 986.229 
-14.3578 -169.084 986.47 
-13.9944 -169.029 986.137 
-13.6339 -169.008 986.001 
-13.2786 -169.052 986.242 
-12.9304 -169.191 987.041 
-12.5782 -169.284 987.572 
-12.2282 -169.412 988.304 
-11.8657 -169.372 988.053 
-10.7957 -169.502 988.773 
-8.74772 -171.668 1001.32 
-8.37813 -171.56 1000.68 
-8.01176 -171.51 1000.37 
-7.64864 -171.528 1000.47 
-7.28656 -171.573 1000.71 
-6.92236 -171.57 1000.68 
-6.55786 -171.558 1000.6 
-6.1925 -171.521 1000.37 
-5.82871 -171.525 1000.38 
-5.46674 -171.587 1000.72 
-5.10418 -171.638 1001 
-4.7392 -171.608 1000.82 
-4.373 -171.525 1000.32 
-4.00945 -171.541 1000.4 
-3.64611 -171.569 1000.55 
-3.28319 -171.625 1000.86 
-2.91942 -171.645 1000.96 
-2.55513 -171.635 1000.89 
-2.19095 -171.63 1000.85 
-1.82683 -171.628 1000.82 
-1.46302 -171.661 1001 
-1.09861 -171.622 1000.76 
-0.73466 -171.648 1000.89 
-0.3707 -171.718 1001.29 
-63.414 -170.894 996.785 
-63.0742 -170.957 997.136 
-62.7198 -170.98 997.26 
-62.3384 -170.93 996.953 
-61.9347 -170.818 996.285 
-55.2073 -171.325 998.974 
-54.8595 -171.374 999.248 
-54.4984 -171.382 999.283 
-54.1128 -171.313 998.866 
-53.735 -171.268 998.59 
-53.3634 -171.242 998.423 
-52.9946 -171.225 998.309 
-52.6309 -171.224 998.289 
-52.2551 -171.183 998.038 
-51.8921 -171.185 998.032 
-51.5524 -171.263 998.475 
-51.1807 -171.236 998.3 
-50.7958 -171.163 997.864 
-50.4173 -171.111 997.547 
-50.0555 -171.116 997.559 
-49.7217 -171.217 998.135 
-49.368 -171.25 998.316 
-49.0181 -171.297 998.575 
-48.6517 -171.287 998.503 
-48.2754 -171.241 998.223 
-47.9083 -171.228 998.131 
-47.5515 -171.251 998.253 
-47.1994 -171.292 998.478 
-46.8338 -171.284 998.417 
-46.4644 -171.262 998.275 
-46.0929 -171.232 998.084 
-45.7286 -171.228 998.05 
-45.3823 -171.292 998.408 
-45.0286 -171.329 998.609 
-44.6714 -171.353 998.736 
-44.3082 -171.355 998.729 
-43.9298 -171.297 998.377 
-43.5669 -171.299 998.375 
-43.2151 -171.344 998.627 
-42.8582 -171.371 998.766 
-42.4997 -171.391 998.871 
-42.1353 -171.387 998.836 
-41.7609 -171.343 998.563 
-41.3946 -171.331 998.479 
-41.0585 -171.445 999.13 
-40.6995 -171.465 999.23 
-40.3263 -171.424 998.981 
-39.9472 -171.358 998.58 
-39.5791 -171.337 998.447 
-39.2244 -171.376 998.655 
-38.88 -171.46 999.131 
-38.5136 -171.447 999.044 
-38.1471 -171.434 998.954 
-37.7854 -171.443 998.99 
-37.4174 -171.422 998.858 
-37.0631 -171.465 999.093 
-36.7068 -171.499 999.276 
-36.3397 -171.483 999.17 
-35.9769 -171.487 999.177 
-35.6193 -171.516 999.333 
-35.2469 -171.474 999.072 
-34.8846 -171.48 999.096 
-34.522 -171.485 999.109 
-34.1554 -171.47 999.008 
-33.7858 -171.439 998.817 
-33.4247 -171.451 998.872 
-33.0522 -171.405 998.59 
-32.6716 -171.315 998.05 
-28.3314 -169.252 985.879 
-27.9833 -169.316 986.241 
-27.608 -169.216 985.641 
-27.2331 -169.115 985.041 
-26.8818 -169.16 985.29 
-26.5241 -169.166 985.307 
-26.1657 -169.166 985.298 
-25.7964 -169.096 984.873 
-25.4514 -169.185 985.378 
-25.0655 -169 984.29 
-24.7323 -169.171 985.272 
-24.3534 -169.03 984.432 
-24.0009 -169.07 984.654 
-23.6445 -169.084 984.719 
-23.2871 -169.09 984.745 
-22.9352 -169.137 985.004 
-22.5795 -169.158 985.111 
-22.2182 -169.136 984.97 
-21.8499 -169.06 984.512 
-21.5015 -169.137 984.947 
-21.1517 -169.206 985.333 
-20.7876 -169.161 985.058 
-20.4343 -169.203 985.291 
-20.0701 -169.155 984.999 
-19.7098 -169.139 984.887 
-19.3626 -169.236 985.44 
-19.003 -169.227 985.374 
-18.6326 -169.119 984.734 
-18.2797 -169.17 985.014 
-17.926 -169.214 985.257 
-17.5622 -169.162 984.942 
-17.2119 -169.243 985.396 
-16.862 -169.329 985.883 
-16.5054 -169.35 985.995 
-16.1447 -169.33 985.865 
-15.7805 -169.271 985.507 
-15.421 -169.261 985.434 
-15.0683 -169.326 985.8 
-14.7117 -169.351 985.929 
-14.3529 -169.35 985.911 
-14.0064 -169.497 986.755 
-13.6485 -169.511 986.821 
-13.2882 -169.495 986.714 
-12.9252 -169.443 986.396 
-12.5785 -169.607 987.335 
-12.2229 -169.657 987.614 
-11.8707 -169.76 988.199 
-11.5015 -169.617 987.355 
-9.11724 -172.075 1001.56 
-8.74588 -171.938 1000.75 
-8.37818 -171.864 1000.31 
-8.01549 -171.89 1000.45 
-7.65146 -171.889 1000.42 
-7.28848 -171.912 1000.55 
-6.92475 -171.92 1000.57 
-6.56158 -171.942 1000.69 
-6.19532 -171.881 1000.32 
-5.8313 -171.878 1000.29 
-5.46995 -171.959 1000.75 
-5.1073 -172.007 1001.01 
-4.74208 -171.97 1000.78 
-4.37622 -171.9 1000.36 
-4.01277 -171.921 1000.47 
-3.64964 -171.961 1000.69 
-3.28654 -172.011 1000.97 
-2.92267 -172.028 1001.05 
-2.55774 -171.978 1000.74 
-2.19343 -171.96 1000.62 
-1.8297 -171.988 1000.77 
-1.46586 -172.016 1000.92 
-1.10168 -172.009 1000.87 
-0.737592 -172.016 1000.89 
-0.37357 -172.062 1001.15 
-63.4064 -171.226 996.59 
-63.0411 -171.22 996.539 
-62.6754 -171.212 996.479 
-62.3045 -171.19 996.335 
-54.1501 -171.784 999.472 
-53.7597 -171.699 998.964 
-53.3798 -171.647 998.646 
-53.0042 -171.608 998.406 
-52.642 -171.612 998.416 
-52.2585 -171.546 998.018 
-51.886 -171.516 997.828 
-51.5478 -171.599 998.299 
-51.1821 -171.591 998.24 
-50.8039 -171.541 997.935 
-50.4363 -171.527 997.837 
-50.075 -171.533 997.861 
-49.7305 -171.598 998.224 
-49.3706 -171.61 998.279 
-49.0148 -171.637 998.42 
-48.6558 -171.652 998.497 
-48.2784 -171.603 998.196 
-47.9051 -171.567 997.974 
-47.5553 -171.616 998.243 
-47.206 -171.667 998.526 
-46.8409 -171.661 998.478 
-46.4702 -171.634 998.308 
-46.097 -171.598 998.082 
-45.7341 -171.599 998.077 
-45.3922 -171.68 998.533 
-45.0291 -171.682 998.526 
-44.6677 -171.69 998.56 
-44.3021 -171.681 998.497 
-43.9231 -171.62 998.128 
-43.5646 -171.639 998.225 
-43.2159 -171.698 998.55 
-42.8592 -171.725 998.693 
-42.4996 -171.74 998.77 
-42.1384 -171.75 998.811 
-41.7607 -171.692 998.46 
-41.3985 -171.697 998.474 
-41.0543 -171.777 998.93 
-40.698 -171.808 999.094 
-40.3307 -171.792 998.989 
-39.9472 -171.707 998.477 
-39.5903 -171.735 998.627 
-39.2345 -171.768 998.808 
-38.8855 -171.833 999.167 
-38.5219 -171.833 999.154 
-38.1493 -171.793 998.906 
-37.7795 -171.764 998.727 
-37.4179 -171.773 998.764 
-37.0666 -171.83 999.079 
-36.7164 -171.893 999.431 
-36.3438 -171.85 999.173 
-35.978 -171.84 999.099 
-35.6178 -171.857 999.181 
-35.2553 -171.862 999.2 
-34.8887 -171.848 999.102 
-34.5153 -171.799 998.804 
-34.1487 -171.783 998.698 
-33.7811 -171.763 998.563 
-33.4202 -171.775 998.624 
-33.0394 -171.685 998.085 
-28.6623 -169.427 984.806 
-28.3388 -169.636 986.007 
-27.9604 -169.518 985.305 
-27.5826 -169.4 984.605 
-27.2094 -169.307 984.052 
-26.8831 -169.507 985.204 
-26.5255 -169.513 985.221 
-26.156 -169.442 984.796 
-25.7978 -169.443 984.787 
-25.4327 -169.398 984.514 
-25.058 -169.287 983.853 
-24.6998 -169.286 983.832 
-24.3454 -169.311 983.963 
-23.9996 -169.398 984.456 
-23.6454 -169.426 984.609 
-23.2938 -169.475 984.879 
-22.9388 -169.5 985.01 
-22.5699 -169.421 984.536 
-22.2167 -169.46 984.75 
-21.8588 -169.463 984.753 
-21.4945 -169.416 984.465 
-21.1431 -169.471 984.772 
-20.7873 -169.492 984.879 
-20.4338 -169.532 985.1 
-20.0675 -169.465 984.698 
-19.704 -169.421 984.426 
-19.3608 -169.553 985.178 
-19.0073 -169.597 985.422 
-18.6379 -169.499 984.834 
-18.2816 -169.517 984.928 
-17.9299 -169.58 985.282 
-17.5645 -169.514 984.881 
-17.2158 -169.61 985.424 
-16.8579 -169.616 985.447 
-16.5021 -169.645 985.6 
-16.1541 -169.756 986.231 
-15.7896 -169.695 985.865 
-15.4281 -169.664 985.673 
-15.0726 -169.7 985.865 
-14.7189 -169.757 986.186 
-14.3675 -169.846 986.685 
-14.0104 -169.869 986.806 
-13.6519 -169.875 986.829 
-13.2903 -169.843 986.628 
-12.9449 -170.021 987.649 
-12.5717 -169.834 986.549 
-10.5674 -172.268 1000.6 
-10.2119 -172.413 1001.43 
-9.48581 -172.461 1001.68 
-9.11488 -172.338 1000.95 
-8.74687 -172.263 1000.5 
-8.38123 -172.229 1000.29 
-8.01901 -172.266 1000.49 
-7.65413 -172.246 1000.36 
-7.28964 -172.234 1000.28 
-6.92781 -172.286 1000.57 
-6.56525 -172.325 1000.78 
-6.19999 -172.293 1000.58 
-5.83456 -172.251 1000.32 
-5.47186 -172.29 1000.53 
-5.10883 -172.324 1000.71 
-4.74427 -172.306 1000.6 
-4.37957 -172.28 1000.43 
-4.01672 -172.328 1000.7 
-3.65347 -172.367 1000.91 
-3.28912 -172.356 1000.83 
-2.92498 -172.355 1000.81 
-2.56024 -172.313 1000.55 
-2.19649 -172.334 1000.66 
-1.83299 -172.386 1000.95 
-1.46884 -172.387 1000.94 
-1.10464 -172.379 1000.88 
-0.740624 -172.405 1001.02 
-0.376463 -172.414 1001.05 
-63.3904 -171.536 996.264 
-62.9981 -171.455 995.784 
-56.356 -168.932 980.909 
-55.9666 -168.835 980.331 
-55.6255 -168.883 980.595 
-54.9175 -168.901 980.676 
-54.478 -172.023 998.744 
-53.7999 -172.18 999.629 
-53.4093 -172.094 999.116 
-53.0225 -172.019 998.666 
-52.6479 -171.983 998.444 
-52.2704 -171.937 998.163 
-51.8941 -171.894 997.898 
-51.5352 -171.909 997.971 
-51.1722 -171.91 997.963 
-50.817 -171.937 998.107 
-50.452 -171.931 998.059 
-50.0942 -171.951 998.157 
-49.7306 -171.95 998.138 
-49.3764 -171.982 998.31 
-49.0137 -171.984 998.309 
-48.6564 -172.006 998.422 
-48.2804 -171.961 998.147 
-47.9047 -171.917 997.876 
-47.55 -171.948 998.041 
-47.2112 -172.037 998.547 
-46.8481 -172.039 998.541 
-46.4761 -172.007 998.343 
-46.1018 -171.966 998.093 
-45.7474 -172 998.273 
-45.3946 -172.04 998.492 
-45.0242 -172.013 998.326 
-44.6658 -172.033 998.423 
-44.2996 -172.022 998.345 
-43.9309 -172.001 998.212 
-43.5811 -172.055 998.508 
-43.2199 -172.064 998.547 
-42.8548 -172.057 998.494 
-42.4961 -172.076 998.591 
-42.1346 -172.084 998.624 
-41.7675 -172.069 998.524 
-41.4078 -172.085 998.6 
-41.058 -172.142 998.919 
-40.7021 -172.174 999.092 
-40.3306 -172.141 998.885 
-39.9571 -172.098 998.622 
-39.5998 -172.125 998.765 
-39.2368 -172.128 998.764 
-38.8903 -172.203 999.188 
-38.5199 -172.173 998.999 
-38.1511 -172.15 998.849 
-37.7789 -172.11 998.604 
-37.421 -172.136 998.74 
-37.0735 -172.21 999.157 
-36.7264 -172.287 999.592 
-36.3504 -172.23 999.246 
-35.9755 -172.176 998.92 
-35.6139 -172.185 998.959 
-35.2594 -172.23 999.203 
-34.8857 -172.18 998.901 
-34.5092 -172.116 998.513 
-34.136 -172.066 998.214 
-33.7708 -172.057 998.143 
-33.4063 -172.051 998.093 
-29.7147 -169.638 983.971 
-29.0658 -170.031 986.225 
-28.6635 -169.774 984.72 
-28.3338 -169.946 985.706 
-27.9858 -170.011 986.068 
-27.6105 -169.91 985.468 
-27.2074 -169.633 983.846 
-26.8711 -169.77 984.629 
-26.5087 -169.744 984.462 
-26.1612 -169.814 984.856 
-25.7915 -169.739 984.41 
-25.4323 -169.733 984.358 
-25.0804 -169.776 984.593 
-24.7063 -169.667 983.95 
-24.3578 -169.734 984.322 
-24.0211 -169.886 985.189 
-23.6492 -169.789 984.616 
-23.2868 -169.76 984.431 
-22.9294 -169.766 984.454 
-22.5786 -169.822 984.764 
-22.2142 -169.776 984.483 
-21.8552 -169.77 984.435 
-21.4979 -169.777 984.461 
-21.1407 -169.785 984.495 
-20.7832 -169.791 984.517 
-20.4327 -169.856 984.876 
-20.0715 -169.832 984.728 
-19.7016 -169.732 984.134 
-19.3526 -169.812 984.583 
-19.0093 -169.947 985.348 
-18.6462 -169.905 985.093 
-18.2834 -169.864 984.842 
-17.9266 -169.879 984.916 
-17.574 -169.935 985.225 
-17.2181 -169.961 985.361 
-16.8567 -169.931 985.177 
-16.5025 -169.976 985.419 
-16.156 -170.103 986.145 
-15.797 -170.101 986.117 
-15.432 -170.033 985.711 
-15.0714 -170.011 985.568 
-14.7269 -170.175 986.504 
-14.387 -170.4 987.797 
-14.0163 -170.263 986.986 
-13.6624 -170.328 987.351 
-13.2963 -170.241 986.831 
-12.9419 -170.302 987.174 
-12.5791 -170.254 986.879 
-12.2181 -170.226 986.703 
-10.579 -172.772 1001.39 
-10.2161 -172.797 1001.53 
-9.85098 -172.785 1001.44 
-9.4838 -172.734 1001.13 
-9.11422 -172.633 1000.53 
-8.75036 -172.636 1000.53 
-8.38631 -172.636 1000.52 
-8.0233 -172.658 1000.63 
-7.657 -172.608 1000.33 
-7.29252 -172.595 1000.24 
-6.92967 -172.622 1000.38 
-6.56803 -172.684 1000.72 
-6.20474 -172.706 1000.84 
-5.83903 -172.66 1000.56 
-5.47376 -172.621 1000.32 
-5.11051 -172.644 1000.44 
-4.74666 -172.65 1000.46 
-4.38352 -172.683 1000.64 
-4.01981 -172.699 1000.71 
-3.65599 -172.711 1000.77 
-3.29148 -172.69 1000.63 
-2.92743 -172.69 1000.62 
-2.56326 -172.683 1000.56 
-2.1996 -172.711 1000.72 
-1.83606 -172.762 1001 
-1.47159 -172.729 1000.79 
-1.10761 -172.75 1000.9 
-0.743636 -172.789 1001.11 
-0.379398 -172.781 1001.05 
-58.5315 -169.373 981.461 
-58.1907 -169.421 981.727 
-57.8497 -169.47 981.993 
-57.5085 -169.518 982.258 
-57.0897 -169.336 981.193 
-56.68 -169.18 980.271 
-55.9663 -169.18 980.246 
-55.6251 -169.228 980.509 
-55.3048 -169.34 981.146 
-54.9422 -169.323 981.036 
-54.1427 -172.465 999.169 
-53.433 -172.523 999.475 
-53.0541 -172.474 999.177 
-52.6675 -172.399 998.731 
-52.2862 -172.341 998.378 
-51.9059 -172.285 998.042 
-51.5351 -172.26 997.882 
-51.1733 -172.265 997.896 
-50.8162 -172.286 998.005 
-50.4496 -172.275 997.925 
-50.097 -172.311 998.125 
-49.7366 -172.322 998.171 
-49.3712 -172.315 998.116 
-49.0141 -172.337 998.229 
-48.6564 -172.357 998.332 
-48.2794 -172.308 998.037 
-47.9202 -172.323 998.11 
-47.5636 -172.348 998.236 
-47.2108 -172.386 998.446 
-46.8467 -172.384 998.418 
-46.4794 -172.37 998.322 
-46.1082 -172.34 998.139 
-45.7523 -172.368 998.287 
-45.3914 -172.378 998.328 
-45.016 -172.332 998.048 
-44.6569 -172.349 998.13 
-44.3027 -172.384 998.321 
-43.9431 -172.399 998.394 
-43.5927 -172.45 998.678 
-43.2207 -172.417 998.468 
-42.8555 -172.409 998.413 
-42.4965 -172.428 998.503 
-42.1319 -172.423 998.461 
-41.7745 -172.448 998.592 
-41.4098 -172.442 998.547 
-41.0618 -172.508 998.911 
-40.7063 -172.542 999.096 
-40.3287 -172.482 998.736 
-39.9594 -172.457 998.577 
-39.6075 -172.508 998.855 
-39.2463 -172.518 998.903 
-38.8929 -172.563 999.149 
-38.521 -172.526 998.921 
-38.15 -172.493 998.713 
-37.7786 -172.457 998.492 
-37.428 -172.516 998.82 
-37.0768 -172.573 999.137 
-36.7304 -172.654 999.593 
-36.3521 -172.586 999.18 
-35.9727 -172.51 998.731 
-35.6072 -172.5 998.66 
-35.2516 -172.539 998.87 
-34.8811 -172.505 998.658 
-34.4991 -172.412 998.107 
-30.8336 -170.224 985.317 
-30.4778 -170.24 985.393 
-30.0988 -170.125 984.713 
-29.7381 -170.111 984.62 
-29.3657 -170.03 984.135 
-29.0402 -170.222 985.232 
-28.6647 -170.121 984.634 
-28.2896 -170.02 984.037 
-27.9431 -170.091 984.435 
-27.5976 -170.169 984.874 
-27.1937 -169.886 983.219 
-26.8611 -170.045 984.128 
-26.4922 -169.976 983.714 
-26.1573 -170.127 984.571 
-25.7723 -169.95 983.538 
-25.4211 -169.995 983.785 
-25.0697 -170.041 984.032 
-24.7124 -170.046 984.047 
-24.3604 -170.088 984.28 
-24.0089 -170.136 984.54 
-23.6524 -170.149 984.603 
-23.2785 -170.035 983.93 
-22.9244 -170.064 984.087 
-22.5733 -170.117 984.379 
-22.2125 -170.098 984.251 
-21.8516 -170.076 984.111 
-21.5007 -170.133 984.43 
-21.1418 -170.128 984.387 
-20.7808 -170.105 984.239 
-20.4317 -170.18 984.661 
-20.0778 -170.218 984.864 
-19.7082 -170.121 984.292 
-19.3485 -170.108 984.201 
-19.0114 -170.296 985.276 
-18.6468 -170.241 984.944 
-18.2838 -170.198 984.681 
-17.9268 -170.211 984.741 
-17.5754 -170.278 985.115 
-17.2172 -170.28 985.115 
-16.8564 -170.257 984.968 
-16.5068 -170.348 985.479 
-16.1548 -170.417 985.863 
-15.7978 -170.436 985.963 
-15.4373 -170.417 985.834 
-15.084 -170.478 986.176 
-14.7368 -170.614 986.945 
-14.3777 -170.613 986.929 
-14.0222 -170.657 987.17 
-13.6607 -170.629 986.994 
-13.3016 -170.629 986.977 
-12.9316 -170.486 986.136 
-11.2999 -172.97 1000.44 
-10.9461 -173.133 1001.37 
-10.5813 -173.125 1001.3 
-10.2131 -173.06 1000.92 
-9.84575 -173.005 1000.58 
-9.4813 -172.998 1000.53 
-9.1163 -172.979 1000.41 
-8.75509 -173.035 1000.71 
-8.39133 -173.042 1000.74 
-8.02561 -173.007 1000.53 
-7.66059 -172.985 1000.38 
-7.2954 -172.957 1000.21 
-6.93306 -172.997 1000.42 
-6.57248 -173.087 1000.93 
-6.20853 -173.093 1000.95 
-5.84133 -173.004 1000.42 
-5.47628 -172.971 1000.21 
-5.11279 -172.985 1000.29 
-4.74969 -173.016 1000.45 
-4.38686 -173.062 1000.7 
-4.02281 -173.064 1000.7 
-3.65847 -173.053 1000.62 
-3.29415 -173.039 1000.53 
-2.9304 -173.055 1000.61 
-2.56626 -173.05 1000.56 
-2.20311 -173.12 1000.95 
-1.83928 -173.153 1001.13 
-1.4744 -173.078 1000.68 
-1.11044 -173.097 1000.78 
-0.746537 -173.145 1001.04 
-58.8715 -169.67 981.109 
-58.5641 -169.814 981.931 
-58.2402 -169.913 982.486 
-57.8271 -169.75 981.532 
-57.508 -169.863 982.172 
-57.1175 -169.766 981.593 
-56.7242 -169.658 980.959 
-56.3068 -169.477 979.896 
-55.9423 -169.453 979.748 
-55.6247 -169.573 980.424 
-55.2583 -169.544 980.241 
-54.9419 -169.669 980.951 
-54.4765 -169.332 978.992 
-54.148 -169.42 979.483 
-53.7878 -169.409 979.406 
-53.0792 -172.908 999.567 
-52.6889 -172.821 999.051 
-52.3079 -172.764 998.709 
-51.9177 -172.676 998.182 
-51.5392 -172.625 997.875 
-51.1666 -172.594 997.68 
-50.8069 -172.606 997.736 
-50.4499 -172.627 997.844 
-50.0996 -172.672 998.089 
-49.7335 -172.662 998.021 
-49.3743 -172.676 998.089 
-49.016 -172.695 998.18 
-48.6544 -172.701 998.201 
-48.2876 -172.689 998.117 
-47.9361 -172.731 998.351 
-47.5719 -172.729 998.32 
-47.2014 -172.703 998.157 
-46.8427 -172.72 998.242 
-46.4859 -172.745 998.371 
-46.1133 -172.71 998.157 
-45.7528 -172.721 998.206 
-45.392 -172.731 998.249 
-45.0158 -172.681 997.95 
-44.6597 -172.709 998.096 
-44.3133 -172.775 998.464 
-43.9645 -172.833 998.782 
-43.5975 -172.819 998.691 
-43.2186 -172.758 998.322 
-42.8519 -172.745 998.231 
-42.5024 -172.801 998.544 
-42.1343 -172.782 998.42 
-41.7624 -172.747 998.202 
-41.4124 -172.803 998.512 
-41.0651 -172.871 998.891 
-40.697 -172.852 998.766 
-40.3323 -172.847 998.722 
-39.9666 -172.838 998.656 
-39.6076 -172.857 998.754 
-39.2542 -172.902 998.998 
-38.8954 -172.923 999.109 
-38.5178 -172.861 998.734 
-38.1477 -172.831 998.547 
-37.7878 -172.847 998.628 
-37.4265 -172.857 998.672 
-37.0758 -172.917 999.003 
-36.7274 -172.989 999.403 
-36.352 -172.933 999.07 
-35.9739 -172.864 998.655 
-35.5957 -172.792 998.226 
-35.2359 -172.81 998.313 
-34.8734 -172.814 998.323 
-31.8791 -170.403 984.302 
-31.5526 -170.575 985.281 
-31.1427 -170.294 983.644 
-30.8212 -170.497 984.798 
-30.4395 -170.367 984.034 
-30.0929 -170.432 984.395 
-29.7426 -170.477 984.646 
-29.4067 -170.608 985.385 
-29.0329 -170.518 984.856 
-28.6748 -170.52 984.853 
-28.2768 -170.282 983.463 
-27.9458 -170.446 984.397 
-27.5828 -170.417 984.217 
-27.2319 -170.463 984.465 
-26.8413 -170.258 983.266 
-26.5114 -170.437 984.29 
-26.1631 -170.502 984.652 
-25.7817 -170.35 983.756 
-25.4129 -170.277 983.324 
-25.0712 -170.387 983.946 
-24.7279 -170.49 984.523 
-24.3629 -170.442 984.237 
-24.0051 -170.445 984.237 
-23.6458 -170.437 984.176 
-23.2752 -170.346 983.638 
-22.9184 -170.355 983.675 
-22.5796 -170.5 984.498 
-22.2152 -170.453 984.214 
-21.8556 -170.441 984.135 
-21.4964 -170.433 984.073 
-21.1422 -170.464 984.238 
-20.7809 -170.439 984.08 
-20.4249 -170.456 984.164 
-20.0752 -170.528 984.568 
-19.7126 -170.491 984.337 
-19.3525 -170.475 984.229 
-19.0101 -170.616 985.029 
-18.6525 -170.624 985.063 
-18.2881 -170.568 984.729 
-17.928 -170.551 984.617 
-17.5715 -170.569 984.704 
-17.2123 -170.56 984.64 
-16.8621 -170.643 985.103 
-16.5042 -170.649 985.123 
-16.1496 -170.689 985.342 
-15.7975 -170.759 985.73 
-15.4451 -170.828 986.118 
-15.0879 -170.847 986.213 
-14.735 -170.917 986.601 
-14.3737 -170.889 986.426 
-14.0243 -171.005 987.084 
-13.6593 -170.932 986.65 
-12.9513 -171.065 987.389 
-11.6702 -173.384 1000.71 
-11.313 -173.49 1001.31 
-10.9455 -173.44 1001.01 
-10.5792 -173.406 1000.8 
-10.2144 -173.394 1000.72 
-9.84655 -173.33 1000.33 
-9.48165 -173.313 1000.22 
-9.12106 -173.377 1000.58 
-8.7582 -173.401 1000.7 
-8.39363 -173.392 1000.63 
-8.02942 -173.389 1000.61 
-7.66449 -173.37 1000.48 
-7.29908 -173.337 1000.28 
-6.93627 -173.366 1000.43 
-6.57481 -173.433 1000.8 
-6.21056 -173.431 1000.78 
-5.84457 -173.376 1000.44 
-5.47988 -173.355 1000.31 
-5.11586 -173.353 1000.28 
-4.75337 -173.406 1000.58 
-4.39034 -173.447 1000.8 
-4.02535 -173.41 1000.57 
-3.66101 -173.397 1000.48 
-3.29703 -173.399 1000.48 
-2.93311 -173.405 1000.5 
-2.56929 -173.42 1000.57 
-2.2065 -173.518 1001.13 
-1.84227 -173.52 1001.12 
-1.47767 -173.48 1000.88 
-1.11334 -173.453 1000.71 
-0.749343 -173.478 1000.83 
-58.5304 -170.063 981.289 
-58.1896 -170.112 981.555 
-57.799 -170.014 980.977 
-57.4055 -169.907 980.344 
-57.0499 -169.911 980.353 
-56.6471 -169.773 979.547 
-56.3064 -169.822 979.811 
-55.9655 -169.87 980.074 
-55.6244 -169.918 980.338 
-55.2831 -169.966 980.601 
-54.9105 -169.918 980.311 
-54.518 -169.807 979.657 
-54.1618 -169.808 979.653 
-53.7476 -169.627 978.593 
-53.4064 -169.675 978.854 
-52.3512 -173.259 999.449 
-51.942 -173.108 998.565 
-51.543 -172.989 997.864 
-51.1704 -172.958 997.669 
-50.8097 -172.966 997.705 
-50.4483 -172.972 997.725 
-50.0972 -173.015 997.955 
-49.7367 -173.024 997.996 
-49.374 -173.026 997.994 
-49.0196 -173.058 998.162 
-48.6572 -173.061 998.169 
-48.2956 -173.068 998.193 
-47.9479 -173.125 998.505 
-47.5763 -173.095 998.322 
-47.1954 -173.031 997.939 
-46.8394 -173.058 998.08 
-46.4894 -173.108 998.353 
-46.1181 -173.078 998.168 
-45.757 -173.087 998.203 
-45.3937 -173.087 998.192 
-45.0211 -173.052 997.974 
-44.6672 -173.088 998.17 
-44.318 -173.144 998.475 
-43.9691 -173.201 998.792 
-43.598 -173.171 998.606 
-43.2203 -173.115 998.265 
-42.863 -173.139 998.393 
-42.5112 -173.186 998.651 
-42.1435 -173.169 998.538 
-41.7651 -173.108 998.169 
-41.419 -173.18 998.57 
-41.0566 -173.184 998.584 
-40.6926 -173.182 998.556 
-40.3388 -173.224 998.782 
-39.9757 -173.225 998.779 
-39.6143 -173.235 998.821 
-39.2501 -173.232 998.791 
-38.8948 -173.269 998.988 
-38.5164 -173.203 998.592 
-38.1468 -173.175 998.419 
-37.787 -173.192 998.501 
-37.4272 -173.208 998.583 
-37.0709 -173.242 998.763 
-36.7197 -173.3 999.085 
-36.3534 -173.288 998.997 
-35.9763 -173.223 998.608 
-35.5887 -173.105 997.918 
-32.265 -170.891 985.043 
-31.8912 -170.81 984.559 
-31.565 -170.983 985.547 
-31.1402 -170.621 983.447 
-30.794 -170.687 983.809 
-30.4441 -170.732 984.059 
-30.0682 -170.631 983.464 
-29.7438 -170.824 984.559 
-29.3874 -170.835 984.612 
-29.0177 -170.769 984.212 
-28.6468 -170.693 983.765 
-28.3164 -170.86 984.711 
-27.947 -170.793 984.31 
-27.5864 -170.778 984.21 
-27.2174 -170.71 983.807 
-26.8727 -170.795 984.282 
-26.5075 -170.75 984.011 
-26.1517 -170.766 984.085 
-25.7921 -170.756 984.014 
-25.4325 -170.746 983.943 
-25.0785 -170.774 984.09 
-24.728 -170.827 984.381 
-24.3651 -170.794 984.181 
-24.0127 -170.835 984.404 
-23.6417 -170.743 983.859 
-23.2729 -170.664 983.389 
-22.921 -170.709 983.635 
-22.5833 -170.863 984.506 
-22.2186 -170.813 984.204 
-21.8533 -170.757 983.872 
-21.4987 -170.785 984.017 
-21.1442 -170.814 984.172 
-20.785 -170.805 984.107 
-20.4243 -170.784 983.969 
-20.0744 -170.854 984.356 
-19.7131 -170.827 984.187 
-19.3579 -170.853 984.325 
-19.0034 -170.887 984.505 
-18.6537 -170.965 984.945 
-18.2906 -170.921 984.678 
-17.9263 -170.865 984.338 
-17.5752 -170.934 984.722 
-17.2201 -170.966 984.891 
-16.8591 -170.939 984.726 
-16.515 -171.087 985.564 
-16.1655 -171.184 986.107 
-15.8037 -171.152 985.91 
-15.4511 -171.22 986.289 
-15.0922 -171.22 986.273 
-14.7371 -171.264 986.515 
-14.3757 -171.236 986.339 
-14.0319 -171.42 987.385 
-13.2988 -171.234 986.282 
-11.3142 -173.826 1001.13 
-10.9424 -173.707 1000.43 
-10.5773 -173.69 1000.32 
-10.2147 -173.713 1000.44 
-9.84816 -173.669 1000.17 
-9.48561 -173.694 1000.3 
-9.12485 -173.756 1000.64 
-8.76038 -173.749 1000.59 
-8.39457 -173.713 1000.37 
-8.03197 -173.743 1000.53 
-7.66762 -173.737 1000.48 
-7.30344 -173.734 1000.44 
-6.93978 -173.743 1000.48 
-6.57617 -173.755 1000.54 
-6.21261 -173.769 1000.6 
-5.84728 -173.732 1000.38 
-5.48332 -173.733 1000.37 
-5.11881 -173.716 1000.26 
-4.75617 -173.764 1000.52 
-4.39316 -173.805 1000.74 
-4.02825 -173.771 1000.53 
-3.66371 -173.748 1000.38 
-3.30085 -173.808 1000.72 
-2.93705 -173.827 1000.81 
-2.57257 -173.805 1000.67 
-2.20968 -173.9 1001.2 
-1.84522 -173.884 1001.1 
-1.48079 -173.864 1000.97 
-1.11633 -173.824 1000.72 
-0.752079 -173.793 1000.53 
-59.6112 -170.435 981.399 
-59.2107 -170.312 980.672 
-58.8704 -170.36 980.938 
-58.4968 -170.312 980.649 
-58.1891 -170.457 981.469 
-57.785 -170.319 980.662 
-57.4442 -170.368 980.927 
-57.0643 -170.3 980.523 
-56.6953 -170.264 980.302 
-56.306 -170.166 979.725 
-56.0047 -170.335 980.681 
-55.624 -170.262 980.252 
-55.2656 -170.258 980.213 
-54.844 -170.057 979.043 
-54.5177 -170.151 979.572 
-54.1984 -170.269 980.234 
-53.7718 -170.048 978.952 
-53.4362 -170.115 979.321 
-53.0946 -170.163 979.582 
-51.966 -173.54 998.94 
-51.5493 -173.362 997.9 
-51.1655 -173.292 997.487 
-50.8207 -173.355 997.833 
-50.461 -173.367 997.889 
-50.104 -173.389 998.003 
-49.7462 -173.408 998.098 
-49.3866 -173.422 998.162 
-49.0258 -173.431 998.2 
-48.6547 -173.404 998.029 
-48.2941 -173.414 998.072 
-47.9525 -173.492 998.511 
-47.5775 -173.45 998.256 
-47.1953 -173.381 997.844 
-46.8334 -173.386 997.86 
-46.488 -173.453 998.23 
-46.122 -173.443 998.16 
-45.7642 -173.465 998.268 
-45.4044 -173.479 998.334 
-45.0329 -173.447 998.14 
-44.6798 -173.487 998.357 
-44.3212 -173.506 998.45 
-43.9681 -173.547 998.674 
-43.6052 -173.55 998.675 
-43.2315 -173.509 998.427 
-42.8668 -173.504 998.382 
-42.5128 -173.543 998.592 
-42.1429 -173.516 998.426 
-41.7678 -173.468 998.134 
-41.4228 -173.545 998.562 
-41.0502 -173.506 998.326 
-40.6827 -173.489 998.213 
-40.3379 -173.569 998.659 
-39.9836 -173.609 998.875 
-39.6192 -173.605 998.839 
-39.2547 -173.601 998.802 
-38.8818 -173.56 998.55 
-38.5123 -173.533 998.379 
-38.1513 -173.544 998.429 
-37.7943 -173.573 998.586 
-37.4337 -173.587 998.649 
-37.0695 -173.583 998.615 
-36.6992 -173.551 998.417 
-36.3458 -173.599 998.68 
-35.9612 -173.497 998.079 
-32.266 -171.238 984.957 
-31.9161 -171.284 985.209 
-31.5424 -171.202 984.724 
-31.1924 -171.248 984.975 
-30.8278 -171.215 984.768 
-30.4382 -171.039 983.746 
-30.0906 -171.099 984.073 
-29.7263 -171.064 983.858 
-29.3601 -171.016 983.572 
-28.9972 -170.988 983.392 
-28.6421 -171.004 983.473 
-28.2867 -171.019 983.548 
-27.9098 -170.904 982.87 
-27.5782 -171.066 983.788 
-27.2274 -171.112 984.036 
-26.8651 -171.085 983.87 
-26.5009 -171.046 983.63 
-26.1393 -171.022 983.481 
-25.7823 -171.028 983.501 
-25.4254 -171.035 983.527 
-25.0741 -171.08 983.774 
-24.7202 -171.109 983.925 
-24.3616 -171.106 983.892 
-24.0089 -171.144 984.098 
-23.6383 -171.054 983.568 
-23.2791 -171.045 983.502 
-22.927 -171.089 983.738 
-22.5787 -171.162 984.148 
-22.218 -171.143 984.024 
-21.8526 -171.086 983.682 
-21.4947 -171.086 983.67 
-21.1416 -171.126 983.882 
-20.7896 -171.176 984.159 
-20.4311 -171.173 984.128 
-20.0721 -171.166 984.071 
-19.7202 -171.22 984.37 
-19.3561 -171.168 984.057 
-19.0073 -171.252 984.526 
-18.6566 -171.322 984.914 
-18.2907 -171.252 984.497 
-17.9296 -171.225 984.33 
-17.5755 -171.265 984.547 
-17.2275 -171.368 985.123 
-16.8712 -171.39 985.235 
-16.5208 -171.475 985.709 
-16.1673 -171.53 986.011 
-15.7994 -171.432 985.434 
-15.4585 -171.628 986.547 
-15.0981 -171.612 986.445 
-14.7591 -171.845 987.769 
-14.037 -171.805 987.513 
-13.6745 -171.766 987.272 
-11.6841 -174.229 1001.34 
-11.3109 -174.092 1000.54 
-10.9418 -174.014 1000.08 
-10.5776 -174.009 1000.04 
-10.2171 -174.066 1000.35 
-9.85161 -174.04 1000.19 
-9.49004 -174.084 1000.43 
-9.12841 -174.13 1000.68 
-8.76213 -174.088 1000.42 
-8.39607 -174.046 1000.16 
-8.03513 -174.111 1000.52 
-7.67012 -174.089 1000.39 
-7.30606 -174.089 1000.37 
-6.9421 -174.09 1000.36 
-6.57785 -174.084 1000.31 
-6.21512 -174.119 1000.5 
-5.85091 -174.115 1000.46 
-5.48672 -174.11 1000.42 
-5.12204 -174.088 1000.28 
-4.75889 -174.118 1000.44 
-4.3956 -174.148 1000.59 
-4.03159 -174.151 1000.6 
-3.66712 -174.133 1000.48 
-3.30359 -174.16 1000.63 
-2.94063 -174.227 1001 
-2.57598 -174.199 1000.82 
-2.21191 -174.206 1000.85 
-1.84803 -174.235 1001 
-1.48414 -174.274 1001.21 
-1.11944 -174.212 1000.84 
-0.754896 -174.125 1000.33 
-59.6014 -170.754 981.163 
-59.2436 -170.753 981.141 
-58.5293 -170.754 981.118 
-58.1251 -170.616 980.311 
-57.7845 -170.664 980.576 
-57.4513 -170.735 980.97 
-57.0639 -170.645 980.437 
-56.3374 -170.607 980.193 
-55.9648 -170.559 979.903 
-55.6237 -170.607 980.167 
-55.2512 -170.559 979.877 
-54.9409 -170.704 980.693 
-54.5223 -170.511 979.575 
-54.2025 -170.628 980.228 
-53.8198 -170.546 979.744 
-53.431 -170.443 979.143 
-53.0346 -170.315 978.394 
-52.6931 -170.363 978.654 
-52.3482 -170.4 978.854 
-51.5821 -173.823 998.448 
-51.1932 -173.737 997.94 
-50.8392 -173.769 998.11 
-50.4652 -173.733 997.885 
-50.105 -173.744 997.933 
-49.7539 -173.787 998.166 
-49.396 -173.806 998.263 
-49.0318 -173.803 998.233 
-48.659 -173.77 998.028 
-48.2994 -173.783 998.091 
-47.9462 -173.82 998.29 
-47.5755 -173.794 998.122 
-47.1973 -173.739 997.797 
-46.834 -173.739 997.781 
-46.4945 -173.828 998.278 
-46.1272 -173.813 998.179 
-45.7758 -173.859 998.427 
-45.4137 -173.864 998.444 
-45.0359 -173.809 998.112 
-44.6803 -173.839 998.273 
-44.3213 -173.856 998.357 
-43.9578 -173.856 998.343 
-43.6092 -173.916 998.67 
-43.2439 -173.908 998.614 
-42.8855 -173.929 998.72 
-42.5191 -173.918 998.641 
-42.1435 -173.868 998.341 
-41.7702 -173.827 998.091 
-41.4205 -173.884 998.405 
-41.0448 -173.833 998.094 
-40.6832 -173.84 998.123 
-40.3384 -173.92 998.567 
-39.9812 -173.947 998.712 
-39.6287 -173.996 998.975 
-39.2595 -173.971 998.821 
-38.8829 -173.913 998.472 
-38.5159 -173.897 998.369 
-38.1485 -173.879 998.249 
-37.7874 -173.89 998.296 
-37.4325 -173.929 998.509 
-37.0599 -173.886 998.25 
-36.6787 -173.802 997.751 
-36.3256 -173.85 998.013 
-32.9662 -171.492 984.367 
-32.2555 -171.523 984.519 
-31.9172 -171.631 985.123 
-31.5399 -171.53 984.526 
-31.19 -171.576 984.777 
-30.8035 -171.42 983.868 
-30.4615 -171.51 984.375 
-30.0705 -171.324 983.292 
-29.7275 -171.41 983.772 
-29.3511 -171.303 983.143 
-29.0003 -171.345 983.369 
-28.6433 -171.35 983.387 
-28.2946 -171.406 983.693 
-27.9335 -171.388 983.573 
-27.5867 -171.457 983.959 
-27.2155 -171.375 983.473 
-26.8453 -171.296 983.008 
-26.4937 -171.337 983.225 
-26.1356 -171.335 983.204 
-25.7779 -171.336 983.194 
-25.4202 -171.337 983.185 
-25.0755 -171.427 983.688 
-24.7136 -171.4 983.52 
-24.3642 -171.46 983.85 
-24.0038 -171.444 983.743 
-23.6424 -171.419 983.588 
-23.281 -171.394 983.432 
-22.9328 -171.466 983.832 
-22.5698 -171.429 983.605 
-22.2158 -171.46 983.766 
-21.847 -171.375 983.269 
-21.4948 -171.42 983.513 
-21.1439 -171.478 983.829 
-20.7873 -171.49 983.883 
-20.4331 -171.522 984.054 
-20.0749 -171.522 984.041 
-19.7139 -171.496 983.879 
-19.3591 -171.525 984.031 
-18.9992 -171.509 983.926 
-18.6522 -171.612 984.5 
-18.2931 -171.604 984.439 
-17.9362 -171.617 984.502 
-17.5834 -171.67 984.794 
-17.2363 -171.783 985.428 
-16.8771 -171.777 985.38 
-16.5247 -171.841 985.734 
-16.1558 -171.734 985.107 
-15.8168 -171.946 986.304 
-15.4633 -172.006 986.638 
-15.1037 -172 986.59 
-14.7485 -172.045 986.832 
-14.3859 -172.004 986.583 
-12.0495 -174.563 1001.17 
-11.6793 -174.476 1000.65 
-11.3112 -174.414 1000.28 
-10.9428 -174.345 999.87 
-10.5799 -174.361 999.947 
-10.2181 -174.396 1000.14 
-9.85536 -174.417 1000.24 
-9.49259 -174.439 1000.36 
-9.12904 -174.449 1000.39 
-8.76446 -174.438 1000.32 
-8.39948 -174.418 1000.19 
-8.03897 -174.493 1000.61 
-7.67223 -174.433 1000.25 
-7.30901 -174.451 1000.34 
-6.94552 -174.464 1000.4 
-6.58101 -174.452 1000.31 
-6.21818 -174.485 1000.49 
-5.85331 -174.461 1000.34 
-5.48794 -174.418 1000.08 
-5.12379 -174.41 1000.02 
-4.76203 -174.488 1000.45 
-4.39864 -174.514 1000.58 
-4.03534 -174.548 1000.77 
-3.67074 -174.527 1000.64 
-3.30697 -174.545 1000.72 
-2.94394 -174.611 1001.09 
-2.57845 -174.529 1000.6 
-2.21418 -174.516 1000.51 
-1.85076 -174.576 1000.84 
-1.48687 -174.61 1001.03 
-1.12211 -174.531 1000.55 
-0.757794 -174.475 1000.22 
-59.9551 -171.091 981.041 
-59.5497 -170.953 980.235 
-59.1762 -170.905 979.947 
-58.8693 -171.05 980.766 
-58.5535 -171.171 981.445 
-58.1881 -171.148 981.297 
-57.7447 -170.893 979.823 
-57.4042 -170.941 980.087 
-57.0353 -170.905 979.867 
-56.6459 -170.807 979.291 
-56.3053 -170.855 979.554 
-55.9644 -170.904 979.818 
-55.592 -170.856 979.528 
-55.1993 -170.744 978.876 
-54.8755 -170.846 979.445 
-54.5078 -170.811 979.233 
-54.1469 -170.798 979.142 
-53.7961 -170.816 979.231 
-53.4392 -170.815 979.211 
-53.0066 -170.57 977.795 
-52.6835 -170.677 978.394 
-52.3361 -170.706 978.544 
-52.0047 -170.787 979 
-51.5919 -170.601 977.918 
-51.238 -174.241 998.727 
-50.8615 -174.197 998.46 
-50.4691 -174.097 997.876 
-50.1014 -174.082 997.774 
-49.7586 -174.154 998.17 
-49.3959 -174.156 998.172 
-49.0287 -174.143 998.08 
-48.6642 -174.139 998.044 
-48.2966 -174.124 997.943 
-47.9471 -174.174 998.216 
-47.5776 -174.152 998.075 
-47.205 -174.118 997.866 
-46.8458 -174.133 997.94 
-46.4936 -174.175 998.166 
-46.1372 -174.201 998.302 
-45.7765 -174.212 998.349 
-45.421 -174.242 998.511 
-45.0454 -174.196 998.229 
-44.6826 -174.198 998.23 
-44.3166 -174.188 998.156 
-43.9476 -174.166 998.015 
-43.6065 -174.255 998.511 
-43.251 -174.287 998.682 
-42.8861 -174.281 998.636 
-42.5208 -174.274 998.581 
-42.144 -174.219 998.252 
-41.7685 -174.169 997.952 
-41.4105 -174.192 998.065 
-41.0509 -174.207 998.141 
-40.6944 -174.237 998.295 
-40.3359 -174.258 998.404 
-39.9764 -174.275 998.488 
-39.6335 -174.366 998.993 
-39.2646 -174.342 998.846 
-38.8806 -174.251 998.308 
-38.5218 -174.272 998.416 
-38.1461 -174.216 998.081 
-37.7814 -174.21 998.03 
-37.4262 -174.248 998.233 
-37.0365 -174.124 997.51 
-32.9389 -171.691 983.435 
-32.5821 -171.697 983.456 
-32.2681 -171.932 984.785 
-31.8956 -171.856 984.339 
-31.5254 -171.791 983.952 
-31.1543 -171.72 983.531 
-30.7991 -171.736 983.607 
-30.4626 -171.857 984.289 
-30.1124 -171.903 984.539 
-29.7217 -171.716 983.455 
-29.3319 -171.53 982.374 
-28.9869 -171.604 982.786 
-28.6495 -171.726 983.469 
-28.2873 -171.701 983.312 
-27.9314 -171.713 983.368 
-27.5631 -171.648 982.983 
-27.2021 -171.628 982.852 
-26.8385 -171.59 982.624 
-26.4939 -171.675 983.094 
-26.1329 -171.654 982.963 
-25.784 -171.714 983.288 
-25.4305 -171.743 983.443 
-25.068 -171.712 983.251 
-24.7043 -171.671 983.004 
-24.3594 -171.762 983.509 
-23.9995 -171.749 983.42 
-23.6359 -171.707 983.167 
-23.2863 -171.768 983.5 
-22.9276 -171.762 983.456 
-22.5693 -171.759 983.425 
-22.2104 -171.752 983.372 
-21.8508 -171.739 983.282 
-21.4939 -171.746 983.31 
-21.1464 -171.831 983.779 
-20.79 -171.844 983.842 
-20.4319 -171.845 983.831 
-20.0852 -171.941 984.369 
-19.721 -171.89 984.061 
-19.3653 -171.912 984.173 
-19.0065 -171.906 984.128 
-18.6548 -171.965 984.453 
-18.2909 -171.912 984.136 
-17.9341 -171.926 984.2 
-17.5959 -172.121 985.305 
-17.2443 -172.191 985.689 
-16.8764 -172.098 985.143 
-16.5141 -172.058 984.902 
-16.1554 -172.056 984.875 
-15.8292 -172.407 986.869 
-15.4741 -172.452 987.112 
-15.1188 -172.496 987.354 
-12.4121 -174.86 1000.77 
-12.0428 -174.786 1000.33 
-11.6759 -174.743 1000.07 
-11.3134 -174.765 1000.19 
-10.9451 -174.697 999.782 
-10.5821 -174.71 999.841 
-10.223 -174.792 1000.3 
-9.86001 -174.81 1000.38 
-9.4943 -174.779 1000.2 
-9.13007 -174.774 1000.15 
-8.76584 -174.769 1000.11 
-8.40224 -174.776 1000.14 
-8.04194 -174.856 1000.58 
-7.67543 -174.801 1000.25 
-7.31249 -174.826 1000.38 
-6.94928 -174.847 1000.49 
-6.58564 -174.859 1000.54 
-6.22208 -174.874 1000.61 
-5.85519 -174.791 1000.12 
-5.48973 -174.743 999.834 
-5.12721 -174.788 1000.08 
-4.76523 -174.859 1000.47 
-4.40168 -174.88 1000.57 
-4.03812 -174.903 1000.69 
-3.67386 -174.898 1000.65 
-3.30986 -174.905 1000.67 
-2.94699 -174.98 1001.09 
-2.58144 -174.894 1000.58 
-2.21678 -174.85 1000.32 
-1.85339 -174.908 1000.63 
-1.48962 -174.948 1000.85 
-1.12484 -174.858 1000.32 
-0.760675 -174.82 1000.09 
-59.9545 -171.436 980.955 
-59.5491 -171.297 980.149 
-59.2091 -171.346 980.415 
-58.8249 -171.267 979.95 
-58.4644 -171.257 979.875 
-58.1443 -171.365 980.48 
-57.7836 -171.354 980.405 
-57.3754 -171.201 979.517 
-57.0181 -171.2 979.494 
-56.663 -171.204 979.508 
-55.9495 -171.204 979.477 
-55.5328 -171.019 978.406 
-55.2406 -171.218 979.53 
-54.8804 -171.207 979.452 
-54.4835 -171.08 978.716 
-54.1423 -171.129 978.977 
-53.789 -171.139 979.021 
-53.4142 -171.08 978.671 
-53.0133 -170.936 977.837 
-52.6617 -170.951 977.906 
-52.3359 -171.05 978.459 
-51.9749 -171.034 978.355 
-51.6052 -170.99 978.087 
-51.2381 -170.953 977.864 
-50.8867 -174.635 998.868 
-50.4828 -174.496 998.058 
-50.1089 -174.459 997.836 
-49.7545 -174.491 998.001 
-49.3875 -174.478 997.914 
-49.0236 -174.476 997.889 
-48.665 -174.493 997.971 
-48.3073 -174.513 998.073 
-47.9447 -174.516 998.077 
-47.5748 -174.492 997.926 
-47.2151 -174.506 997.99 
-46.855 -174.518 998.045 
-46.501 -174.553 998.232 
-46.144 -174.577 998.357 
-45.7702 -174.538 998.117 
-45.4214 -174.594 998.425 
-45.052 -174.571 998.279 
-44.6787 -174.533 998.045 
-44.3171 -174.54 998.071 
-43.9521 -174.533 998.021 
-43.5958 -174.561 998.168 
-43.2528 -174.644 998.626 
-42.8949 -174.667 998.743 
-42.53 -174.662 998.7 
-42.1456 -174.575 998.192 
-41.771 -174.529 997.91 
-41.4081 -174.53 997.906 
-41.0558 -174.577 998.159 
-40.7049 -174.631 998.453 
-40.3353 -174.604 998.285 
-39.9745 -174.616 998.338 
-39.6337 -174.716 998.896 
-39.2719 -174.724 998.928 
-38.8902 -174.643 998.45 
-38.5088 -174.561 997.972 
-38.1314 -174.497 997.588 
-37.7582 -174.45 997.31 
-33.3175 -172.139 983.943 
-32.9365 -172.02 983.247 
-32.5746 -171.999 983.113 
-32.238 -172.112 983.75 
-31.8626 -172.019 983.201 
-31.5132 -172.065 983.451 
-31.1767 -172.184 984.117 
-30.7721 -171.924 982.621 
-30.4225 -171.971 982.87 
-30.0728 -172.017 983.12 
-29.7229 -172.063 983.369 
-29.3562 -172.011 983.063 
-28.996 -171.997 982.967 
-28.6559 -172.103 983.561 
-28.2769 -171.976 982.819 
-27.9278 -172.029 983.11 
-27.5706 -172.033 983.116 
-27.2017 -171.963 982.704 
-26.8368 -171.917 982.427 
-26.4895 -171.984 982.794 
-26.1402 -172.039 983.098 
-25.7807 -172.029 983.023 
-25.4231 -172.029 983.013 
-25.0668 -172.04 983.059 
-24.703 -171.999 982.81 
-24.3526 -172.05 983.092 
-23.9945 -172.048 983.065 
-23.6273 -171.979 982.658 
-23.28 -172.056 983.082 
-22.927 -172.092 983.276 
-22.5699 -172.099 983.299 
-22.2112 -172.092 983.249 
-21.8535 -172.093 983.24 
-21.4929 -172.072 983.104 
-21.145 -172.153 983.552 
-20.7889 -172.168 983.627 
-20.4385 -172.232 983.976 
-20.0784 -172.215 983.869 
-19.7255 -172.26 984.112 
-19.3623 -172.215 983.842 
-19.0017 -172.193 983.697 
-18.6524 -172.274 984.146 
-18.2955 -172.285 984.2 
-17.9385 -172.297 984.251 
-17.5961 -172.452 985.121 
-17.2385 -172.461 985.163 
-16.8955 -172.62 986.056 
-16.5292 -172.543 985.6 
-16.176 -172.601 985.92 
-15.8176 -172.606 985.934 
-13.8729 -175.235 1000.87 
-12.7821 -175.262 1000.98 
-12.4072 -175.112 1000.11 
-12.0381 -175.037 999.665 
-11.6761 -175.064 999.806 
-11.3157 -175.118 1000.1 
-10.9481 -175.059 999.748 
-10.5869 -175.103 999.984 
-10.2275 -175.18 1000.41 
-9.86188 -175.153 1000.24 
-9.49737 -175.144 1000.18 
-9.13308 -175.138 1000.13 
-8.76834 -175.122 1000.03 
-8.40524 -175.14 1000.11 
-8.0428 -175.173 1000.29 
-7.67786 -175.152 1000.15 
-7.31654 -175.215 1000.5 
-6.95287 -175.226 1000.55 
-6.58811 -175.208 1000.43 
-6.22408 -175.21 1000.43 
-5.85751 -175.135 999.984 
-5.49217 -175.089 999.708 
-5.12948 -175.127 999.911 
-4.76831 -175.226 1000.46 
