ply
format ascii 1.0
comment Created by CloudCompare v2.11 beta (Anoia)
comment Created 2020/4/1 下午4:12
obj_info Generated by CloudCompare!
element vertex 1858
property float x
property float y
property float z
end_header
41.7104 -199.436 999.88 
42.0729 -199.426 999.82 
42.4312 -199.397 999.659 
42.796 -199.399 999.655 
43.1621 -199.407 999.678 
43.5162 -199.36 999.429 
43.8897 -199.401 999.623 
44.2731 -199.487 1000.04 
44.6386 -199.491 1000.04 
45.0043 -199.496 1000.06 
45.3589 -199.452 999.823 
45.7111 -199.399 999.539 
46.0906 -199.464 999.852 
46.4654 -199.508 1000.06 
46.8202 -199.467 999.838 
47.1808 -199.451 999.742 
47.5446 -199.448 999.715 
47.9088 -199.447 999.694 
48.2951 -199.537 1000.13 
48.6627 -199.55 1000.18 
49.0301 -199.561 1000.22 
49.3882 -199.535 1000.08 
49.7452 -199.504 999.911 
50.1086 -199.5 999.875 
50.472 -199.496 999.839 
50.8382 -199.502 999.859 
51.2185 -199.564 1000.15 
51.589 -199.587 1000.25 
51.9422 -199.543 1000.02 
52.2919 -199.486 999.72 
52.6635 -199.513 999.842 
53.0352 -199.541 999.965 
53.3963 -199.528 999.886 
53.7665 -199.549 999.979 
54.1398 -199.581 1000.13 
54.5087 -199.597 1000.19 
54.8648 -199.566 1000.02 
55.2193 -199.53 999.825 
55.5828 -199.527 999.794 
0.11806 -199.081 997.875 
0.481871 -199.074 997.824 
0.846062 -199.164 998.261 
1.21031 -199.21 998.48 
1.5745 -199.229 998.557 
1.93838 -199.208 998.44 
2.30188 -199.162 998.197 
2.66628 -199.197 998.356 
3.03131 -199.265 998.682 
3.39502 -199.241 998.549 
3.75847 -199.208 998.369 
4.12307 -199.237 998.502 
4.48736 -199.248 998.541 
4.85088 -199.226 998.415 
5.21546 -199.247 998.51 
5.57885 -199.224 998.377 
5.94366 -199.251 998.5 
6.30753 -199.246 998.458 
6.67095 -199.228 998.354 
7.03585 -199.253 998.469 
7.3993 -199.238 998.377 
7.76627 -199.314 998.746 
8.13009 -199.307 998.693 
8.49307 -199.28 998.547 
8.85985 -199.341 998.839 
9.22501 -199.363 998.934 
9.58568 -199.29 998.553 
9.95088 -199.313 998.653 
10.3149 -199.312 998.636 
10.6759 -199.254 998.328 
11.0422 -199.295 998.523 
11.4049 -199.272 998.394 
11.7591 -199.107 997.553 
17.633 -191.802 960.707 
17.9593 -191.547 959.417 
18.3268 -191.732 960.329 
18.6622 -191.581 959.56 
19.0072 -191.533 959.303 
19.3526 -191.49 959.075 
19.7072 -191.538 959.304 
20.0565 -191.534 959.269 
20.3868 -191.352 958.344 
20.7331 -191.324 958.186 
21.079 -191.292 958.016 
21.418 -191.201 957.546 
21.7646 -191.179 957.423 
22.126 -191.286 957.943 
22.4562 -191.124 957.12 
22.7958 -191.046 956.713 
23.1517 -191.105 956.995 
23.4906 -191.024 956.576 
23.8417 -191.043 956.657 
24.1935 -191.067 956.763 
24.5487 -191.117 957 
24.8937 -191.087 956.836 
25.2252 -190.956 956.168 
25.5706 -190.932 956.034 
25.9204 -190.942 956.069 
26.2761 -190.993 956.315 
26.6249 -190.995 956.307 
26.9821 -191.055 956.596 
27.3233 -191.003 956.321 
27.6642 -190.949 956.039 
28.0124 -190.947 956.013 
28.3626 -190.958 956.057 
28.7129 -190.97 956.103 
29.0584 -190.95 955.989 
29.4079 -190.956 956.006 
29.7544 -190.943 955.928 
30.1002 -190.926 955.83 
30.4637 -191.021 956.289 
30.8191 -191.063 956.485 
31.1768 -191.118 956.748 
31.5181 -191.073 956.509 
31.8738 -191.115 956.704 
32.2559 -191.312 957.68 
32.5782 -191.155 956.881 
32.9342 -191.197 957.075 
33.325 -191.437 958.264 
33.7092 -191.636 959.243 
34.0384 -191.52 958.653 
34.3673 -191.406 958.065 
34.7524 -191.604 959.042 
35.1384 -191.802 960.021 
38.7953 -199.822 1000.08 
39.1333 -199.687 999.387 
39.5097 -199.748 999.678 
39.8839 -199.796 999.907 
40.2447 -199.778 999.802 
40.6063 -199.764 999.716 
40.9659 -199.74 999.583 
41.3342 -199.759 999.664 
41.6948 -199.741 999.559 
42.0582 -199.736 999.52 
42.4252 -199.749 999.568 
42.7797 -199.703 999.323 
43.1414 -199.691 999.25 
43.5003 -199.666 999.111 
43.8742 -199.71 999.317 
44.2599 -199.807 999.786 
44.6224 -199.798 999.728 
44.9967 -199.842 999.934 
45.3414 -199.754 999.482 
45.6919 -199.694 999.165 
46.0745 -199.773 999.548 
46.4623 -199.874 1000.04 
46.8099 -199.802 999.661 
47.1866 -199.854 999.908 
47.555 -199.87 999.974 
47.9182 -199.864 999.932 
48.2996 -199.934 1000.27 
48.6589 -199.912 1000.14 
49.0282 -199.932 1000.23 
49.3819 -199.887 999.989 
49.741 -199.865 999.866 
50.1067 -199.87 999.876 
50.4725 -199.875 999.886 
50.8471 -199.915 1000.07 
51.2186 -199.942 1000.19 
51.5902 -199.969 1000.31 
51.9362 -199.897 999.94 
52.29 -199.856 999.721 
52.6621 -199.885 999.852 
53.0286 -199.893 999.875 
53.3876 -199.872 999.758 
53.7623 -199.91 999.933 
54.1458 -199.98 1000.27 
54.5043 -199.958 1000.14 
54.8599 -199.925 999.965 
55.2216 -199.915 999.9 
55.5785 -199.887 999.748 
0.114671 -199.459 997.924 
0.478579 -199.48 998.015 
0.842674 -199.529 998.244 
1.20686 -199.564 998.405 
1.57084 -199.558 998.361 
1.93518 -199.592 998.514 
2.29866 -199.541 998.246 
2.66229 -199.516 998.106 
3.02796 -199.631 998.667 
3.39237 -199.648 998.738 
3.75493 -199.564 998.304 
4.11932 -199.583 998.387 
4.48316 -199.575 998.334 
4.84774 -199.599 998.44 
5.21259 -199.631 998.582 
5.57541 -199.585 998.341 
5.93897 -199.571 998.254 
6.30407 -199.607 998.42 
6.66903 -199.635 998.545 
7.0316 -199.592 998.319 
7.39447 -199.562 998.154 
7.76279 -199.675 998.705 
8.12821 -199.707 998.851 
8.48962 -199.642 998.511 
8.85692 -199.715 998.863 
9.22197 -199.734 998.944 
9.58066 -199.619 998.354 
9.94736 -199.673 998.612 
10.3114 -199.673 998.594 
10.6707 -199.584 998.135 
11.0382 -199.649 998.446 
11.3962 -199.542 997.897 
17.2888 -192.255 961.21 
17.6287 -192.141 960.625 
17.9525 -191.859 959.2 
18.3112 -191.953 959.656 
18.6579 -191.92 959.479 
18.99 -191.742 958.574 
19.3439 -191.785 958.779 
19.698 -191.829 958.983 
20.0391 -191.747 958.563 
20.3824 -191.69 958.263 
20.7365 -191.734 958.466 
21.0719 -191.606 957.815 
21.4191 -191.588 957.713 
21.7601 -191.517 957.342 
22.1061 -191.491 957.197 
22.458 -191.515 957.306 
22.7966 -191.428 956.855 
23.1423 -191.402 956.715 
23.4875 -191.373 956.554 
23.8383 -191.389 956.622 
24.1851 -191.374 956.533 
24.5423 -191.44 956.849 
24.8908 -191.438 956.824 
25.2301 -191.365 956.446 
25.5645 -191.258 955.899 
25.9132 -191.26 955.896 
26.273 -191.343 956.294 
26.6192 -191.325 956.19 
26.9714 -191.35 956.305 
27.3159 -191.321 956.147 
27.6553 -191.258 955.815 
27.9989 -191.225 955.638 
28.3455 -191.213 955.562 
28.7106 -191.324 956.106 
29.0583 -191.319 956.066 
29.4063 -191.315 956.033 
29.7531 -191.304 955.963 
30.1113 -191.366 956.258 
30.4667 -191.408 956.458 
30.8129 -191.393 956.368 
31.1696 -191.442 956.599 
31.5061 -191.368 956.215 
31.8722 -191.473 956.726 
32.228 -191.515 956.921 
32.5732 -191.493 956.799 
32.9317 -191.549 957.067 
33.3199 -191.775 958.183 
33.6765 -191.817 958.378 
34.0233 -191.802 958.29 
34.3902 -191.9 958.766 
34.7834 -192.142 959.96 
35.1044 -191.983 959.154 
39.1374 -200.089 999.548 
39.5042 -200.101 999.596 
39.8781 -200.148 999.818 
40.2368 -200.12 999.66 
40.5928 -200.078 999.439 
40.9559 -200.072 999.395 
41.3267 -200.104 999.537 
41.6712 -200.008 999.044 
42.0417 -200.038 999.179 
42.4153 -200.082 999.386 
42.7583 -199.982 998.873 
43.1035 -199.894 998.42 
44.2192 -200.002 998.914 
44.5973 -200.065 999.214 
44.9464 -199.997 998.861 
45.3048 -199.971 998.72 
46.4038 -200.001 998.822 
46.7803 -200.053 999.072 
47.1801 -200.204 999.812 
47.5636 -200.285 1000.2 
47.9332 -200.305 1000.29 
48.3185 -200.391 1000.7 
48.6558 -200.278 1000.12 
49.0153 -200.257 1000 
49.3782 -200.25 999.954 
49.7417 -200.246 999.918 
50.1086 -200.255 999.952 
50.4727 -200.254 999.929 
50.8441 -200.281 1000.05 
51.209 -200.282 1000.04 
51.5759 -200.291 1000.07 
51.9315 -200.256 999.886 
52.2907 -200.236 999.77 
52.6547 -200.234 999.746 
53.0295 -200.273 999.928 
53.3917 -200.264 999.868 
53.7557 -200.262 999.845 
54.1369 -200.324 1000.14 
54.5067 -200.343 1000.22 
54.8647 -200.319 1000.09 
55.2189 -200.281 999.881 
55.5722 -200.241 999.666 
0.111286 -199.857 998.068 
0.475199 -199.853 998.037 
0.839194 -199.874 998.125 
1.20348 -199.932 998.399 
1.56709 -199.878 998.115 
1.93149 -199.925 998.339 
2.29588 -199.958 998.486 
2.65903 -199.889 998.129 
3.0244 -199.984 998.587 
3.38839 -199.977 998.541 
3.75122 -199.91 998.192 
4.11586 -199.943 998.344 
4.48019 -199.958 998.402 
4.84548 -200.01 998.646 
5.20842 -199.964 998.405 
5.57071 -199.902 998.08 
5.93377 -199.873 997.922 
6.30289 -200.04 998.743 
6.66743 -200.052 998.786 
7.02747 -199.934 998.186 
7.39106 -199.925 998.124 
7.76016 -200.058 998.776 
8.12553 -200.088 998.91 
8.48762 -200.038 998.647 
8.8535 -200.078 998.832 
9.21768 -200.078 998.818 
9.57751 -199.987 998.351 
9.94238 -200.005 998.424 
10.3074 -200.025 998.509 
10.6707 -200.01 998.423 
11.0348 -200.011 998.411 
11.3862 -199.79 997.295 
17.2846 -192.594 961.129 
17.639 -192.638 961.336 
17.964 -192.365 959.96 
18.2935 -192.15 958.87 
18.6562 -192.285 959.529 
18.9986 -192.209 959.141 
19.3291 -192.02 958.18 
19.6985 -192.215 959.141 
20.0284 -192.025 958.179 
20.3767 -192.016 958.119 
20.7237 -191.994 957.995 
21.0585 -191.862 957.325 
21.4147 -191.926 957.632 
21.7483 -191.789 956.936 
22.0978 -191.794 956.948 
22.4638 -191.941 957.665 
22.805 -191.874 957.319 
23.1426 -191.78 956.833 
23.4846 -191.724 956.54 
23.8414 -191.789 956.851 
24.1808 -191.714 956.463 
24.5357 -191.762 956.692 
24.8891 -191.798 956.854 
25.2268 -191.713 956.419 
25.5655 -191.638 956.031 
25.9112 -191.617 955.912 
26.2705 -191.696 956.291 
26.6075 -191.612 955.858 
26.9574 -191.622 955.898 
27.3072 -191.631 955.927 
27.6536 -191.616 955.84 
27.994 -191.561 955.552 
28.3371 -191.526 955.363 
28.694 -191.583 955.635 
29.0548 -191.665 956.028 
29.4084 -191.698 956.178 
29.7582 -191.705 956.203 
30.118 -191.777 956.547 
30.4687 -191.79 956.596 
30.8011 -191.688 956.074 
31.1481 -191.678 956.013 
31.5024 -191.713 956.172 
31.8666 -191.807 956.629 
32.2285 -191.885 957.003 
32.5681 -191.831 956.718 
32.9128 -191.806 956.584 
33.3148 -192.113 958.102 
33.6714 -192.155 958.296 
34.0053 -192.068 957.847 
34.385 -192.239 958.685 
34.742 -192.28 958.879 
35.0992 -192.322 959.073 
35.4565 -192.363 959.266 
39.1374 -200.47 999.605 
39.4823 -200.371 999.099 
39.8698 -200.488 999.667 
40.2235 -200.434 999.385 
40.5832 -200.411 999.256 
40.9473 -200.41 999.238 
41.3049 -200.378 999.061 
41.6472 -200.272 998.521 
47.9521 -200.763 1000.72 
48.6658 -200.697 1000.37 
49.0143 -200.631 1000.02 
49.3799 -200.635 1000.03 
49.7411 -200.621 999.946 
50.1038 -200.614 999.894 
50.4719 -200.628 999.952 
50.8459 -200.665 1000.12 
51.207 -200.652 1000.04 
51.5697 -200.644 999.989 
51.9201 -200.59 999.702 
52.2882 -200.603 999.757 
52.6523 -200.602 999.735 
53.0242 -200.63 999.862 
53.3917 -200.641 999.902 
53.7525 -200.627 999.819 
54.123 -200.65 999.916 
54.4992 -200.693 1000.12 
54.8624 -200.687 1000.07 
55.2149 -200.643 999.841 
55.5684 -200.604 999.629 
0.107896 -200.258 998.231 
0.471847 -200.241 998.132 
0.835706 -200.218 998.004 
1.19968 -200.23 998.048 
1.56384 -200.26 998.184 
1.92834 -200.315 998.444 
2.29255 -200.328 998.495 
2.65547 -200.241 998.045 
3.0202 -200.294 998.298 
3.3842 -200.294 998.281 
3.74775 -200.27 998.146 
4.11229 -200.298 998.275 
4.47661 -200.313 998.334 
4.84277 -200.402 998.762 
5.2044 -200.304 998.26 
5.56587 -200.213 997.793 
5.93099 -200.257 997.999 
6.29998 -200.419 998.792 
6.66319 -200.39 998.634 
7.02358 -200.284 998.089 
7.38964 -200.341 998.363 
7.75746 -200.44 998.839 
8.12087 -200.42 998.728 
8.48343 -200.383 998.526 
8.85172 -200.478 998.987 
9.21311 -200.416 998.663 
9.57255 -200.318 998.16 
9.94028 -200.394 998.526 
10.3023 -200.354 998.314 
10.6682 -200.389 998.472 
11.0272 -200.299 998.009 
16.5798 -192.936 961.089 
17.2803 -192.933 961.047 
17.6202 -192.818 960.462 
17.9598 -192.704 959.879 
18.2979 -192.579 959.243 
18.6519 -192.623 959.448 
18.987 -192.474 958.695 
19.3352 -192.461 958.616 
19.6786 -192.401 958.303 
20.024 -192.363 958.098 
20.3565 -192.204 957.293 
20.7118 -192.262 957.57 
21.0534 -192.194 957.215 
21.4012 -192.183 957.15 
21.7334 -192.035 956.398 
22.1016 -192.204 957.227 
22.4593 -192.279 957.584 
22.8019 -192.224 957.298 
23.1356 -192.097 956.651 
23.4843 -192.096 956.634 
23.8309 -192.079 956.533 
24.1771 -192.058 956.417 
24.5278 -192.074 956.483 
24.8794 -192.096 956.578 
25.2201 -192.035 956.26 
25.5608 -191.975 955.948 
25.9081 -191.966 955.889 
26.2637 -192.018 956.136 
26.6027 -191.949 955.776 
26.9517 -191.952 955.781 
27.3001 -191.952 955.767 
27.6473 -191.943 955.71 
27.9867 -191.881 955.387 
28.3323 -191.863 955.282 
28.6902 -191.927 955.589 
29.0488 -191.995 955.911 
29.4039 -192.038 956.112 
29.7675 -192.135 956.581 
30.1169 -192.139 956.588 
30.4541 -192.066 956.211 
30.7973 -192.032 956.027 
31.1477 -192.043 956.071 
31.5091 -192.122 956.448 
31.8626 -192.151 956.579 
32.2234 -192.223 956.922 
32.5631 -192.168 956.637 
32.9389 -192.326 957.412 
33.3097 -192.451 958.021 
33.6481 -192.39 957.7 
34.0121 -192.474 958.104 
34.3798 -192.577 958.604 
34.7368 -192.619 958.797 
35.094 -192.66 958.991 
35.4513 -192.702 959.185 
39.1316 -200.822 999.516 
39.4667 -200.672 998.759 
39.8374 -200.706 998.91 
40.1966 -200.681 998.773 
40.56 -200.677 998.741 
44.6485 -197.821 984.342 
45.3426 -197.718 983.802 
45.7089 -197.751 983.951 
48.6695 -201.091 1000.48 
49.0212 -201.037 1000.2 
49.3791 -201.01 1000.05 
49.7372 -200.983 999.906 
50.1009 -200.98 999.875 
50.4681 -200.991 999.915 
50.8367 -201.007 999.979 
51.1976 -200.992 999.893 
51.5649 -201.003 999.933 
51.9234 -200.979 999.801 
52.2808 -200.952 999.652 
52.6457 -200.954 999.647 
53.0252 -201.011 999.915 
53.389 -201.008 999.888 
53.7496 -200.993 999.799 
54.1101 -200.979 999.711 
54.4914 -201.041 1000.01 
54.8538 -201.033 999.952 
55.2115 -201.008 999.812 
55.5791 -201.019 999.854 
55.9392 -201.003 999.761 
0.104501 -200.665 998.421 
0.468449 -200.612 998.145 
0.832151 -200.548 997.811 
1.19619 -200.58 997.955 
1.56068 -200.656 998.318 
1.9249 -200.676 998.407 
2.28887 -200.668 998.349 
2.65268 -200.651 998.25 
3.01609 -200.611 998.041 
3.38008 -200.615 998.044 
3.74385 -200.607 997.989 
4.10934 -200.684 998.361 
4.47399 -200.712 998.483 
4.83977 -200.782 998.819 
5.20073 -200.657 998.182 
5.56163 -200.546 997.617 
5.92894 -200.666 998.2 
6.29646 -200.779 998.747 
6.65766 -200.689 998.287 
7.01969 -200.633 997.992 
7.38717 -200.73 998.461 
7.75311 -200.779 998.689 
8.11526 -200.729 998.429 
8.47852 -200.71 998.321 
8.84718 -200.816 998.831 
9.20961 -200.777 998.625 
9.57148 -200.73 998.376 
9.93742 -200.768 998.553 
10.2996 -200.732 998.357 
10.6637 -200.733 998.35 
11.017 -200.538 997.365 
16.92 -193.206 960.654 
17.28 -193.315 961.182 
17.6054 -193.041 959.803 
17.9423 -192.9 959.092 
18.2971 -192.954 959.347 
18.6346 -192.827 958.701 
18.9955 -192.942 959.258 
19.3435 -192.925 959.16 
19.6849 -192.843 958.74 
20.0196 -192.701 958.017 
20.3692 -192.704 958.019 
20.7101 -192.625 957.616 
21.0393 -192.443 956.694 
21.3968 -192.521 957.069 
21.7241 -192.329 956.103 
22.0826 -192.416 956.518 
22.4497 -192.573 957.289 
22.8047 -192.623 957.524 
23.1297 -192.422 956.512 
23.475 -192.394 956.358 
23.8249 -192.404 956.394 
24.17 -192.376 956.237 
24.5178 -192.369 956.19 
24.8678 -192.38 956.232 
25.2123 -192.348 956.06 
25.5616 -192.354 956.074 
25.9068 -192.328 955.934 
26.2585 -192.352 956.038 
26.5961 -192.273 955.63 
26.944 -192.268 955.595 
27.2929 -192.272 955.6 
27.6439 -192.29 955.676 
27.9851 -192.241 955.416 
28.3329 -192.236 955.382 
28.6881 -192.283 955.598 
29.0368 -192.285 955.594 
29.3994 -192.378 956.043 
29.7574 -192.439 956.332 
30.1085 -192.454 956.396 
30.4571 -192.453 956.378 
30.7954 -192.389 956.044 
31.1382 -192.353 955.851 
31.509 -192.489 956.515 
31.8517 -192.453 956.32 
32.2047 -192.479 956.435 
32.5765 -192.615 957.1 
32.9481 -192.748 957.745 
33.3045 -192.789 957.94 
33.643 -192.728 957.619 
34.0069 -192.812 958.022 
34.3747 -192.915 958.522 
34.7316 -192.957 958.716 
35.0888 -192.999 958.91 
35.446 -193.04 959.104 
41.3823 -198.023 983.661 
42.4342 -197.911 983.064 
42.8237 -198.054 983.762 
43.2016 -198.143 984.187 
43.5546 -198.116 984.042 
44.2898 -198.195 984.405 
44.624 -198.085 983.847 
44.978 -198.065 983.73 
45.3464 -198.107 983.927 
45.6875 -198.031 983.533 
46.0169 -197.906 982.897 
46.4178 -198.087 983.784 
46.7114 -197.811 982.402 
48.6861 -201.538 1000.86 
49.0622 -201.584 1001.08 
49.3997 -201.472 1000.51 
49.7275 -201.322 999.751 
50.089 -201.31 999.677 
50.4688 -201.371 999.967 
50.8305 -201.36 999.895 
51.1897 -201.339 999.777 
51.5664 -201.386 999.999 
51.9249 -201.363 999.868 
52.279 -201.323 999.654 
52.6419 -201.316 999.609 
53.0098 -201.33 999.66 
53.3835 -201.365 999.819 
53.7536 -201.385 999.909 
54.1073 -201.345 999.693 
54.4777 -201.367 999.788 
54.8374 -201.349 999.685 
55.2105 -201.381 999.827 
55.5766 -201.386 999.841 
55.9381 -201.375 999.773 
0.101077 -201.031 998.405 
0.465041 -200.982 998.151 
0.828777 -200.923 997.84 
1.19265 -200.923 997.831 
1.55711 -201.001 998.2 
1.92142 -201.033 998.347 
2.28521 -201.01 998.217 
2.64908 -201 998.157 
3.01228 -200.948 997.883 
3.37611 -200.946 997.856 
3.74045 -200.971 997.967 
4.10548 -201.026 998.227 
4.47038 -201.066 998.412 
4.83473 -201.078 998.456 
5.19663 -200.993 998.023 
5.55974 -200.964 997.862 
5.92764 -201.101 998.528 
6.29072 -201.068 998.351 
6.65175 -200.977 997.884 
7.01771 -201.037 998.168 
7.38574 -201.148 998.703 
7.75017 -201.154 998.722 
8.11006 -201.048 998.18 
8.47335 -201.032 998.086 
8.84231 -201.146 998.639 
9.20566 -201.129 998.539 
9.56916 -201.116 998.461 
9.93507 -201.153 998.632 
10.2966 -201.103 998.367 
10.6571 -201.036 998.023 
16.5713 -193.613 960.926 
16.9157 -193.545 960.573 
17.2576 -193.451 960.093 
17.6117 -193.495 960.3 
17.9512 -193.381 959.716 
18.2847 -193.207 958.841 
18.6344 -193.208 958.831 
18.9727 -193.093 958.25 
19.33 -193.172 958.627 
19.6805 -193.181 958.658 
20.0137 -193.023 957.862 
20.3675 -193.067 958.065 
20.7057 -192.963 957.534 
21.0349 -192.78 956.613 
21.3958 -192.889 957.141 
21.7268 -192.73 956.339 
22.0873 -192.833 956.836 
22.4546 -192.992 957.609 
22.7962 -192.927 957.276 
23.1336 -192.831 956.782 
23.4764 -192.781 956.521 
23.8205 -192.743 956.321 
24.1637 -192.7 956.091 
24.5074 -192.661 955.886 
24.8587 -192.682 955.977 
25.2078 -192.687 955.987 
25.5585 -192.703 956.052 
25.9029 -192.671 955.883 
26.2503 -192.663 955.828 
26.5915 -192.61 955.554 
26.9447 -192.645 955.711 
27.2888 -192.614 955.543 
27.6349 -192.598 955.449 
27.9783 -192.564 955.268 
28.3351 -192.622 955.541 
28.6842 -192.626 955.549 
29.0364 -192.651 955.66 
29.3956 -192.722 955.997 
29.7488 -192.752 956.132 
30.1008 -192.774 956.228 
30.4463 -192.754 956.114 
30.7971 -192.768 956.169 
31.1436 -192.755 956.091 
31.5011 -192.809 956.348 
31.8521 -192.823 956.402 
32.2026 -192.833 956.441 
32.5692 -192.94 956.955 
32.943 -193.085 957.664 
33.3218 -193.257 958.503 
33.6559 -193.169 958.053 
33.9773 -193.011 957.252 
34.3695 -193.253 958.441 
34.7264 -193.295 958.635 
39.9421 -198.369 983.632 
41.009 -198.326 983.376 
41.3815 -198.393 983.694 
41.7242 -198.317 983.303 
42.0844 -198.325 983.328 
42.4414 -198.318 983.279 
42.8349 -198.48 984.068 
43.1819 -198.426 983.786 
43.5264 -198.361 983.451 
43.8835 -198.355 983.404 
44.2516 -198.397 983.602 
44.606 -198.379 983.495 
44.9493 -198.311 983.147 
45.3076 -198.311 983.13 
45.6815 -198.378 983.448 
46.02 -198.291 983.006 
46.3873 -198.329 983.18 
46.7054 -198.158 982.317 
47.0736 -198.2 982.513 
48.6497 -201.766 1000.16 
49.4253 -201.955 1001.07 
49.7394 -201.748 1000.03 
50.0846 -201.67 999.628 
50.4587 -201.709 999.805 
50.8122 -201.665 999.574 
51.1812 -201.683 999.648 
51.5633 -201.752 999.975 
51.9244 -201.738 999.895 
52.2754 -201.686 999.621 
52.6386 -201.681 999.582 
53.0103 -201.709 999.705 
53.3846 -201.746 999.875 
53.7521 -201.757 999.915 
54.1062 -201.718 999.708 
54.4735 -201.728 999.744 
54.8331 -201.71 999.639 
55.2038 -201.733 999.738 
55.5848 -201.793 1000.02 
55.9355 -201.742 999.758 
0.0976435 -201.391 998.366 
0.461647 -201.361 998.203 
0.825362 -201.289 997.829 
1.18923 -201.288 997.813 
1.55345 -201.334 998.024 
1.91775 -201.371 998.195 
2.2817 -201.366 998.154 
2.646 -201.39 998.258 
3.00929 -201.341 998.001 
3.37329 -201.344 998.005 
3.73724 -201.346 997.997 
4.10278 -201.424 998.374 
4.46633 -201.401 998.245 
4.82997 -201.386 998.153 
5.19306 -201.351 997.966 
5.55852 -201.407 998.231 
5.92437 -201.469 998.526 
6.28545 -201.372 998.03 
6.64698 -201.299 997.654 
7.01597 -201.448 998.379 
7.38257 -201.518 998.708 
7.74675 -201.518 998.694 
8.10773 -201.438 998.286 
8.47002 -201.397 998.068 
8.83876 -201.506 998.596 
9.20138 -201.473 998.417 
9.56507 -201.465 998.363 
9.93007 -201.485 998.444 
10.2932 -201.466 998.338 
10.655 -201.424 998.114 
16.563 -193.904 960.604 
16.8994 -193.745 959.805 
17.231 -193.538 958.768 
17.5912 -193.655 959.334 
17.9469 -193.719 959.635 
18.2613 -193.343 957.759 
18.6301 -193.546 958.75 
18.9628 -193.374 957.885 
19.3028 -193.281 957.412 
19.6589 -193.35 957.739 
20.0093 -193.361 957.781 
20.3631 -193.405 957.984 
20.7037 -193.323 957.564 
21.0304 -193.117 956.532 
21.3875 -193.192 956.889 
21.7378 -193.205 956.937 
22.076 -193.111 956.46 
22.4457 -193.292 957.341 
22.7894 -193.246 957.102 
23.1239 -193.125 956.488 
23.47 -193.103 956.368 
23.8168 -193.088 956.278 
24.1512 -192.973 955.696 
24.4952 -192.938 955.508 
24.8524 -193.007 955.834 
25.2042 -193.032 955.945 
25.5523 -193.029 955.916 
25.8983 -193.01 955.808 
26.2392 -192.953 955.516 
26.5853 -192.937 955.419 
26.9375 -192.964 955.541 
27.2783 -192.91 955.262 
27.624 -192.892 955.157 
27.9809 -192.952 955.439 
28.3376 -193.008 955.707 
28.6863 -193.01 955.702 
29.0294 -192.974 955.509 
29.3936 -193.078 956.011 
29.7437 -193.088 956.047 
30.0919 -193.086 956.021 
30.4432 -193.103 956.093 
30.8057 -193.19 956.51 
31.1414 -193.109 956.094 
31.4993 -193.166 956.364 
31.8365 -193.096 956.005 
32.1879 -193.113 956.074 
32.5816 -193.381 957.388 
32.9648 -193.581 958.365 
33.3215 -193.623 958.56 
33.6816 -193.685 958.849 
34.0513 -193.799 959.402 
34.3887 -193.729 959.04 
34.7212 -193.633 958.554 
39.5923 -198.789 983.921 
39.9332 -198.7 983.468 
40.3077 -198.778 983.842 
40.653 -198.713 983.504 
40.9957 -198.636 983.108 
41.3509 -198.62 983.018 
41.6938 -198.547 982.638 
42.0551 -198.561 982.694 
42.4463 -198.715 983.442 
42.8081 -198.73 983.502 
43.18 -198.791 983.791 
43.5096 -198.658 983.12 
43.8795 -198.71 983.363 
44.2376 -198.708 983.338 
44.5995 -198.723 983.399 
44.9525 -198.698 983.262 
45.306 -198.676 983.139 
45.652 -198.622 982.858 
46.007 -198.608 982.771 
46.3547 -198.562 982.533 
46.6829 -198.434 981.887 
47.0675 -198.547 982.427 
47.4358 -198.589 982.623 
49.7545 -202.188 1000.37 
50.0837 -202.044 999.65 
50.4492 -202.048 999.655 
50.8145 -202.052 999.656 
51.1798 -202.055 999.659 
51.5568 -202.104 999.886 
51.9146 -202.078 999.742 
52.2715 -202.048 999.582 
52.6393 -202.061 999.631 
53.0057 -202.068 999.653 
53.3786 -202.1 999.796 
53.7475 -202.117 999.863 
54.104 -202.087 999.701 
54.4676 -202.083 999.67 
54.8313 -202.08 999.64 
55.2018 -202.102 999.736 
55.5788 -202.148 999.946 
55.9262 -202.086 999.624 
0.0942071 -201.759 998.359 
0.458291 -201.76 998.351 
0.821927 -201.652 997.802 
1.18575 -201.642 997.739 
1.54991 -201.683 997.928 
1.9144 -201.743 998.211 
2.27811 -201.716 998.061 
2.64275 -201.767 998.3 
3.0065 -201.746 998.184 
3.37032 -201.735 998.115 
3.7341 -201.724 998.046 
4.09949 -201.795 998.382 
4.4626 -201.751 998.149 
4.82576 -201.716 997.962 
5.19061 -201.752 998.127 
5.55653 -201.822 998.461 
5.92135 -201.847 998.567 
6.28203 -201.735 998.003 
6.64269 -201.636 997.496 
7.01203 -201.797 998.278 
7.37954 -201.892 998.734 
7.74318 -201.877 998.648 
8.10521 -201.824 998.37 
8.46747 -201.781 998.143 
8.83528 -201.868 998.561 
9.19778 -201.833 998.37 
9.56003 -201.794 998.166 
9.92338 -201.781 998.088 
10.2887 -201.808 998.206 
10.6513 -201.781 998.058 
11.0033 -201.562 996.96 
16.5414 -194.039 959.517 
16.8831 -193.945 959.039 
17.2491 -194.128 959.93 
17.6032 -194.172 960.137 
17.9202 -193.814 958.353 
18.2806 -193.931 958.918 
18.6257 -193.884 958.669 
18.9641 -193.769 958.087 
19.2984 -193.619 957.331 
19.6545 -193.688 957.658 
20.0049 -193.699 957.7 
20.3455 -193.617 957.28 
20.6992 -193.661 957.483 
21.026 -193.455 956.451 
21.3829 -193.528 956.802 
21.7333 -193.542 956.856 
22.0836 -193.554 956.903 
22.4412 -193.629 957.26 
22.7874 -193.605 957.127 
23.1177 -193.449 956.339 
23.4655 -193.441 956.287 
23.8152 -193.449 956.315 
24.1481 -193.323 955.678 
24.4879 -193.255 955.326 
24.8467 -193.336 955.714 
25.2002 -193.375 955.891 
25.5483 -193.37 955.858 
25.892 -193.334 955.666 
26.2309 -193.265 955.307 
26.5779 -193.254 955.243 
26.9329 -193.302 955.466 
27.2785 -193.283 955.358 
27.6167 -193.212 954.991 
27.9761 -193.289 955.358 
28.3423 -193.411 955.95 
28.6738 -193.296 955.367 
29.0409 -193.421 955.97 
29.3887 -193.415 955.93 
29.7319 -193.381 955.744 
30.102 -193.52 956.419 
30.4422 -193.465 956.136 
30.8141 -193.612 956.845 
31.1531 -193.55 956.527 
31.4864 -193.455 956.045 
31.8739 -193.691 957.199 
32.2205 -193.677 957.112 
32.6032 -193.877 958.089 
32.9328 -193.761 957.502 
33.307 -193.907 958.211 
33.6731 -194.004 958.674 
34.0598 -194.215 959.706 
34.716 -193.971 958.472 
39.1975 -198.981 983.088 
39.5903 -199.154 983.926 
39.9212 -199.015 983.227 
40.2949 -199.09 983.584 
40.6379 -199.014 983.191 
41.0114 -199.086 983.536 
41.3514 -198.997 983.081 
41.7216 -199.053 983.343 
42.0767 -199.037 983.248 
42.4309 -199.016 983.134 
42.8208 -199.162 983.842 
43.1442 -199 983.023 
43.4958 -198.969 982.856 
43.8637 -199.012 983.055 
44.2189 -198.997 982.968 
44.5869 -199.04 983.166 
44.9385 -199.009 983.001 
45.2876 -198.968 982.785 
45.6354 -198.922 982.544 
45.9822 -198.873 982.286 
46.309 -198.738 981.606 
46.6758 -198.776 981.778 
47.0352 -198.782 981.796 
47.3896 -198.767 981.707 
50.0955 -202.47 999.924 
50.439 -202.386 999.492 
50.8054 -202.393 999.516 
51.1714 -202.399 999.533 
51.5477 -202.446 999.748 
51.915 -202.457 999.787 
52.2663 -202.405 999.518 
52.632 -202.41 999.529 
53.0031 -202.435 999.639 
53.3688 -202.44 999.647 
53.7444 -202.482 999.841 
54.1027 -202.459 999.71 
54.4652 -202.451 999.659 
54.8299 -202.452 999.649 
55.209 -202.505 999.899 
55.5782 -202.522 999.966 
55.9322 -202.484 999.764 
0.0907578 -202.112 998.283 
0.454799 -202.102 998.219 
0.818436 -202.003 997.715 
1.18227 -201.998 997.679 
1.54645 -202.043 997.883 
1.91033 -202.04 997.856 
2.27498 -202.106 998.167 
2.63996 -202.18 998.519 
3.00383 -202.162 998.413 
3.367 -202.106 998.122 
3.73064 -202.086 998.013 
4.09535 -202.123 998.182 
4.45808 -202.065 997.878 
4.82165 -202.051 997.795 
5.18738 -202.123 998.139 
5.55322 -202.19 998.455 
5.91681 -202.172 998.353 
6.27791 -202.077 997.866 
6.64033 -202.032 997.63 
7.00822 -202.149 998.196 
7.3753 -202.233 998.598 
7.7396 -202.237 998.601 
8.10386 -202.239 998.599 
8.46667 -202.207 998.426 
8.83049 -202.201 998.381 
9.19266 -202.159 998.159 
9.55513 -202.126 997.985 
9.91926 -202.13 997.99 
10.2848 -202.162 998.13 
10.6507 -202.199 998.298 
11.0019 -201.963 997.119 
16.5545 -194.581 960.441 
16.8909 -194.422 959.642 
17.2511 -194.537 960.199 
17.5863 -194.372 959.37 
17.9122 -194.112 958.074 
18.2763 -194.269 958.836 
18.6194 -194.201 958.484 
18.9597 -194.107 958.006 
19.3134 -194.151 958.21 
19.6673 -194.195 958.415 
19.9927 -193.961 957.245 
20.341 -193.954 957.199 
20.6948 -193.998 957.402 
21.0277 -193.849 956.652 
21.3926 -193.994 957.356 
21.7334 -193.92 956.977 
22.0826 -193.923 956.977 
22.4321 -193.927 956.984 
22.7796 -193.915 956.911 
23.1093 -193.753 956.099 
23.4583 -193.757 956.102 
23.8101 -193.782 956.215 
24.1429 -193.655 955.572 
24.4807 -193.571 955.142 
24.8423 -193.675 955.643 
25.1914 -193.68 955.653 
25.5418 -193.695 955.713 
25.8854 -193.657 955.516 
26.2283 -193.617 955.301 
26.5719 -193.582 955.118 
26.9276 -193.636 955.368 
27.2727 -193.612 955.239 
27.6174 -193.587 955.101 
27.9695 -193.614 955.22 
28.334 -193.724 955.75 
28.686 -193.748 955.853 
29.0456 -193.822 956.205 
29.4216 -194.002 957.079 
29.7652 -193.967 956.893 
30.1015 -193.886 956.478 
30.4764 -194.052 957.285 
31.9252 -194.372 958.811 
32.2636 -194.305 958.464 
32.6346 -194.433 959.082 
32.9578 -194.277 958.297 
33.6405 -194.183 957.809 
38.5016 -199.466 983.711 
38.8473 -199.399 983.367 
39.2152 -199.446 983.587 
39.5753 -199.454 983.61 
39.9036 -199.302 982.848 
40.2551 -199.268 982.665 
40.6293 -199.346 983.037 
40.9862 -199.338 982.985 
41.3455 -199.343 982.992 
41.7053 -199.349 983.01 
42.0533 -199.3 982.751 
42.4347 -199.408 983.272 
42.7786 -199.34 982.922 
43.1464 -199.383 983.121 
43.486 -199.297 982.681 
43.8578 -199.358 982.969 
44.2272 -199.408 983.2 
44.5734 -199.353 982.915 
44.9259 -199.326 982.771 
45.2836 -199.324 982.743 
45.6237 -199.244 982.336 
45.9704 -199.194 982.077 
46.3192 -199.154 981.866 
46.6389 -198.991 981.046 
47.0377 -199.165 981.889 
47.4236 -199.282 982.453 
47.7516 -199.156 981.817 
50.1102 -202.908 1000.26 
50.4375 -202.757 999.501 
50.804 -202.765 999.526 
51.171 -202.775 999.562 
51.5377 -202.784 999.591 
51.9009 -202.779 999.552 
52.2579 -202.75 999.395 
52.6248 -202.76 999.427 
52.9927 -202.773 999.479 
53.3597 -202.783 999.512 
53.7317 -202.811 999.638 
54.0933 -202.8 999.571 
54.4597 -202.808 999.592 
54.8372 -202.856 999.814 
55.2023 -202.858 999.81 
55.571 -202.873 999.87 
55.9367 -202.877 999.876 
0.0872884 -202.434 998.049 
0.451252 -202.422 997.977 
0.815088 -202.391 997.809 
1.17895 -202.385 997.766 
1.54314 -202.425 997.948 
1.90692 -202.406 997.844 
2.27152 -202.468 998.135 
2.63637 -202.532 998.436 
3.00027 -202.517 998.348 
3.36363 -202.473 998.117 
3.72764 -202.473 998.103 
4.09156 -202.469 998.07 
4.45413 -202.405 997.739 
4.81772 -202.393 997.667 
5.18439 -202.504 998.198 
5.5501 -202.565 998.485 
5.91388 -202.553 998.411 
6.27347 -202.407 997.678 
6.63677 -202.391 997.583 
7.00426 -202.498 998.095 
7.37067 -202.564 998.408 
7.73481 -202.565 998.398 
8.10123 -202.623 998.671 
8.46445 -202.6 998.541 
8.82568 -202.533 998.197 
9.18842 -202.504 998.043 
9.55303 -202.518 998.097 
9.91728 -202.523 998.109 
10.2818 -202.533 998.143 
10.6477 -202.569 998.307 
10.9992 -202.339 997.159 
16.9044 -194.964 960.567 
17.2406 -194.805 959.767 
17.582 -194.71 959.289 
17.9079 -194.45 957.993 
18.272 -194.607 958.755 
18.615 -194.539 958.403 
18.9709 -194.604 958.711 
19.3195 -194.594 958.647 
19.6523 -194.428 957.816 
19.9883 -194.298 957.164 
20.3366 -194.292 957.118 
20.6826 -194.263 956.964 
21.032 -194.267 956.969 
21.3774 -194.235 956.798 
21.7329 -194.294 957.072 
22.0731 -194.216 956.678 
22.4245 -194.238 956.772 
22.7757 -194.258 956.855 
23.1052 -194.095 956.039 
23.4525 -194.084 955.974 
23.8055 -194.12 956.134 
24.1452 -194.048 955.768 
24.4861 -193.987 955.454 
24.8327 -193.973 955.373 
25.189 -194.034 955.659 
25.5384 -194.042 955.681 
25.8816 -194.002 955.471 
26.2235 -193.954 955.221 
26.5777 -193.997 955.419 
26.9213 -193.962 955.235 
27.2955 -194.145 956.125 
27.6341 -194.075 955.764 
27.9921 -194.141 956.075 
28.3116 -193.941 955.077 
28.7061 -194.254 956.604 
29.075 -194.388 957.252 
29.4239 -194.388 957.235 
30.12 -194.374 957.143 
30.4793 -194.44 957.453 
30.8541 -194.602 958.236 
31.2191 -194.699 958.7 
31.5926 -194.847 959.413 
31.9303 -194.773 959.035 
32.2564 -194.63 958.318 
32.6336 -194.796 959.121 
32.9754 -194.749 958.876 
33.3476 -194.881 959.512 
33.7006 -194.899 959.587 
38.4639 -199.646 982.805 
38.8205 -199.637 982.747 
39.1661 -199.572 982.413 
39.5388 -199.645 982.758 
39.9059 -199.688 982.959 
40.2623 -199.678 982.895 
40.6132 -199.641 982.699 
40.9539 -199.555 982.262 
41.3196 -199.592 982.427 
41.6921 -199.66 982.751 
42.0543 -199.679 982.827 
42.4052 -199.643 982.638 
42.7621 -199.637 982.592 
43.1061 -199.571 982.253 
43.483 -199.657 982.662 
43.8599 -199.741 983.063 
44.207 -199.69 982.798 
44.5452 -199.599 982.339 
44.9025 -199.595 982.305 
45.2746 -199.657 982.592 
45.625 -199.622 982.408 
45.9709 -199.569 982.132 
46.3132 -199.5 981.781 
46.6532 -199.424 981.389 
47.014 -199.436 981.435 
47.3911 -199.517 981.821 
47.7345 -199.456 981.506 
50.1256 -203.349 1000.6 
50.4456 -203.168 999.7 
50.8038 -203.142 999.561 
51.171 -203.153 999.6 
51.5433 -203.184 999.738 
51.9098 -203.192 999.761 
52.266 -203.159 999.586 
52.6189 -203.114 999.352 
52.9808 -203.105 999.291 
53.3503 -203.124 999.373 
53.7281 -203.175 999.606 
54.0881 -203.158 999.509 
54.466 -203.208 999.741 
54.8363 -203.23 999.833 
55.194 -203.204 999.692 
55.5632 -203.221 999.763 
55.9331 -203.24 999.843 
0.0838332 -202.801 998.043 
0.447725 -202.753 997.793 
0.81162 -202.75 997.765 
1.17559 -202.764 997.817 
1.53985 -202.809 998.024 
1.90362 -202.786 997.899 
2.26809 -202.833 998.116 
2.63245 -202.859 998.231 
2.99648 -202.858 998.208 
3.36018 -202.836 998.088 
3.72444 -202.85 998.143 
4.08764 -202.809 997.927 
4.45059 -202.764 997.69 
4.81412 -202.75 997.608 
5.18042 -202.847 998.07 
5.54696 -202.94 998.513 
5.90976 -202.893 998.271 
6.26967 -202.759 997.594 
6.63424 -202.782 997.694 
7.00195 -202.894 998.229 
7.36771 -202.941 998.446 
7.73131 -202.927 998.364 
8.09678 -202.961 998.519 
8.46135 -202.971 998.555 
8.82057 -202.858 997.981 
9.18466 -202.861 997.981 
9.55067 -202.904 998.181 
9.91569 -202.924 998.267 
10.2786 -202.902 998.144 
10.6448 -202.943 998.332 
11.0001 -202.781 997.52 
17.2363 -195.143 959.686 
17.5777 -195.048 959.207 
17.9297 -195.072 959.309 
18.2819 -195.097 959.42 
18.6215 -194.99 958.879 
18.951 -194.782 957.844 
19.3047 -194.827 958.048 
19.6304 -194.592 956.88 
19.9847 -194.645 957.126 
20.3322 -194.629 957.037 
20.6781 -194.601 956.883 
21.0397 -194.717 957.443 
21.3729 -194.572 956.717 
21.7198 -194.554 956.613 
22.0656 -194.527 956.468 
22.4185 -194.564 956.633 
22.7653 -194.545 956.529 
23.1017 -194.441 956.002 
23.4433 -194.383 955.703 
23.7955 -194.413 955.838 
24.142 -194.397 955.744 
24.4788 -194.303 955.271 
24.8292 -194.319 955.336 
25.1855 -194.381 955.625 
25.5256 -194.316 955.294 
25.8711 -194.295 955.178 
26.2373 -194.428 955.816 
26.5905 -194.462 955.969 
26.962 -194.627 956.766 
27.2885 -194.468 955.97 
27.6364 -194.463 955.931 
27.98 -194.428 955.746 
28.3461 -194.548 956.326 
28.7147 -194.683 956.974 
30.1617 -195.014 958.545 
30.5179 -195.057 958.742 
31.2565 -195.302 959.922 
31.592 -195.213 959.467 
31.9444 -195.228 959.528 
32.3013 -195.27 959.724 
32.6817 -195.452 960.604 
33.0157 -195.356 960.116 
33.3731 -195.398 960.312 
33.7306 -195.441 960.507 
38.1172 -200.083 983.18 
38.4725 -200.066 983.082 
38.8131 -199.974 982.616 
39.1726 -199.98 982.632 
39.519 -199.919 982.32 
39.878 -199.923 982.326 
40.2535 -200.009 982.734 
40.5943 -199.923 982.297 
40.9493 -199.907 982.205 
41.3116 -199.927 982.29 
41.6699 -199.928 982.278 
42.0249 -199.913 982.189 
42.3904 -199.947 982.346 
42.7508 -199.958 982.382 
43.0953 -199.894 982.054 
43.4705 -199.972 982.426 
43.8433 -200.039 982.738 
44.1731 -199.909 982.09 
44.5353 -199.928 982.166 
44.9031 -199.971 982.363 
45.2612 -199.97 982.347 
45.6179 -199.964 982.3 
45.9684 -199.93 982.122 
46.3245 -199.921 982.064 
46.6671 -199.855 981.723 
47.0105 -199.793 981.404 
47.3604 -199.759 981.226 
47.7161 -199.751 981.169 
50.4566 -203.59 999.958 
50.8005 -203.507 999.535 
51.1675 -203.517 999.571 
51.5365 -203.535 999.644 
51.9077 -203.561 999.756 
52.2653 -203.534 999.61 
52.6244 -203.513 999.492 
52.975 -203.46 999.217 
53.344 -203.477 999.289 
53.7231 -203.533 999.549 
54.0958 -203.564 999.685 
54.4743 -203.616 999.928 
54.8239 -203.56 999.639 
55.1718 -203.499 999.324 
55.5537 -203.563 999.625 
55.9299 -203.606 999.819 
56.2813 -203.558 999.57 
0.0803575 -203.134 997.866 
0.4443 -203.133 997.848 
0.808174 -203.117 997.756 
1.17204 -203.111 997.71 
1.5363 -203.161 997.941 
1.90003 -203.135 997.799 
2.26401 -203.141 997.814 
2.62893 -203.218 998.182 
2.99312 -203.228 998.214 
3.35702 -203.218 998.151 
3.72186 -203.261 998.351 
4.0841 -203.168 997.88 
4.44741 -203.139 997.723 
4.81117 -203.134 997.685 
5.17773 -203.24 998.19 
5.54362 -203.307 998.506 
5.90607 -203.249 998.203 
6.26706 -203.149 997.701 
6.63111 -203.155 997.714 
6.99833 -203.252 998.177 
7.36312 -203.273 998.264 
7.72651 -203.255 998.162 
8.09256 -203.305 998.397 
8.45775 -203.331 998.509 
8.81659 -203.208 997.892 
9.18244 -203.251 998.086 
9.54714 -203.266 998.145 
9.91377 -203.319 998.394 
10.2733 -203.229 997.934 
10.6378 -203.24 997.974 
10.9969 -203.149 997.513 
17.232 -195.481 959.605 
17.586 -195.526 959.811 
17.9254 -195.41 959.228 
18.2753 -195.411 959.218 
18.6172 -195.328 958.798 
18.9466 -195.12 957.763 
19.3003 -195.164 957.967 
19.6541 -195.209 958.171 
19.9794 -194.973 957.002 
20.3277 -194.967 956.956 
20.6814 -195.011 957.159 
21.0274 -194.982 957.004 
21.3768 -194.986 957.009 
21.7023 -194.775 955.96 
22.069 -194.935 956.734 
22.4109 -194.874 956.42 
22.7492 -194.785 955.967 
23.0923 -194.737 955.722 
23.4388 -194.721 955.628 
23.7872 -194.72 955.609 
24.1451 -194.796 955.967 
24.4811 -194.696 955.464 
24.844 -194.809 956.006 
25.1983 -194.853 956.205 
25.5389 -194.791 955.89 
25.8933 -194.834 956.089 
26.2477 -194.878 956.288 
26.6024 -194.921 956.487 
26.9572 -194.964 956.685 
27.3121 -195.007 956.883 
27.6506 -194.934 956.51 
27.9995 -194.934 956.498 
28.3518 -194.958 956.601 
30.5312 -195.512 959.236 
30.8946 -195.598 959.644 
31.2662 -195.733 960.295 
31.6084 -195.684 960.037 
31.9393 -195.566 959.447 
32.3299 -195.813 960.646 
32.6874 -195.856 960.842 
33.0238 -195.773 960.421 
38.0869 -200.299 982.455 
38.4438 -200.292 982.407 
38.8038 -200.301 982.438 
39.1561 -200.27 982.273 
39.4935 -200.165 981.742 
39.8666 -200.241 982.1 
40.2425 -200.329 982.519 
40.5852 -200.253 982.13 
40.9353 -200.213 981.922 
41.3037 -200.263 982.154 
41.6663 -200.284 982.244 
42.018 -200.254 982.079 
42.3648 -200.2 981.801 
42.7249 -200.21 981.835 
43.079 -200.191 981.731 
43.4437 -200.222 981.87 
43.8298 -200.35 982.483 
44.1701 -200.269 982.07 
44.5229 -200.245 981.938 
44.8953 -200.309 982.238 
45.2549 -200.315 982.255 
45.5965 -200.243 981.884 
45.967 -200.297 982.136 
46.3203 -200.276 982.018 
46.6574 -200.186 981.563 
47.0044 -200.139 981.319 
47.3604 -200.131 981.268 
47.7031 -200.068 980.942 
48.0581 -200.056 980.873 
50.4772 -204.052 1000.4 
50.8061 -203.908 999.685 
51.1738 -203.92 999.732 
51.53 -203.887 999.555 
51.8934 -203.883 999.52 
52.2612 -203.896 999.569 
52.6278 -203.904 999.594 
52.9805 -203.858 999.356 
53.3385 -203.834 999.221 
53.7218 -203.906 999.56 
54.0975 -203.948 999.752 
54.4703 -203.979 999.889 
54.8204 -203.924 999.609 
55.1634 -203.845 999.205 
55.5457 -203.911 999.513 
55.9217 -203.953 999.705 
56.281 -203.934 999.598 
0.0768932 -203.511 997.908 
0.440866 -203.512 997.9 
0.804723 -203.485 997.75 
1.16856 -203.471 997.671 
1.53284 -203.525 997.918 
1.89681 -203.524 997.903 
2.26061 -203.509 997.815 
2.62542 -203.578 998.138 
2.98954 -203.583 998.147 
3.3533 -203.565 998.047 
3.71736 -203.568 998.044 
4.08091 -203.545 997.919 
4.4437 -203.491 997.641 
4.80826 -203.52 997.77 
5.17423 -203.602 998.154 
5.53922 -203.636 998.31 
5.90151 -203.574 997.99 
6.2631 -203.496 997.594 
6.62826 -203.537 997.778 
6.99629 -203.656 998.352 
7.35926 -203.625 998.182 
7.72173 -203.583 997.963 
8.08935 -203.675 998.399 
8.45472 -203.705 998.532 
8.81461 -203.606 998.031 
9.17964 -203.629 998.13 
9.54328 -203.62 998.075 
9.90975 -203.671 998.309 
10.27 -203.594 997.919 
10.6353 -203.62 998.029 
10.9947 -203.535 997.598 
16.8739 -195.775 959.317 
17.2277 -195.819 959.523 
17.5817 -195.864 959.73 
17.921 -195.748 959.147 
18.2709 -195.749 959.137 
18.6058 -195.593 958.357 
18.9668 -195.711 958.922 
19.2959 -195.502 957.886 
19.6336 -195.386 957.305 
19.9759 -195.319 956.964 
20.3325 -195.392 957.308 
20.6718 -195.3 956.84 
21.0321 -195.405 957.345 
21.3746 -195.344 957.032 
21.7025 -195.154 956.087 
22.0645 -195.273 956.653 
22.4025 -195.178 956.175 
22.7488 -195.157 956.06 
23.082 -195.026 955.404 
23.4304 -195.026 955.392 
23.7816 -195.049 955.489 
24.134 -195.081 955.631 
24.4874 -195.12 955.81 
24.8393 -195.146 955.925 
25.2226 -195.415 957.226 
25.555 -195.288 956.59 
26.5976 -195.258 956.406 
30.5741 -196.158 960.66 
30.9122 -196.08 960.267 
31.2677 -196.113 960.414 
31.6428 -196.268 961.157 
31.9963 -196.286 961.234 
32.3329 -196.201 960.803 
37.7392 -200.731 982.807 
38.0737 -200.605 982.176 
38.4331 -200.611 982.192 
38.8024 -200.669 982.46 
39.1566 -200.648 982.343 
39.489 -200.517 981.686 
39.8429 -200.497 981.573 
40.2262 -200.623 982.177 
40.57 -200.552 981.815 
40.9394 -200.607 982.073 
41.2993 -200.616 982.102 
41.66 -200.628 982.148 
42.0071 -200.575 981.874 
42.3614 -200.558 981.774 
42.7246 -200.582 981.878 
43.0798 -200.569 981.799 
43.4378 -200.569 981.785 
43.809 -200.629 982.065 
44.1552 -200.575 981.786 
44.5207 -200.608 981.935 
44.907 -200.734 982.539 
45.235 -200.6 981.867 
45.5833 -200.557 981.644 
45.9514 -200.601 981.846 
46.3053 -200.583 981.744 
46.654 -200.543 981.533 
46.9804 -200.409 980.862 
47.3292 -200.371 980.662 
47.697 -200.413 980.857 
48.0719 -200.485 981.194 
50.8153 -204.323 999.904 
51.1673 -204.272 999.643 
51.5235 -204.239 999.466 
51.8819 -204.215 999.336 
52.2538 -204.244 999.464 
52.6233 -204.264 999.545 
52.9809 -204.237 999.4 
53.348 -204.247 999.435 
53.7194 -204.274 999.551 
54.0878 -204.288 999.608 
54.4612 -204.322 999.757 
54.8144 -204.279 999.533 
55.1623 -204.218 999.218 
55.5493 -204.301 999.612 
55.9263 -204.347 999.821 
56.2781 -204.3 999.579 
0.0734152 -203.87 997.858 
0.437374 -203.868 997.834 
0.801195 -203.834 997.655 
1.16514 -203.843 997.687 
1.52927 -203.876 997.83 
1.89328 -203.882 997.846 
2.25724 -203.882 997.835 
2.62183 -203.932 998.064 
2.98535 -203.897 997.88 
3.34947 -203.906 997.911 
3.71333 -203.9 997.867 
4.07761 -203.916 997.931 
4.44053 -203.868 997.679 
4.80554 -203.915 997.897 
5.17115 -203.98 998.202 
5.53427 -203.945 998.014 
5.89754 -203.919 997.875 
6.25967 -203.86 997.571 
6.62425 -203.883 997.667 
6.99162 -203.985 998.153 
7.35636 -204.004 998.232 
7.71914 -203.969 998.049 
8.08641 -204.052 998.436 
8.45086 -204.059 998.457 
8.81152 -203.978 998.046 
9.17652 -204 998.14 
9.53962 -203.979 998.026 
9.90672 -204.043 998.325 
10.2665 -203.956 997.886 
10.6335 -204.016 998.161 
10.9925 -203.922 997.687 
16.8696 -196.113 959.236 
17.2234 -196.158 959.442 
17.5774 -196.203 959.648 
17.8966 -195.866 957.986 
18.246 -195.866 957.977 
18.6084 -196.004 958.635 
18.9624 -196.049 958.84 
19.2789 -195.712 957.182 
19.6453 -195.884 958.009 
19.9783 -195.724 957.213 
20.328 -195.73 957.227 
20.6808 -195.764 957.382 
21.0223 -195.693 957.022 
21.3559 -195.552 956.316 
21.6975 -195.487 955.987 
22.0535 -195.552 956.29 
22.3923 -195.465 955.852 
22.7623 -195.649 956.737 
23.0863 -195.439 955.695 
23.4462 -195.533 956.144 
23.8002 -195.577 956.344 
24.1544 -195.621 956.544 
24.5203 -195.757 957.196 
24.875 -195.801 957.396 
25.5528 -195.644 956.603 
30.2369 -196.615 961.17 
30.5809 -196.572 960.949 
30.9262 -196.54 960.776 
31.2764 -196.539 960.758 
37.718 -200.994 982.313 
38.0593 -200.905 981.864 
38.4193 -200.915 981.899 
38.7939 -201 982.301 
39.1582 -201.032 982.441 
39.4941 -200.918 981.87 
39.8372 -200.843 981.488 
40.2117 -200.925 981.877 
40.5663 -200.908 981.779 
40.9319 -200.945 981.947 
41.2861 -200.926 981.839 
41.6473 -200.941 981.899 
41.9897 -200.866 981.519 
42.3556 -200.904 981.689 
42.7107 -200.89 981.609 
43.0624 -200.861 981.451 
43.4267 -200.891 981.582 
43.7942 -200.934 981.78 
44.1498 -200.923 981.713 
44.4954 -200.867 981.426 
44.8817 -200.994 982.033 
45.2193 -200.903 981.573 
45.5621 -200.836 981.232 
45.9311 -200.885 981.457 
46.2749 -200.823 981.142 
46.636 -200.838 981.197 
46.9896 -200.82 981.096 
47.33 -200.746 980.72 
47.6849 -200.734 980.651 
48.0335 -200.696 980.452 
50.8249 -204.739 1000.13 
51.1646 -204.639 999.628 
51.5205 -204.605 999.447 
51.8801 -204.586 999.338 
52.2449 -204.587 999.331 
52.6098 -204.589 999.326 
52.9725 -204.582 999.278 
53.3506 -204.635 999.519 
53.7197 -204.652 999.591 
54.0855 -204.657 999.6 
54.4616 -204.7 999.798 
54.8148 -204.658 999.575 
55.169 -204.619 999.373 
55.5461 -204.666 999.588 
55.9264 -204.724 999.855 
56.2841 -204.699 999.718 
0.0699249 -204.211 997.722 
0.433896 -204.233 997.817 
0.797783 -204.215 997.714 
1.16194 -204.256 997.904 
1.52599 -204.265 997.93 
1.88991 -204.257 997.877 
2.25378 -204.247 997.817 
2.61829 -204.291 998.014 
2.98219 -204.282 997.956 
3.34585 -204.261 997.842 
3.70963 -204.251 997.779 
4.07328 -204.237 997.694 
4.43661 -204.21 997.552 
4.80192 -204.272 997.839 
5.16694 -204.315 998.032 
5.5299 -204.275 997.826 
5.89343 -204.261 997.74 
6.25592 -204.214 997.499 
6.62034 -204.232 997.573 
6.98811 -204.347 998.119 
7.35376 -204.391 998.321 
7.71578 -204.336 998.035 
8.08293 -204.415 998.407 
8.44719 -204.417 998.406 
8.80752 -204.328 997.958 
9.1725 -204.35 998.051 
9.53611 -204.342 997.994 
9.90273 -204.396 998.244 
10.2648 -204.355 998.03 
10.6313 -204.404 998.254 
10.9922 -204.344 997.95 
11.343 -204.106 996.773 
16.8653 -196.451 959.154 
17.2191 -196.496 959.361 
17.573 -196.541 959.567 
17.9039 -196.331 958.53 
18.2813 -196.631 959.979 
18.6041 -196.342 958.554 
18.9454 -196.256 958.122 
19.2871 -196.177 957.724 
19.6127 -195.941 956.556 
19.9739 -196.062 957.132 
20.3378 -196.205 957.818 
20.6743 -196.083 957.208 
21.0278 -196.124 957.397 
21.3756 -196.112 957.321 
21.7017 -195.903 956.289 
22.0609 -195.996 956.728 
22.3983 -195.895 956.224 
22.7706 -196.098 957.2 
23.1313 -196.197 957.669 
23.8068 -196.007 956.714 
24.1611 -196.051 956.915 
24.5156 -196.094 957.115 
29.5451 -197.048 961.577 
30.2319 -196.954 961.089 
37.707 -201.312 982.088 
38.0625 -201.298 982.006 
38.4202 -201.295 981.981 
38.7769 -201.288 981.93 
39.1463 -201.346 982.198 
39.4839 -201.241 981.672 
39.8344 -201.203 981.474 
40.2082 -201.282 981.846 
40.555 -201.226 981.56 
40.911 -201.216 981.497 
41.2744 -201.243 981.615 
41.6415 -201.287 981.814 
41.9778 -201.183 981.292 
42.3465 -201.234 981.528 
42.7021 -201.223 981.46 
43.0621 -201.233 981.493 
43.4106 -201.189 981.267 
43.7602 -201.151 981.067 
44.1236 -201.177 981.177 
44.4908 -201.219 981.369 
44.8648 -201.291 981.709 
45.2133 -201.249 981.488 
45.5683 -201.236 981.41 
45.9152 -201.188 981.161 
46.2732 -201.188 981.151 
46.6508 -201.274 981.552 
46.9791 -201.146 980.918 
47.2976 -200.98 980.091 
47.6514 -200.965 980.003 
48.0364 -201.08 980.551 
48.384 -201.038 980.335 
50.8344 -205.156 1000.36 
51.1499 -204.959 999.381 
51.5091 -204.938 999.264 
51.8815 -204.969 999.403 
52.2439 -204.961 999.349 
52.6049 -204.947 999.268 
52.968 -204.942 999.23 
53.3481 -205.003 999.509 
53.7197 -205.03 999.627 
54.0845 -205.03 999.616 
54.452 -205.042 999.656 
54.8055 -205 999.441 
55.169 -204.997 999.408 
55.5487 -205.053 999.666 
55.9215 -205.083 999.8 
56.2824 -205.069 999.72 
0.0664334 -204.566 997.656 
0.430384 -204.585 997.735 
0.794401 -204.605 997.818 
1.15842 -204.614 997.851 
1.52238 -204.611 997.821 
1.88612 -204.587 997.689 
2.25013 -204.595 997.714 
2.61471 -204.646 997.949 
2.97881 -204.652 997.966 
3.34228 -204.619 997.788 
3.70596 -204.604 997.7 
4.06993 -204.606 997.699 
4.4332 -204.576 997.539 
4.7988 -204.651 997.887 
5.16279 -204.651 997.874 
5.52522 -204.594 997.581 
5.88903 -204.592 997.557 
6.25349 -204.611 997.637 
6.61785 -204.626 997.695 
6.98421 -204.698 998.03 
7.34984 -204.742 998.233 
7.71193 -204.689 997.959 
8.0788 -204.761 998.299 
8.44272 -204.756 998.26 
8.80437 -204.699 997.968 
9.16721 -204.673 997.826 
9.53152 -204.681 997.849 
9.89846 -204.743 998.136 
10.2634 -204.76 998.208 
10.6279 -204.768 998.232 
10.9887 -204.706 997.917 
11.3441 -204.552 997.149 
16.8611 -196.789 959.073 
17.2148 -196.834 959.28 
17.5687 -196.879 959.486 
17.9228 -196.924 959.692 
18.2601 -196.788 959.014 
18.5997 -196.68 958.473 
18.9291 -196.47 957.438 
19.2827 -196.515 957.643 
19.6364 -196.559 957.847 
19.9795 -196.498 957.533 
20.3181 -196.395 957.017 
20.6874 -196.587 957.94 
