ply
format ascii 1.0
comment Created by CloudCompare v2.11 beta (Anoia)
comment Created 2020/4/1 下午4:12
obj_info Generated by CloudCompare!
element vertex 1862
property float x
property float y
property float z
end_header
71.6342 -153.53 987.902 
72.0358 -153.621 988.473 
72.3091 -153.439 987.288 
72.6676 -153.439 987.271 
73.1021 -153.598 988.282 
73.7864 -153.528 987.802 
83.8402 -152.885 983.269 
84.1785 -152.851 983.034 
84.6137 -152.992 983.928 
84.9766 -153.002 983.976 
85.2967 -152.935 983.531 
85.6119 -152.859 983.033 
85.977 -152.873 983.109 
86.3172 -152.843 982.902 
86.6574 -152.813 982.697 
87.0161 -152.816 982.701 
87.3614 -152.796 982.554 
87.7284 -152.813 982.652 
88.0565 -152.763 982.316 
88.4121 -152.76 982.287 
88.7833 -152.785 982.432 
89.0664 -152.658 981.604 
89.4295 -152.669 981.661 
89.9169 -152.892 983.076 
90.313 -152.957 983.485 
90.7329 -153.063 984.15 
91 -152.911 983.158 
91.4454 -153.058 984.093 
95.6662 -156.452 1005.83 
95.9391 -156.301 1004.85 
96.3002 -156.295 1004.79 
96.6792 -156.317 1004.92 
97.0189 -156.276 1004.64 
97.3811 -156.272 1004.6 
97.77 -156.31 1004.83 
98.139 -156.316 1004.85 
98.4876 -156.29 1004.67 
98.8702 -156.317 1004.84 
33.6949 -156.171 1004.04 
34.0499 -156.127 1003.74 
34.4161 -156.134 1003.77 
34.7699 -156.085 1003.44 
35.1405 -156.113 1003.6 
35.4843 -156.021 1003 
38.4393 -154.717 994.489 
38.7971 -154.703 994.387 
39.1671 -154.737 994.594 
39.497 -154.615 993.792 
39.8775 -154.69 994.264 
40.2267 -154.644 993.951 
40.571 -154.58 993.529 
40.9353 -154.593 993.596 
41.279 -154.528 993.166 
41.6232 -154.467 992.757 
41.9686 -154.411 992.383 
42.3699 -154.56 993.327 
42.7133 -154.497 992.906 
43.0746 -154.499 992.905 
43.4103 -154.41 992.322 
43.7783 -154.437 992.478 
44.1255 -154.39 992.162 
44.496 -154.425 992.374 
44.8671 -154.461 992.595 
45.2002 -154.367 991.978 
45.5561 -154.352 991.867 
45.9143 -154.345 991.806 
46.2671 -154.32 991.633 
46.6275 -154.321 991.622 
46.9905 -154.33 991.665 
47.3464 -154.315 991.56 
47.7011 -154.298 991.433 
48.065 -154.31 991.495 
48.4079 -154.255 991.128 
48.76 -154.23 990.953 
49.1204 -154.231 990.946 
49.4909 -154.264 991.144 
49.83 -154.199 990.713 
50.1922 -154.206 990.744 
50.5473 -154.191 990.636 
50.8992 -154.167 990.467 
51.2456 -154.126 990.192 
51.6134 -154.151 990.334 
51.9884 -154.196 990.611 
52.348 -154.195 990.591 
52.6819 -154.119 990.089 
53.0199 -154.056 989.671 
53.3756 -154.045 989.587 
53.7478 -154.081 989.805 
54.1069 -154.08 989.784 
54.4469 -154.025 989.414 
54.8088 -154.032 989.445 
55.1687 -154.033 989.439 
55.533 -154.047 989.511 
55.8873 -154.032 989.406 
56.2464 -154.031 989.385 
56.612 -154.048 989.479 
56.9697 -154.043 989.435 
57.3077 -153.986 989.052 
57.6671 -153.986 989.038 
58.009 -153.94 988.728 
58.3885 -153.993 989.058 
58.7244 -153.932 988.65 
59.0486 -153.841 988.051 
59.4202 -153.873 988.246 
59.7952 -153.915 988.497 
60.1647 -153.941 988.654 
60.5156 -153.92 988.505 
60.8501 -153.858 988.091 
61.2288 -153.908 988.396 
61.6073 -153.956 988.693 
61.954 -153.925 988.481 
62.3017 -153.897 988.286 
62.6408 -153.848 987.957 
62.9962 -153.839 987.889 
63.3679 -153.87 988.074 
63.707 -153.822 987.752 
64.0685 -153.829 987.78 
64.4403 -153.86 987.964 
64.7973 -153.855 987.92 
65.1443 -153.827 987.726 
65.4859 -153.787 987.452 
65.8736 -153.854 987.873 
66.2595 -153.917 988.26 
66.6019 -153.878 988 
66.9741 -153.909 988.182 
67.3465 -153.94 988.364 
67.6516 -153.817 987.562 
68.0091 -153.814 987.529 
68.3791 -153.839 987.678 
68.7537 -153.875 987.891 
69.0717 -153.783 987.292 
69.4411 -153.807 987.431 
69.8717 -153.965 988.432 
70.2469 -154.001 988.646 
70.5798 -153.943 988.264 
70.9182 -153.898 987.962 
71.2093 -153.752 987.007 
71.5871 -153.793 987.258 
71.9264 -153.752 986.979 
72.3492 -153.888 987.842 
72.6609 -153.789 987.187 
72.9982 -153.744 986.884 
73.371 -153.773 987.061 
74.1357 -153.872 987.666 
74.5089 -153.902 987.842 
74.8822 -153.931 988.018 
75.186 -153.818 987.28 
75.5418 -153.812 987.229 
75.8825 -153.776 986.98 
76.3254 -153.946 988.058 
76.5973 -153.771 986.921 
77.3758 -153.893 987.677 
77.7173 -153.859 987.442 
78.3985 -153.787 986.958 
83.9432 -153.436 984.48 
84.2585 -153.359 983.97 
84.5884 -153.308 983.634 
84.9287 -153.278 983.423 
85.2836 -153.273 983.382 
85.615 -153.227 983.069 
85.9429 -153.175 982.721 
86.281 -153.141 982.491 
86.65 -153.162 982.613 
87.0147 -153.176 982.685 
87.3374 -153.115 982.285 
87.719 -153.158 982.547 
88.0717 -153.151 982.485 
88.3614 -153.034 981.725 
88.7084 -153.017 981.602 
89.0465 -152.986 981.384 
89.3827 -152.951 981.147 
89.85 -153.139 982.344 
90.4012 -153.469 984.445 
90.7253 -153.412 984.066 
91.0054 -153.282 983.215 
91.4569 -153.44 984.216 
95.6478 -156.792 1005.64 
95.9298 -156.656 1004.75 
96.3052 -156.673 1004.84 
96.6833 -156.694 1004.96 
97.0503 -156.697 1004.97 
97.3948 -156.663 1004.74 
97.7555 -156.656 1004.68 
98.0946 -156.615 1004.4 
98.4678 -156.628 1004.47 
98.858 -156.668 1004.71 
33.6885 -156.518 1003.9 
34.0525 -156.515 1003.86 
34.4058 -156.463 1003.52 
34.7549 -156.394 1003.06 
35.1312 -156.447 1003.38 
35.4803 -156.379 1002.93 
38.4225 -155.02 994.093 
38.7633 -154.939 993.557 
39.1801 -155.16 994.962 
39.5322 -155.124 994.714 
39.8681 -155.024 994.064 
40.2286 -155.022 994.036 
40.5821 -154.993 993.835 
40.9388 -154.977 993.715 
41.2785 -154.897 993.189 
41.6249 -154.843 992.832 
42.0309 -155.01 993.89 
42.3649 -154.911 993.24 
42.7218 -154.897 993.136 
43.0684 -154.846 992.794 
43.4107 -154.78 992.359 
43.7713 -154.781 992.348 
44.1358 -154.795 992.425 
44.4906 -154.775 992.282 
44.8633 -154.817 992.539 
45.2073 -154.761 992.162 
45.5591 -154.731 991.958 
45.9035 -154.677 991.6 
46.2818 -154.738 991.974 
46.6378 -154.723 991.868 
46.9921 -154.704 991.726 
47.3432 -154.673 991.52 
47.6872 -154.621 991.169 
48.0507 -154.632 991.226 
48.4193 -154.659 991.386 
48.771 -154.632 991.2 
49.1197 -154.596 990.956 
49.497 -154.651 991.289 
49.8277 -154.559 990.689 
50.1829 -154.545 990.582 
50.5408 -154.539 990.53 
50.9039 -154.549 990.579 
51.2517 -154.512 990.332 
51.624 -154.55 990.558 
51.9791 -154.536 990.455 
52.3363 -154.528 990.391 
52.6789 -154.477 990.053 
53.0234 -154.433 989.756 
53.3712 -154.399 989.525 
53.7494 -154.453 989.854 
54.1074 -154.448 989.812 
54.4441 -154.383 989.381 
54.805 -154.388 989.395 
55.171 -154.406 989.498 
55.5262 -154.394 989.407 
55.9018 -154.439 989.679 
56.2208 -154.327 988.952 
56.5864 -154.345 989.048 
56.9503 -154.357 989.115 
57.2937 -154.314 988.826 
57.6645 -154.345 989.009 
58.016 -154.324 988.863 
58.3697 -154.309 988.754 
58.7299 -154.312 988.757 
59.0838 -154.298 988.654 
59.4276 -154.258 988.385 
59.7846 -154.253 988.337 
60.1446 -154.256 988.338 
60.4966 -154.237 988.208 
60.8685 -154.27 988.404 
61.2154 -154.239 988.193 
61.5869 -154.271 988.379 
61.9436 -154.265 988.327 
62.2999 -154.258 988.269 
62.6295 -154.185 987.791 
63.0208 -154.265 988.286 
63.3721 -154.246 988.15 
63.7335 -154.252 988.174 
64.0747 -154.209 987.886 
64.4429 -154.231 988.014 
64.7976 -154.221 987.935 
65.1348 -154.17 987.593 
65.4796 -154.136 987.367 
65.8652 -154.2 987.757 
66.2578 -154.278 988.246 
66.628 -154.304 988.397 
67.0026 -154.339 988.611 
67.3401 -154.29 988.279 
67.6749 -154.234 987.911 
68.0307 -154.227 987.852 
68.4 -154.251 987.989 
68.7242 -154.173 987.476 
69.0977 -154.206 987.672 
69.4553 -154.203 987.64 
69.8009 -154.174 987.439 
70.1071 -154.058 986.686 
70.4794 -154.089 986.865 
70.8666 -154.151 987.251 
71.2072 -154.112 986.986 
71.5969 -154.179 987.401 
71.9696 -154.209 987.579 
72.3024 -154.153 987.209 
72.6542 -154.138 987.102 
72.9527 -154.012 986.275 
73.6331 -153.936 985.762 
74.0509 -154.06 986.542 
74.4161 -154.074 986.618 
74.7807 -154.086 986.684 
75.0987 -154.003 986.139 
75.4715 -154.033 986.314 
75.8756 -154.126 986.896 
76.2404 -154.138 986.962 
76.6725 -154.286 987.895 
76.9635 -154.15 987.011 
77.3369 -154.18 987.184 
77.645 -154.079 986.528 
78.3013 -153.96 985.738 
78.7876 -154.211 987.329 
79.0474 -154.018 986.082 
79.4736 -154.15 986.911 
80.149 -154.07 986.369 
80.8282 -153.998 985.883 
83.5629 -153.757 984.229 
83.936 -153.785 984.396 
84.2388 -153.685 983.741 
84.5486 -153.598 983.174 
84.9214 -153.627 983.34 
85.2411 -153.559 982.892 
85.5895 -153.543 982.778 
85.9622 -153.571 982.943 
86.3074 -153.55 982.792 
86.6534 -153.53 982.652 
86.9888 -153.492 982.394 
87.3375 -153.477 982.287 
87.7094 -153.503 982.441 
88.0415 -153.46 982.149 
88.3737 -153.417 981.862 
88.6597 -153.295 981.064 
89.0028 -153.272 980.902 
89.4921 -153.499 982.347 
89.8651 -153.527 982.509 
90.3935 -153.818 984.361 
90.7176 -153.761 983.983 
91.0655 -153.745 983.864 
95.6168 -157.111 1005.31 
95.9256 -157.019 1004.7 
96.3072 -157.046 1004.86 
96.6873 -157.07 1005 
97.07 -157.098 1005.17 
97.4152 -157.066 1004.95 
97.7517 -157.02 1004.64 
98.1054 -157.002 1004.51 
98.4696 -157 1004.48 
98.8562 -157.034 1004.69 
33.6922 -156.912 1004.06 
34.0495 -156.878 1003.82 
34.3973 -156.8 1003.32 
34.7456 -156.727 1002.83 
35.1269 -156.803 1003.3 
35.4883 -156.79 1003.2 
38.8325 -155.587 995.37 
39.2003 -155.612 995.513 
39.5273 -155.475 994.627 
39.8975 -155.51 994.834 
40.2132 -155.333 993.69 
40.5832 -155.368 993.896 
40.936 -155.336 993.682 
41.2502 -155.16 992.541 
41.6473 -155.297 993.4 
42.034 -155.392 993.995 
42.3598 -155.263 993.153 
42.73 -155.297 993.357 
43.1003 -155.331 993.561 
43.4232 -155.195 992.678 
43.7522 -155.083 991.946 
44.1293 -155.141 992.308 
44.497 -155.166 992.454 
44.8418 -155.112 992.092 
45.206 -155.125 992.161 
45.5538 -155.082 991.872 
45.9241 -155.116 992.073 
46.2945 -155.149 992.273 
46.6279 -155.059 991.684 
46.9883 -155.059 991.672 
47.3228 -154.975 991.118 
47.7032 -155.041 991.526 
48.0448 -154.981 991.129 
48.4184 -155.024 991.391 
48.7705 -154.999 991.214 
49.1216 -154.97 991.018 
49.487 -154.987 991.112 
49.8385 -154.961 990.928 
50.1766 -154.893 990.48 
50.5374 -154.896 990.485 
50.8965 -154.894 990.458 
51.258 -154.899 990.475 
51.6399 -154.965 990.884 
51.9772 -154.897 990.439 
52.3307 -154.878 990.305 
52.6823 -154.854 990.137 
53.0186 -154.786 989.686 
53.3539 -154.716 989.223 
53.7418 -154.798 989.733 
54.1147 -154.836 989.963 
54.4578 -154.789 989.649 
54.7992 -154.738 989.307 
55.1591 -154.739 989.302 
55.5352 -154.786 989.585 
55.8925 -154.779 989.532 
56.2078 -154.658 988.74 
56.5713 -154.669 988.801 
56.9483 -154.718 989.096 
57.2835 -154.653 988.665 
57.6667 -154.717 989.062 
58.0014 -154.651 988.629 
58.3602 -154.65 988.609 
58.7198 -154.651 988.602 
59.0812 -154.657 988.625 
59.4147 -154.59 988.185 
59.778 -154.602 988.241 
60.1328 -154.591 988.158 
60.488 -154.581 988.081 
60.8593 -154.612 988.268 
61.2093 -154.589 988.107 
61.5678 -154.588 988.086 
61.9152 -154.559 987.888 
62.2591 -154.522 987.636 
62.6467 -154.593 988.074 
63 -154.579 987.972 
63.3555 -154.571 987.904 
63.7349 -154.62 988.207 
64.062 -154.543 987.702 
64.397 -154.486 987.323 
64.7824 -154.55 987.714 
65.1231 -154.506 987.425 
65.4733 -154.486 987.282 
65.8573 -154.546 987.648 
66.217 -154.548 987.648 
66.548 -154.483 987.22 
66.9397 -154.559 987.694 
67.2613 -154.474 987.132 
67.642 -154.524 987.441 
68.0173 -154.562 987.667 
68.3419 -154.484 987.158 
68.7354 -154.563 987.645 
69.1028 -154.582 987.754 
69.4366 -154.526 987.383 
69.7463 -154.417 986.675 
70.1287 -154.47 986.997 
70.5071 -154.513 987.26 
70.8745 -154.532 987.368 
71.1656 -154.386 986.416 
71.5607 -154.465 986.908 
71.923 -154.473 986.946 
72.3358 -154.589 987.672 
72.6122 -154.413 986.538 
72.9303 -154.328 985.978 
73.3575 -154.473 986.892 
73.6264 -154.285 985.677 
74.0221 -154.364 986.165 
74.4264 -154.459 986.76 
74.7821 -154.453 986.709 
75.1146 -154.4 986.354 
75.4646 -154.382 986.23 
75.8712 -154.481 986.844 
76.2822 -154.587 987.509 
76.6086 -154.522 987.077 
76.8547 -154.296 985.62 
77.3299 -154.53 987.1 
77.7033 -154.559 987.273 
78.0511 -154.537 987.122 
78.3465 -154.413 986.311 
78.7197 -154.442 986.483 
79.0605 -154.407 986.249 
79.3288 -154.232 985.117 
79.7869 -154.426 986.34 
80.481 -154.382 986.034 
80.8211 -154.348 985.799 
83.5556 -154.106 984.145 
83.9287 -154.134 984.312 
84.1687 -153.919 982.924 
84.5488 -153.961 983.177 
84.89 -153.932 982.978 
85.2172 -153.878 982.618 
85.5857 -153.898 982.735 
85.9322 -153.879 982.6 
86.2804 -153.863 982.485 
86.6254 -153.842 982.336 
86.9595 -153.802 982.063 
87.3213 -153.81 982.105 
87.6644 -153.786 981.937 
88.0586 -153.851 982.34 
88.3662 -153.766 981.778 
88.623 -153.592 980.658 
88.9953 -153.62 980.82 
89.3676 -153.647 980.981 
89.9471 -154.029 983.405 
90.3859 -154.168 984.278 
90.7597 -154.195 984.439 
91.0578 -154.094 983.781 
91.405 -154.077 983.656 
95.3485 -157.642 1006.34 
95.588 -157.434 1005 
95.8933 -157.336 1004.36 
96.3102 -157.42 1004.89 
96.707 -157.472 1005.2 
97.0672 -157.464 1005.14 
97.4303 -157.46 1005.1 
97.7716 -157.421 1004.84 
98.1112 -157.38 1004.56 
98.4656 -157.363 1004.44 
98.8268 -157.357 1004.39 
33.6818 -157.24 1003.8 
34.0437 -157.227 1003.7 
34.394 -157.162 1003.27 
34.7459 -157.105 1002.89 
35.1307 -157.196 1003.46 
35.496 -157.2 1003.47 
35.8186 -157.015 1002.28 
38.8352 -155.97 995.479 
39.1954 -155.964 995.425 
39.5565 -155.962 995.398 
39.9078 -155.921 995.127 
40.2629 -155.896 994.953 
40.6161 -155.865 994.739 
40.9422 -155.731 993.867 
41.3011 -155.722 993.8 
41.6149 -155.546 992.659 
42.0208 -155.714 993.716 
42.3678 -155.662 993.374 
42.7249 -155.648 993.27 
43.0952 -155.682 993.474 
43.4181 -155.546 992.591 
43.7792 -155.548 992.588 
44.1262 -155.5 992.268 
44.4987 -155.542 992.522 
44.8469 -155.499 992.233 
45.2218 -155.549 992.537 
45.5486 -155.433 991.786 
45.9081 -155.43 991.754 
46.2892 -155.5 992.187 
46.6269 -155.424 991.688 
46.9792 -155.398 991.506 
47.3373 -155.391 991.447 
47.6856 -155.352 991.186 
48.0488 -155.362 991.237 
48.4221 -155.405 991.493 
48.7831 -155.407 991.495 
49.1109 -155.304 990.825 
49.4657 -155.288 990.708 
49.8388 -155.329 990.956 
50.1849 -155.286 990.668 
50.5289 -155.237 990.342 
50.9034 -155.282 990.614 
51.2708 -155.305 990.744 
51.6381 -155.327 990.872 
51.9772 -155.264 990.459 
52.3187 -155.21 990.098 
52.69 -155.244 990.302 
53.0217 -155.162 989.764 
53.3444 -155.055 989.066 
53.7361 -155.148 989.647 
54.1179 -155.212 990.041 
54.4593 -155.16 989.695 
54.7925 -155.085 989.204 
55.1482 -155.075 989.124 
55.5301 -155.138 989.511 
55.8907 -155.141 989.518 
56.2011 -155.006 988.64 
56.5571 -154.997 988.571 
56.9311 -155.037 988.813 
57.2734 -154.991 988.507 
57.6572 -155.058 988.917 
58.0144 -155.052 988.867 
58.3554 -155.003 988.542 
58.7183 -155.013 988.591 
59.066 -154.983 988.386 
59.4257 -154.985 988.383 
59.7808 -154.975 988.303 
60.1502 -155.001 988.458 
60.5013 -154.98 988.313 
60.8635 -154.989 988.35 
61.2125 -154.963 988.172 
61.5644 -154.945 988.044 
61.9079 -154.906 987.783 
62.2558 -154.879 987.595 
62.6273 -154.91 987.781 
62.9777 -154.889 987.634 
63.3802 -154.996 988.301 
63.7072 -154.918 987.791 
64.0476 -154.873 987.491 
64.4103 -154.883 987.537 
64.7564 -154.853 987.329 
65.1151 -154.852 987.315 
65.4669 -154.836 987.197 
65.8387 -154.867 987.38 
66.1916 -154.853 987.278 
66.5827 -154.929 987.745 
66.8761 -154.777 986.764 
67.2098 -154.72 986.387 
67.6213 -154.841 987.148 
67.9717 -154.823 987.014 
68.3354 -154.834 987.073 
68.68 -154.802 986.857 
69.0822 -154.9 987.467 
69.4422 -154.903 987.47 
69.7219 -154.728 986.338 
70.094 -154.758 986.517 
70.4793 -154.817 986.879 
70.8385 -154.818 986.875 
71.159 -154.735 986.332 
71.5585 -154.824 986.886 
71.9563 -154.909 987.41 
72.2916 -154.859 987.076 
72.6142 -154.782 986.571 
72.9393 -154.711 986.106 
73.3017 -154.72 986.148 
73.6142 -154.623 985.521 
73.9677 -154.614 985.445 
74.4025 -154.773 986.449 
74.7538 -154.759 986.341 
75.0367 -154.603 985.336 
75.4995 -154.818 986.691 
75.8305 -154.762 986.32 
76.2035 -154.791 986.494 
76.6295 -154.928 987.352 
77.0144 -154.981 987.673 
77.2995 -154.833 986.716 
77.6485 -154.814 986.582 
78.0042 -154.808 986.532 
78.3951 -154.872 986.927 
78.6803 -154.728 985.993 
78.949 -154.552 984.862 
79.4065 -154.747 986.085 
79.6947 -154.61 985.204 
80.1429 -154.785 986.3 
80.4851 -154.754 986.089 
80.8139 -154.697 985.715 
81.1193 -154.596 985.059 
82.1025 -154.426 983.932 
83.1754 -154.427 983.894 
83.5483 -154.455 984.062 
83.9214 -154.483 984.229 
84.1936 -154.327 983.218 
84.5266 -154.283 982.921 
84.9112 -154.332 983.225 
85.2458 -154.291 982.949 
85.5839 -154.257 982.717 
85.9004 -154.184 982.238 
86.2729 -154.212 982.402 
86.6052 -154.168 982.107 
86.9438 -154.135 981.887 
87.2947 -154.125 981.807 
87.6288 -154.085 981.539 
88.0323 -154.167 982.048 
88.3365 -154.075 981.448 
88.6155 -153.94 980.575 
89.4143 -154.089 981.492 
89.9395 -154.378 983.322 
90.3782 -154.517 984.194 
90.7521 -154.545 984.356 
91.126 -154.572 984.517 
91.5 -154.6 984.678 
95.2753 -157.891 1005.57 
95.5558 -157.751 1004.66 
95.904 -157.723 1004.47 
96.3019 -157.777 1004.8 
96.7077 -157.843 1005.21 
97.062 -157.825 1005.08 
97.4146 -157.804 1004.94 
97.7914 -157.823 1005.04 
98.1349 -157.788 1004.8 
98.4841 -157.763 1004.63 
98.8278 -157.728 1004.4 
99.2242 -157.778 1004.7 
33.67 -157.561 1003.49 
34.034 -157.559 1003.46 
34.3929 -157.533 1003.28 
34.7532 -157.514 1003.15 
35.1356 -157.594 1003.65 
35.4978 -157.583 1003.56 
35.8366 -157.47 1002.83 
39.1904 -156.316 995.338 
39.5515 -156.314 995.311 
39.8876 -156.214 994.659 
40.2435 -156.192 994.51 
40.6283 -156.283 995.072 
40.9682 -156.2 994.534 
41.2709 -155.979 993.108 
41.6554 -156.067 993.658 
41.9797 -155.931 992.776 
42.386 -156.099 993.834 
42.7198 -155.999 993.184 
43.09 -156.034 993.387 
43.4604 -156.068 993.59 
43.7717 -155.891 992.449 
44.1592 -155.986 993.04 
44.5057 -155.936 992.707 
44.8614 -155.919 992.585 
45.2119 -155.884 992.348 
45.5624 -155.849 992.116 
45.9135 -155.818 991.9 
46.2914 -155.877 992.261 
46.6252 -155.787 991.679 
46.9781 -155.763 991.509 
47.3387 -155.764 991.504 
47.7108 -155.803 991.735 
48.0528 -155.743 991.343 
48.4233 -155.777 991.542 
48.7813 -155.77 991.482 
49.0986 -155.634 990.602 
49.4736 -155.681 990.89 
49.8397 -155.7 990.997 
50.1822 -155.645 990.636 
50.5381 -155.633 990.544 
50.8814 -155.583 990.208 
51.2584 -155.635 990.527 
51.6314 -155.674 990.764 
51.9743 -155.623 990.425 
52.3202 -155.582 990.147 
52.6891 -155.609 990.305 
53.0241 -155.536 989.828 
53.3511 -155.441 989.209 
53.7299 -155.497 989.554 
54.1148 -155.57 990.003 
54.4579 -155.523 989.687 
54.7905 -155.446 989.186 
55.1423 -155.425 989.036 
55.5189 -155.473 989.331 
55.8752 -155.465 989.261 
56.2117 -155.401 988.843 
56.5706 -155.4 988.822 
56.9295 -155.399 988.802 
57.2739 -155.359 988.532 
57.645 -155.391 988.723 
58.0021 -155.385 988.672 
58.3555 -155.37 988.561 
58.7126 -155.364 988.512 
59.0653 -155.347 988.389 
59.4103 -155.31 988.141 
59.7602 -155.286 987.975 
60.1412 -155.343 988.324 
60.4893 -155.315 988.13 
60.8387 -155.291 987.961 
61.2128 -155.329 988.191 
61.5534 -155.283 987.881 
61.8885 -155.223 987.487 
62.2266 -155.171 987.145 
62.6121 -155.238 987.553 
62.9986 -155.306 987.974 
63.3668 -155.329 988.105 
63.7027 -155.272 987.732 
64.0365 -155.212 987.332 
64.3923 -155.205 987.273 
64.7561 -155.217 987.336 
65.1118 -155.209 987.276 
65.4407 -155.139 986.812 
65.8245 -155.198 987.177 
66.2043 -155.248 987.478 
66.5514 -155.22 987.29 
66.8674 -155.121 986.646 
67.2358 -155.144 986.777 
67.6161 -155.194 987.081 
67.9366 -155.107 986.513 
68.3373 -155.203 987.11 
68.6966 -155.204 987.106 
69.0249 -155.136 986.658 
69.3688 -155.104 986.435 
69.7294 -155.108 986.452 
70.0673 -155.063 986.149 
70.4333 -155.08 986.243 
70.8104 -155.121 986.491 
71.1749 -155.134 986.561 
71.5216 -155.108 986.383 
71.8725 -155.092 986.267 
72.297 -155.234 987.157 
72.5958 -155.106 986.328 
72.98 -155.161 986.664 
73.3527 -155.191 986.84 
73.6547 -155.072 986.069 
74.0018 -155.049 985.906 
74.3743 -155.078 986.082 
74.7389 -155.091 986.151 
75.0973 -155.092 986.138 
75.4509 -155.082 986.061 
75.8236 -155.111 986.235 
76.1965 -155.141 986.41 
76.5428 -155.116 986.239 
76.9427 -155.2 986.757 
77.251 -155.099 986.102 
77.5545 -154.99 985.392 
77.9793 -155.122 986.221 
78.3115 -155.071 985.879 
78.5694 -154.873 984.606 
78.9927 -155.001 985.411 
79.3812 -155.061 985.775 
79.7544 -155.09 985.946 
80.0115 -154.894 984.687 
80.4093 -154.971 985.163 
80.7002 -154.842 984.331 
81.073 -154.871 984.5 
81.4942 -154.992 985.253 
82.0502 -154.69 983.308 
82.75 -154.662 983.103 
83.0988 -154.647 982.99 
83.4313 -154.601 982.685 
83.914 -154.833 984.145 
84.1643 -154.635 982.877 
84.5046 -154.604 982.667 
84.8623 -154.605 982.66 
85.2152 -154.598 982.598 
85.5582 -154.573 982.423 
85.893 -154.532 982.154 
86.241 -154.517 982.04 
86.5721 -154.471 981.733 
86.9141 -154.444 981.553 
87.2816 -154.463 981.66 
87.6173 -154.426 981.411 
87.9621 -154.405 981.265 
88.3204 -154.408 981.27 
88.608 -154.288 980.492 
88.9578 -154.277 980.407 
89.9969 -154.839 983.949 
90.4459 -154.995 984.931 
90.7444 -154.894 984.272 
91.1183 -154.921 984.433 
91.4923 -154.949 984.594 
95.2292 -158.185 1005.08 
95.5476 -158.107 1004.58 
95.9302 -158.136 1004.75 
96.2922 -158.131 1004.7 
96.6906 -158.185 1005.03 
97.039 -158.157 1004.84 
97.3954 -158.143 1004.74 
97.7743 -158.165 1004.86 
98.1363 -158.16 1004.82 
98.4913 -158.144 1004.7 
98.8207 -158.087 1004.32 
99.2104 -158.126 1004.56 
33.6634 -157.907 1003.35 
34.0284 -157.909 1003.35 
34.3953 -157.92 1003.4 
34.7633 -157.936 1003.49 
35.1266 -157.93 1003.44 
35.4889 -157.92 1003.36 
35.8493 -157.901 1003.23 
36.1982 -157.833 1002.78 
39.9053 -156.654 995.137 
40.2529 -156.6 994.779 
40.6233 -156.635 994.985 
40.9585 -156.534 994.334 
41.9746 -156.282 992.689 
42.7146 -156.351 993.097 
43.0849 -156.385 993.3 
43.4877 -156.536 994.246 
43.8074 -156.387 993.288 
44.1636 -156.371 993.169 
44.5535 -156.473 993.804 
44.8708 -156.321 992.822 
45.2481 -156.378 993.171 
45.5771 -156.269 992.463 
45.9082 -156.169 991.814 
46.313 -156.319 992.752 
46.6245 -156.154 991.692 
46.9795 -156.136 991.565 
47.3389 -156.133 991.532 
47.7165 -156.19 991.88 
48.0675 -156.16 991.673 
48.425 -156.151 991.601 
48.7677 -156.094 991.23 
49.1183 -156.064 991.022 
49.4696 -156.036 990.833 
49.824 -156.019 990.708 
50.1871 -156.028 990.756 
50.5473 -156.029 990.747 
50.9032 -156.017 990.654 
51.255 -155.992 990.482 
51.6246 -156.022 990.656 
51.9498 -155.917 989.98 
52.3138 -155.93 990.047 
52.6806 -155.951 990.166 
53.0343 -155.933 990.04 
53.3783 -155.887 989.734 
53.7349 -155.879 989.664 
54.1058 -155.911 989.857 
54.4343 -155.822 989.277 
54.8029 -155.848 989.429 
55.1565 -155.831 989.309 
55.5 -155.787 989.011 
55.8574 -155.781 988.963 
56.213 -155.771 988.884 
56.5761 -155.781 988.936 
56.9193 -155.737 988.642 
57.2787 -155.738 988.632 
57.6265 -155.707 988.422 
57.9876 -155.712 988.442 
58.3547 -155.734 988.563 
58.7084 -155.719 988.456 
59.0684 -155.721 988.457 
59.414 -155.686 988.217 
59.7588 -155.649 987.968 
60.1363 -155.697 988.258 
60.4948 -155.695 988.235 
60.8087 -155.58 987.487 
61.1841 -155.622 987.742 
61.5489 -155.637 987.823 
61.8839 -155.577 987.426 
62.2321 -155.55 987.245 
62.6059 -155.588 987.468 
62.9814 -155.629 987.717 
63.3276 -155.598 987.505 
63.6785 -155.578 987.368 
64.0315 -155.564 987.266 
64.3853 -155.553 987.177 
64.7418 -155.547 987.129 
65.0947 -155.533 987.027 
65.4543 -155.536 987.027 
65.826 -155.567 987.21 
66.1636 -155.517 986.88 
66.5109 -155.49 986.699 
66.853 -155.452 986.444 
67.2283 -155.491 986.677 
67.5868 -155.491 986.663 
67.9405 -155.48 986.579 
68.3125 -155.511 986.76 
68.6733 -155.516 986.78 
68.9727 -155.383 985.92 
69.3587 -155.445 986.301 
69.7088 -155.427 986.169 
70.0477 -155.383 985.881 
70.3866 -155.341 985.597 
70.786 -155.432 986.159 
71.1582 -155.462 986.337 
71.5179 -155.465 986.341 
71.8823 -155.478 986.409 
72.2381 -155.472 986.359 
72.5751 -155.426 986.054 
72.8991 -155.353 985.577 
73.2929 -155.429 986.042 
73.6122 -155.346 985.507 
73.995 -155.398 985.822 
74.3264 -155.342 985.452 
74.7287 -155.434 986.021 
75.0879 -155.436 986.019 
75.4023 -155.345 985.432 
75.8167 -155.461 986.151 
76.1142 -155.337 985.349 
76.5203 -155.434 985.954 
76.8932 -155.464 986.127 
77.1749 -155.31 985.135 
77.5144 -155.273 984.887 
77.911 -155.35 985.363 
78.3254 -155.462 986.058 
78.6361 -155.367 985.447 
78.9624 -155.305 985.036 
79.4125 -155.485 986.167 
79.6805 -155.309 985.036 
80.0534 -155.338 985.206 
80.4022 -155.32 985.079 
80.7551 -155.311 985.003 
81.1049 -155.295 984.891 
81.3847 -155.146 983.932 
81.6706 -155.01 983.056 
82.043 -155.039 983.224 
82.4155 -155.067 983.392 
82.7882 -155.096 983.559 
83.1609 -155.125 983.727 
83.4641 -155.024 983.074 
83.8696 -155.113 983.626 
84.157 -154.984 982.794 
84.5193 -154.993 982.84 
84.8391 -154.925 982.393 
85.2023 -154.936 982.451 
85.524 -154.872 982.031 
85.8506 -154.818 981.671 
86.2201 -154.841 981.803 
86.5588 -154.808 981.584 
86.8896 -154.762 981.277 
87.247 -154.764 981.272 
87.6113 -154.777 981.344 
87.9291 -154.709 980.898 
88.2283 -154.609 980.248 
88.6004 -154.636 980.409 
88.9726 -154.664 980.571 
90.0544 -155.3 984.577 
90.3629 -155.216 984.027 
90.6711 -155.131 983.477 
91.1106 -155.271 984.35 
94.9661 -158.725 1006.18 
95.2178 -158.535 1004.96 
95.5489 -158.479 1004.59 
95.9294 -158.504 1004.74 
96.3016 -158.516 1004.8 
96.6839 -158.544 1004.96 
97.0314 -158.515 1004.76 
97.3864 -158.498 1004.64 
97.7581 -158.509 1004.7 
98.1348 -158.528 1004.8 
98.4936 -158.517 1004.72 
98.839 -158.486 1004.51 
99.2039 -158.485 1004.49 
33.6722 -158.324 1003.66 
34.0237 -158.263 1003.26 
34.3906 -158.274 1003.31 
34.7625 -158.308 1003.51 
35.1237 -158.292 1003.4 
35.4822 -158.265 1003.21 
35.8519 -158.288 1003.35 
36.2174 -158.292 1003.36 
36.5727 -158.253 1003.09 
36.9256 -158.203 1002.76 
37.2858 -158.186 1002.64 
40.2479 -156.952 994.692 
42.3394 -156.668 992.807 
43.4501 -156.771 993.417 
43.8206 -156.805 993.62 
44.1533 -156.704 992.969 
44.5238 -156.739 993.172 
44.8417 -156.588 992.206 
45.2652 -156.807 993.576 
45.6068 -156.74 993.139 
45.965 -156.731 993.069 
46.3037 -156.656 992.58 
46.6437 -156.587 992.128 
46.9835 -156.518 991.676 
47.3652 -156.589 992.111 
47.6974 -156.496 991.508 
48.0715 -156.541 991.78 
48.4213 -156.507 991.549 
48.7831 -156.512 991.567 
49.1347 -156.484 991.378 
49.4654 -156.391 990.773 
49.8416 -156.442 991.081 
50.1993 -156.435 991.021 
50.5482 -156.4 990.787 
50.9034 -156.385 990.68 
51.2606 -156.377 990.613 
51.6087 -156.341 990.373 
51.9568 -156.305 990.134 
52.3226 -156.324 990.234 
52.6702 -156.288 989.992 
53.0317 -156.293 990.011 
53.3943 -156.301 990.051 
53.7463 -156.279 989.894 
54.1002 -156.262 989.774 
54.4284 -156.172 989.189 
54.7984 -156.202 989.366 
55.1736 -156.247 989.634 
55.5187 -156.206 989.362 
55.846 -156.116 988.779 
56.2032 -156.11 988.728 
56.5668 -156.122 988.79 
56.9182 -156.101 988.64 
57.2818 -156.112 988.702 
57.6311 -156.085 988.516 
57.9811 -156.061 988.347 
58.3514 -156.091 988.522 
58.698 -156.057 988.296 
59.0717 -156.096 988.527 
59.4251 -156.081 988.416 
59.7538 -156.001 987.899 
60.1289 -156.043 988.151 
60.4897 -156.048 988.165 
60.8136 -155.957 987.58 
61.1906 -156.004 987.859 
61.5406 -155.981 987.703 
61.8691 -155.904 987.203 
62.2344 -155.921 987.294 
62.6144 -155.974 987.616 
62.9633 -155.949 987.446 
63.3043 -155.906 987.154 
63.6617 -155.902 987.12 
64.0247 -155.913 987.173 
64.3766 -155.896 987.054 
64.7222 -155.865 986.841 
65.0899 -155.887 986.966 
65.4479 -155.885 986.942 
65.8064 -155.885 986.926 
66.1487 -155.846 986.669 
66.5128 -155.86 986.738 
66.8675 -155.851 986.668 
67.212 -155.818 986.447 
67.5551 -155.783 986.21 
67.9249 -155.809 986.362 
68.3182 -155.889 986.852 
68.6446 -155.816 986.376 
68.9679 -155.736 985.86 
69.348 -155.785 986.157 
69.7022 -155.776 986.084 
70.043 -155.737 985.823 
70.371 -155.67 985.386 
70.7472 -155.71 985.626 
71.136 -155.777 986.036 
71.4787 -155.743 985.807 
71.8344 -155.738 985.759 
72.2314 -155.822 986.275 
72.5369 -155.708 985.542 
72.9277 -155.778 985.97 
73.3052 -155.819 986.214 
73.6288 -155.745 985.735 
73.9473 -155.661 985.192 
74.274 -155.596 984.763 
74.6812 -155.699 985.4 
74.9843 -155.585 984.665 
75.3565 -155.614 984.839 
75.7289 -155.644 985.013 
76.0964 -155.664 985.124 
76.4914 -155.739 985.586 
76.8336 -155.707 985.368 
77.1532 -155.629 984.863 
77.5208 -155.649 984.973 
77.8778 -155.647 984.946 
78.2259 -155.627 984.81 
78.6705 -155.799 985.882 
78.9279 -155.6 984.61 
79.3006 -155.629 984.781 
79.6734 -155.658 984.951 
79.908 -155.419 983.421 
80.3677 -155.617 984.66 
80.6859 -155.54 984.163 
80.9864 -155.431 983.455 
81.3775 -155.495 983.848 
81.6634 -155.359 982.972 
82.0358 -155.388 983.14 
82.3396 -155.287 982.489 
82.7411 -155.37 983.003 
83.0935 -155.361 982.931 
83.5013 -155.455 983.515 
83.8248 -155.392 983.102 
84.1617 -155.355 982.851 
84.5072 -155.333 982.701 
84.8386 -155.286 982.389 
85.1335 -155.173 981.659 
85.478 -155.151 981.505 
85.8312 -155.144 981.451 
86.2227 -155.207 981.833 
86.5514 -155.157 981.5 
86.8822 -155.11 981.194 
87.2486 -155.128 981.291 
87.6107 -155.138 981.338 
87.8908 -155.003 980.471 
88.2408 -154.991 980.386 
88.5929 -154.984 980.326 
88.9651 -155.012 980.488 
90.0467 -155.65 984.494 
90.3552 -155.565 983.944 
90.8138 -155.738 985.025 
91.1789 -155.75 985.087 
94.9253 -159.027 1005.75 
95.2242 -158.916 1005.03 
95.56 -158.867 1004.71 
95.9101 -158.842 1004.53 
96.2744 -158.841 1004.51 
96.6596 -158.874 1004.71 
97.0406 -158.9 1004.85 
97.3986 -158.888 1004.77 
97.7626 -158.886 1004.74 
98.1249 -158.881 1004.7 
98.4815 -158.868 1004.6 
98.8598 -158.889 1004.72 
99.231 -158.898 1004.76 
33.6761 -158.72 1003.83 
34.0254 -158.648 1003.36 
34.3915 -158.655 1003.39 
34.7622 -158.683 1003.55 
35.1125 -158.618 1003.13 
35.4723 -158.597 1002.98 
35.8474 -158.644 1003.27 
36.2248 -158.701 1003.61 
36.5856 -158.684 1003.49 
36.9515 -158.689 1003.51 
37.3177 -158.696 1003.54 
37.6644 -158.621 1003.05 
38.0165 -158.569 1002.71 
38.4004 -158.65 1003.2 
43.4449 -157.122 993.33 
43.7778 -157.021 992.68 
44.1861 -157.191 993.736 
44.5082 -157.053 992.852 
44.8892 -157.124 993.287 
45.2375 -157.081 992.997 
45.5665 -156.971 992.29 
45.8977 -156.87 991.641 
46.3399 -157.148 993.384 
46.6384 -156.938 992.041 
47.009 -156.972 992.241 
47.3797 -157.006 992.441 
47.7506 -157.04 992.641 
48.0945 -156.985 992.28 
48.4332 -156.914 991.819 
48.8076 -156.959 992.09 
49.1388 -156.866 991.486 
49.4619 -156.748 990.727 
49.8231 -156.752 990.738 
50.1938 -156.785 990.935 
50.5646 -156.819 991.132 
50.9125 -156.781 990.88 
51.2652 -156.758 990.723 
51.6083 -156.707 990.386 
51.9529 -156.661 990.081 
52.3219 -156.689 990.243 
52.6763 -156.673 990.127 
53.023 -156.634 989.868 
53.4092 -156.712 990.347 
53.7406 -156.629 989.809 
54.0932 -156.609 989.667 
54.4337 -156.554 989.305 
54.8027 -156.581 989.463 
55.1774 -156.624 989.722 
55.5171 -156.568 989.352 
55.8441 -156.477 988.762 
56.1945 -156.452 988.592 
56.5673 -156.49 988.816 
56.9243 -156.484 988.763 
57.2785 -156.47 988.662 
57.6265 -156.439 988.455 
57.9832 -156.432 988.398 
58.3339 -156.41 988.242 
58.7022 -156.434 988.383 
59.0846 -156.496 988.758 
59.4295 -156.458 988.505 
59.7608 -156.385 988.03 
60.1162 -156.376 987.957 
60.4798 -156.388 988.018 
60.8229 -156.347 987.746 
61.1909 -156.37 987.879 
61.5311 -156.322 987.563 
61.8636 -156.256 987.129 
62.2454 -156.314 987.481 
62.6182 -156.349 987.688 
62.9563 -156.297 987.348 
63.2919 -156.24 986.972 
63.6532 -156.247 987.001 
64.0258 -156.28 987.201 
64.3712 -156.248 986.982 
64.7179 -156.219 986.787 
65.0912 -156.255 986.996 
65.4416 -156.235 986.858 
65.7868 -156.203 986.644 
66.1358 -156.181 986.487 
66.5079 -156.213 986.675 
66.867 -156.214 986.67 
67.1993 -156.153 986.271 
67.5413 -156.115 986.018 
67.9275 -156.179 986.41 
68.2864 -156.18 986.401 
68.6334 -156.154 986.224 
68.9642 -156.092 985.815 
69.3332 -156.116 985.955 
69.7008 -156.137 986.073 
70.0336 -156.08 985.7 
70.3883 -156.073 985.637 
70.7524 -156.086 985.706 
71.1081 -156.08 985.658 
71.4736 -156.096 985.744 
71.8132 -156.056 985.475 
72.1581 -156.027 985.281 
72.5384 -156.075 985.57 
72.9024 -156.087 985.634 
73.2552 -156.076 985.549 
73.6136 -156.077 985.538 
73.9675 -156.068 985.468 
74.2768 -155.965 984.807 
74.6758 -156.051 985.335 
74.9856 -155.951 984.688 
75.3854 -156.037 985.222 
75.746 -156.043 985.242 
76.0882 -156.01 985.022 
76.4408 -155.999 984.939 
76.7884 -155.979 984.794 
77.1151 -155.915 984.382 
77.4994 -155.969 984.706 
77.8463 -155.947 984.554 
78.2189 -155.976 984.726 
78.5915 -156.006 984.897 
78.9782 -156.063 985.242 
79.2609 -155.914 984.293 
79.5996 -155.877 984.044 
79.9466 -155.856 983.898 
80.3062 -155.86 983.909 
80.6788 -155.889 984.079 
80.9611 -155.745 983.151 
81.2839 -155.679 982.72 
81.6562 -155.707 982.889 
81.952 -155.591 982.14 
82.401 -155.765 983.224 
82.7736 -155.794 983.392 
83.0687 -155.677 982.641 
83.498 -155.812 983.478 
83.7918 -155.693 982.717 
84.1274 -155.653 982.452 
84.4789 -155.643 982.374 
84.8151 -155.605 982.119 
85.1476 -155.56 981.823 
85.4574 -155.475 981.27 
85.8205 -155.487 981.329 
86.2115 -155.549 981.707 
86.5439 -155.505 981.417 
86.8821 -155.472 981.195 
87.2116 -155.423 980.875 
87.6069 -155.492 981.297 
87.8612 -155.311 980.141 
88.2491 -155.367 980.48 
88.5854 -155.332 980.243 
90.058 -156.032 984.617 
90.3476 -155.914 983.86 
90.7213 -155.942 984.021 
94.9083 -159.369 1005.57 
95.2259 -159.289 1005.05 
95.5454 -159.213 1004.55 
95.8937 -159.185 1004.36 
96.2571 -159.182 1004.33 
96.6685 -159.258 1004.8 
97.0338 -159.259 1004.78 
97.3945 -159.251 1004.72 
97.7943 -159.308 1005.06 
98.1501 -159.292 1004.95 
98.4846 -159.242 1004.62 
98.857 -159.254 1004.68 
99.2226 -159.255 1004.67 
33.6691 -159.064 1003.67 
34.0191 -158.995 1003.22 
34.3909 -159.028 1003.42 
34.7561 -159.031 1003.42 
35.1085 -158.976 1003.06 
35.469 -158.958 1002.94 
35.8449 -159.009 1003.24 
36.2195 -159.053 1003.51 
36.5882 -159.071 1003.6 
36.9571 -159.089 1003.7 
37.3275 -159.114 1003.84 
37.6686 -159.014 1003.2 
38.0304 -159.002 1003.11 
38.4154 -159.087 1003.64 
38.7698 -159.045 1003.36 
39.1192 -158.984 1002.95 
39.4721 -158.937 1002.65 
43.8102 -157.508 993.446 
44.8839 -157.476 993.201 
45.6307 -157.562 993.717 
45.9424 -157.393 992.637 
46.3131 -157.427 992.838 
46.6678 -157.406 992.693 
47.0036 -157.323 992.155 
47.3743 -157.357 992.355 
47.7304 -157.342 992.248 
48.1162 -157.425 992.754 
48.4345 -157.287 991.87 
48.7426 -157.118 990.795 
49.0973 -157.101 990.673 
49.4749 -157.157 991.012 
49.8456 -157.191 991.21 
50.1977 -157.165 991.035 
50.559 -157.169 991.046 
50.9086 -157.137 990.827 
51.2674 -157.133 990.789 
51.6044 -157.063 990.334 
51.981 -157.114 990.638 
52.3303 -157.082 990.422 
52.6843 -157.064 990.297 
53.0348 -157.036 990.11 
53.3989 -157.049 990.176 
53.7487 -157.02 989.979 
54.0937 -156.977 989.695 
54.4555 -156.983 989.72 
54.7875 -156.904 989.207 
55.1753 -156.985 989.702 
55.5295 -156.97 989.591 
55.8599 -156.888 989.06 
56.2015 -156.838 988.733 
56.5846 -156.904 989.136 
56.9322 -156.872 988.917 
57.2726 -156.82 988.576 
57.6197 -156.787 988.355 
57.9891 -156.815 988.515 
58.333 -156.773 988.242 
58.7094 -156.82 988.52 
59.0656 -156.812 988.455 
59.4203 -156.8 988.367 
59.7713 -156.778 988.217 
60.0938 -156.683 987.602 
60.4704 -156.729 987.879 
60.8363 -156.747 987.977 
61.1934 -156.742 987.932 
61.5223 -156.665 987.436 
61.8657 -156.626 987.176 
62.2513 -156.694 987.588 
62.6075 -156.687 987.531 
62.9606 -156.673 987.429 
63.285 -156.588 986.878 
63.6491 -156.601 986.949 
64.0203 -156.632 987.128 
64.3629 -156.593 986.868 
64.736 -156.628 987.074 
65.09 -156.617 986.989 
65.4352 -156.585 986.773 
65.7775 -156.546 986.514 
66.1288 -156.529 986.393 
66.4945 -156.546 986.487 
66.8411 -156.518 986.297 
67.1934 -156.504 986.194 
67.5447 -156.487 986.077 
67.9158 -156.517 986.248 
68.2662 -156.499 986.12 
68.6257 -156.501 986.122 
68.9543 -156.434 985.683 
69.3172 -156.444 985.736 
69.6739 -156.441 985.701 
70.0202 -156.414 985.519 
70.4027 -156.469 985.847 
70.7493 -156.443 985.671 
71.1178 -156.465 985.8 
71.4553 -156.42 985.5 
71.8257 -156.447 985.654 
72.1875 -156.454 985.689 
72.5123 -156.383 985.222 
72.8956 -156.437 985.55 
73.2264 -156.378 985.167 
73.6023 -156.416 985.393 
73.9337 -156.36 985.024 
74.2754 -156.326 984.794 
74.6157 -156.289 984.548 
74.9802 -156.303 984.623 
75.36 -156.348 984.897 
75.7324 -156.378 985.071 
76.0681 -156.333 984.768 
76.46 -156.402 985.192 
76.7966 -156.358 984.904 
77.1016 -156.251 984.215 
77.4984 -156.33 984.698 
77.7965 -156.21 983.927 
78.2009 -156.304 984.503 
78.625 -156.436 985.321 
78.9137 -156.298 984.442 
79.2864 -156.328 984.613 
79.6207 -156.281 984.308 
79.9879 -156.3 984.411 
80.3143 -156.239 984.013 
80.6385 -156.174 983.592 
80.9046 -155.998 982.468 
81.3631 -156.193 983.681 
81.649 -156.056 982.805 
82.0213 -156.085 982.973 
82.3938 -156.114 983.141 
82.7664 -156.143 983.308 
83.0934 -156.086 982.936 
83.466 -156.114 983.103 
83.7598 -155.996 982.344 
84.1127 -155.988 982.283 
84.4515 -155.955 982.057 
84.8096 -155.957 982.057 
85.1363 -155.902 981.694 
85.4473 -155.818 981.156 
85.8015 -155.814 981.114 
86.1685 -155.833 981.218 
86.5403 -155.86 981.377 
86.8717 -155.815 981.078 
87.2075 -155.777 980.83 
87.5934 -155.83 981.146 
87.8339 -155.624 979.837 
88.1499 -155.553 979.378 
88.66 -155.824 981.07 
90.0503 -156.381 984.534 
90.4152 -156.393 984.597 
90.7793 -156.404 984.65 
94.8968 -159.72 1005.44 
95.2196 -159.648 1004.98 
95.5383 -159.571 1004.47 
95.8867 -159.543 1004.29 
96.2793 -159.589 1004.56 
96.6565 -159.609 1004.67 
97.0128 -159.594 1004.57 
97.382 -159.601 1004.59 
97.7952 -159.679 1005.07 
98.1554 -159.671 1005.01 
98.4757 -159.598 1004.53 
98.8387 -159.594 1004.5 
99.2293 -159.635 1004.74 
33.6541 -159.369 1003.27 
34.0211 -159.381 1003.33 
34.3891 -159.397 1003.42 
34.7513 -159.386 1003.33 
35.1049 -159.336 1003.01 
35.4673 -159.327 1002.93 
35.8447 -159.384 1003.28 
36.2076 -159.377 1003.22 
36.581 -159.416 1003.45 
36.9554 -159.458 1003.7 
37.3299 -159.5 1003.95 
37.6815 -159.444 1003.59 
38.0478 -159.451 1003.62 
38.4196 -159.48 1003.79 
38.7735 -159.436 1003.49 
39.1315 -159.409 1003.31 
39.4958 -159.407 1003.29 
39.8529 -159.378 1003.09 
40.2054 -159.33 1002.77 
45.9264 -157.707 992.318 
46.6277 -157.64 991.869 
46.9982 -157.674 992.068 
47.4207 -157.88 993.352 
47.7398 -157.742 992.468 
48.1107 -157.776 992.667 
48.4545 -157.721 992.306 
48.7739 -157.588 991.455 
49.4416 -157.42 990.369 
49.871 -157.639 991.738 
50.1827 -157.487 990.763 
50.5535 -157.52 990.96 
50.9244 -157.554 991.156 
51.2161 -157.343 989.82 
51.6172 -157.47 990.6 
51.9679 -157.442 990.41 
52.3388 -157.475 990.605 
52.6878 -157.442 990.385 
53.0382 -157.414 990.194 
53.3767 -157.351 989.785 
53.7593 -157.418 990.192 
54.1155 -157.408 990.112 
54.4444 -157.318 989.538 
54.7957 -157.295 989.374 
55.1539 -157.291 989.336 
55.5135 -157.291 989.325 
55.8623 -157.261 989.121 
56.2186 -157.252 989.052 
56.5798 -157.258 989.07 
56.945 -157.273 989.156 
57.2778 -157.2 988.682 
57.6244 -157.166 988.452 
57.9898 -157.182 988.543 
58.3173 -157.097 987.992 
58.71 -157.187 988.545 
59.0789 -157.213 988.693 
59.4228 -157.172 988.423 
59.7687 -157.138 988.19 
60.0959 -157.054 987.652 
60.4706 -157.095 987.897 
60.8502 -157.148 988.217 
61.1847 -157.085 987.806 
61.5196 -157.024 987.405 
61.8883 -157.049 987.55 
62.2521 -157.061 987.614 
62.5901 -157.009 987.27 
62.9511 -157.015 987.292 
63.2856 -156.954 986.899 
63.6338 -156.929 986.723 
64.025 -157.009 987.213 
64.3597 -156.95 986.83 
64.7289 -156.976 986.978 
65.0868 -156.974 986.953 
65.4324 -156.943 986.742 
65.763 -156.876 986.308 
66.1245 -156.883 986.341 
66.4777 -156.871 986.248 
66.8134 -156.818 985.9 
67.1739 -156.823 985.918 
67.5479 -156.859 986.134 
67.9065 -156.86 986.123 
68.2478 -156.821 985.863 
68.6095 -156.829 985.899 
68.9463 -156.78 985.578 
69.2983 -156.766 985.476 
69.6596 -156.773 985.507 
70.0092 -156.754 985.374 
70.3951 -156.816 985.748 
70.7442 -156.795 985.608 
71.1013 -156.793 985.579 
71.443 -156.757 985.338 
71.7911 -156.735 985.186 
72.1249 -156.683 984.842 
72.5001 -156.72 985.063 
72.8774 -156.761 985.31 
73.2139 -156.715 985.007 
73.5724 -156.716 985 
73.9269 -156.709 984.94 
74.2555 -156.647 984.537 
74.6234 -156.668 984.656 
74.9638 -156.632 984.413 
75.3359 -156.662 984.587 
75.694 -156.662 984.577 
76.0805 -156.721 984.935 
76.4158 -156.675 984.628 
76.7693 -156.666 984.559 
77.0876 -156.586 984.041 
77.4516 -156.599 984.108 
77.8371 -156.655 984.446 
78.2009 -156.667 984.508 
78.5341 -156.618 984.186 
78.9066 -156.647 984.358 
79.2217 -156.563 983.814 
79.5854 -156.575 983.876 
79.9894 -156.666 984.433 
80.2919 -156.558 983.742 
80.6314 -156.523 983.508 
80.8974 -156.347 982.385 
81.225 -156.29 982.014 
81.6418 -156.405 982.721 
82.0141 -156.433 982.889 
82.327 -156.349 982.346 
82.6902 -156.361 982.406 
83.0226 -156.315 982.101 
83.4047 -156.362 982.384 
83.7331 -156.308 982.033 
84.0651 -156.262 981.728 
84.4249 -156.267 981.75 
84.7932 -156.289 981.869 
85.1113 -156.218 981.409 
85.458 -156.199 981.28 
85.803 -156.178 981.132 
86.159 -156.177 981.112 
86.529 -156.201 981.251 
86.8474 -156.132 980.805 
87.1747 -156.08 980.462 
87.5629 -156.137 980.806 
87.8264 -155.972 979.754 
88.1761 -155.96 979.67 
88.5703 -156.028 980.077 
90.4281 -156.778 984.737 
94.5916 -160.192 1006.1 
94.8402 -159.995 1004.84 
95.1995 -159.985 1004.77 
95.5528 -159.965 1004.63 
95.9169 -159.963 1004.6 
96.3011 -159.995 1004.79 
96.655 -159.976 1004.65 
97.0037 -159.949 1004.47 
97.3647 -159.942 1004.41 
97.7869 -160.035 1004.99 
98.1536 -160.038 1004.99 
98.469 -159.957 1004.46 
98.8226 -159.938 1004.33 
99.1882 -159.939 1004.32 
33.6503 -159.728 1003.21 
34.0252 -159.777 1003.5 
34.3911 -159.782 1003.52 
34.7445 -159.731 1003.18 
35.1019 -159.698 1002.97 
35.4648 -159.691 1002.91 
35.8429 -159.752 1003.28 
36.2063 -159.747 1003.23 
36.5785 -159.78 1003.43 
36.9492 -159.807 1003.58 
37.3221 -159.842 1003.78 
37.6866 -159.841 1003.76 
38.0545 -159.854 1003.83 
38.4157 -159.839 1003.73 
38.7728 -159.808 1003.51 
39.1448 -159.838 1003.69 
39.5125 -159.85 1003.75 
39.8674 -159.81 1003.49 
40.2153 -159.744 1003.06 
40.5656 -159.688 1002.69 
40.9326 -159.698 1002.74 
41.2773 -159.622 1002.25 
47.0442 -158.198 993.065 
47.3635 -158.059 992.182 
47.7343 -158.093 992.381 
48.1053 -158.127 992.581 
48.4764 -158.161 992.78 
48.7817 -157.981 991.638 
49.1768 -158.093 992.326 
49.5028 -157.983 991.618 
49.8947 -158.083 992.232 
50.1772 -157.837 990.677 
50.5479 -157.871 990.874 
50.9064 -157.866 990.829 
51.2666 -157.866 990.817 
51.6319 -157.882 990.905 
51.9757 -157.833 990.58 
52.3112 -157.759 990.105 
52.6643 -157.739 989.964 
53.0429 -157.795 990.302 
53.3825 -157.735 989.913 
53.739 -157.726 989.839 
54.1147 -157.773 990.119 
54.4653 -157.746 989.938 
54.8136 -157.713 989.717 
55.1538 -157.657 989.353 
55.5086 -157.644 989.255 
55.8788 -157.674 989.431 
56.2388 -157.676 989.425 
56.5886 -157.649 989.242 
56.9406 -157.628 989.098 
57.281 -157.575 988.754 
57.6211 -157.523 988.411 
57.9927 -157.557 988.609 
58.34 -157.524 988.393 
58.7171 -157.572 988.68 
59.0612 -157.532 988.413 
59.4136 -157.514 988.286 
59.7668 -157.498 988.174 
60.0843 -157.39 987.477 
60.4543 -157.419 987.645 
60.8475 -157.507 988.187 
61.1821 -157.444 987.777 
61.5153 -157.378 987.35 
61.9064 -157.461 987.852 
62.24 -157.396 987.435 
62.581 -157.351 987.14 
62.9503 -157.378 987.292 
63.2807 -157.307 986.836 
63.6323 -157.29 986.713 
64.0137 -157.346 987.05 
64.3575 -157.31 986.809 
64.7114 -157.298 986.722 
65.0791 -157.32 986.847 
65.4371 -157.319 986.823 
65.7689 -157.255 986.408 
66.1168 -157.23 986.237 
66.4725 -157.223 986.181 
66.8123 -157.179 985.894 
67.1828 -157.208 986.058 
67.5519 -157.233 986.203 
67.8836 -157.171 985.8 
68.2175 -157.115 985.435 
68.6043 -157.181 985.833 
68.9558 -157.166 985.723 
69.2848 -157.099 985.294 
69.6547 -157.126 985.447 
70.0126 -157.125 985.429 
70.3809 -157.148 985.558 
70.7254 -157.118 985.353 
71.1014 -157.157 985.588 
71.4438 -157.123 985.357 
71.7751 -157.064 984.975 
72.1214 -157.039 984.802 
72.4676 -157.013 984.629 
72.8735 -157.117 985.265 
73.1928 -157.034 984.73 
73.5633 -157.061 984.885 
73.9201 -157.058 984.855 
74.2544 -157.008 984.528 
74.6233 -157.032 984.661 
74.9726 -157.014 984.534 
75.335 -157.023 984.581 
75.6722 -156.98 984.298 
76.038 -156.997 984.389 
76.3867 -156.978 984.259 
76.7786 -157.048 984.684 
77.0754 -156.924 983.89 
77.46 -156.979 984.219 
77.8229 -156.989 984.271 
78.164 -156.956 984.048 
78.5271 -156.967 984.102 
78.8738 -156.945 983.952 
79.2428 -156.968 984.079 
79.5871 -156.941 983.9 
79.9626 -156.976 984.108 
80.2093 -156.759 982.734 
80.5625 -156.752 982.671 
80.9396 -156.79 982.9 
81.3487 -156.89 983.513 
82.0069 -156.782 982.806 
82.6829 -156.709 982.322 
83.0153 -156.663 982.018 
83.3876 -156.692 982.184 
83.733 -156.67 982.035 
84.0157 -156.532 981.154 
84.3833 -156.552 981.268 
84.7532 -156.577 981.408 
85.104 -156.566 981.325 
85.4506 -156.547 981.196 
85.7736 -156.486 980.798 
86.1391 -156.502 980.887 
86.4574 -156.433 980.44 
86.8219 -156.448 980.517 
87.154 -156.404 980.231 
87.5045 -156.394 980.153 
87.8188 -156.319 979.671 
88.1907 -156.347 979.833 
88.5627 -156.375 979.994 
94.5229 -160.446 1005.37 
94.8111 -160.316 1004.53 
95.1957 -160.349 1004.73 
95.578 -160.377 1004.89 
95.9353 -160.364 1004.79 
96.2799 -160.329 1004.56 
96.6467 -160.332 1004.57 
97.0102 -160.329 1004.53 
97.3563 -160.298 1004.33 
97.7486 -160.343 1004.59 
98.159 -160.417 1005.04 
98.4745 -160.335 1004.52 
98.8199 -160.303 1004.3 
99.1865 -160.306 1004.3 
33.6477 -160.092 1003.18 
34.024 -160.148 1003.52 
34.3862 -160.136 1003.43 
34.7396 -160.084 1003.09 
35.0981 -160.057 1002.91 
35.4688 -160.085 1003.07 
35.844 -160.133 1003.35 
36.2063 -160.123 1003.28 
36.574 -160.137 1003.35 
36.9466 -160.171 1003.55 
37.3201 -160.209 1003.77 
37.683 -160.201 1003.71 
38.056 -160.236 1003.91 
38.4092 -160.188 1003.6 
38.773 -160.184 1003.56 
39.1497 -160.233 1003.85 
39.5121 -160.224 1003.78 
39.8774 -160.226 1003.78 
40.223 -160.15 1003.29 
40.5704 -160.082 1002.85 
40.9341 -160.079 1002.82 
41.2975 -160.075 1002.78 
41.6702 -160.107 1002.96 
42.0345 -160.106 1002.95 
47.4222 -158.624 993.438 
47.7289 -158.444 992.295 
48.0998 -158.478 992.494 
48.4294 -158.377 991.843 
48.8058 -158.428 992.154 
49.1598 -158.407 992.008 
49.5374 -158.462 992.336 
49.8682 -158.367 991.729 
50.1716 -158.188 990.591 
50.5855 -158.357 991.635 
50.9132 -158.255 990.984 
51.2842 -158.289 991.18 
51.6033 -158.163 990.379 
51.9348 -158.076 989.824 
52.3198 -158.153 990.287 
52.6842 -158.166 990.359 
53.0528 -158.192 990.508 
53.3731 -158.075 989.758 
53.7366 -158.086 989.816 
54.1111 -158.13 990.072 
54.4823 -158.163 990.266 
54.7902 -158.013 989.313 
55.128 -157.951 988.91 
55.4758 -157.918 988.689 
55.8779 -158.039 989.434 
56.2369 -158.037 989.409 
56.5872 -158.011 989.234 
56.9602 -158.049 989.454 
57.2934 -157.976 988.987 
57.6159 -157.875 988.339 
57.9971 -157.935 988.7 
58.3548 -157.931 988.66 
58.7293 -157.972 988.902 
59.0563 -157.885 988.346 
59.4091 -157.868 988.227 
59.7661 -157.863 988.177 
60.0969 -157.788 987.698 
60.4564 -157.79 987.693 
60.8516 -157.884 988.268 
61.1771 -157.797 987.712 
61.5199 -157.756 987.438 
61.8969 -157.802 987.714 
62.2349 -157.749 987.367 
62.5841 -157.725 987.202 
62.94 -157.717 987.143 
63.2841 -157.681 986.901 
63.6227 -157.631 986.576 
64.0057 -157.692 986.94 
64.361 -157.683 986.874 
64.7018 -157.64 986.588 
65.0702 -157.664 986.723 
65.441 -157.693 986.893 
65.7681 -157.617 986.406 
66.1152 -157.59 986.222 
66.4752 -157.594 986.233 
66.8237 -157.571 986.073 
67.1773 -157.56 985.989 
67.5413 -157.573 986.058 
67.889 -157.548 985.89 
68.2171 -157.478 985.439 
68.5759 -157.48 985.434 
68.9449 -157.505 985.576 
69.2975 -157.492 985.482 
69.6473 -157.473 985.351 
69.9981 -157.457 985.234 
70.3606 -157.467 985.283 
70.7327 -157.498 985.464 
