ply
format ascii 1.0
comment Created by CloudCompare v2.11 beta (Anoia)
comment Created 2020/4/1 下午4:12
obj_info Generated by CloudCompare!
element vertex 1861
property float x
property float y
property float z
end_header
65.9025 -101.053 1009.73 
66.2761 -101.065 1009.84 
66.6107 -101.019 1009.36 
66.979 -101.023 1009.4 
67.3539 -101.038 1009.53 
67.7226 -101.043 1009.57 
68.1249 -101.098 1010.1 
68.4716 -101.07 1009.81 
68.843 -101.079 1009.89 
69.1835 -101.043 1009.51 
69.5362 -101.025 1009.32 
69.9149 -101.044 1009.5 
70.3112 -101.089 1009.93 
70.684 -101.099 1010.02 
71.0248 -101.064 1009.66 
71.4104 -101.093 1009.93 
71.7955 -101.121 1010.2 
72.1514 -101.107 1010.05 
72.5042 -101.09 1009.86 
72.8686 -101.089 1009.83 
73.2275 -101.079 1009.73 
73.6064 -101.098 1009.9 
73.9825 -101.113 1010.04 
74.3316 -101.091 1009.8 
74.6861 -101.076 1009.64 
75.0563 -101.082 1009.69 
75.443 -101.111 1009.96 
75.8127 -101.117 1010.01 
76.183 -101.123 1010.06 
76.5293 -101.098 1009.79 
76.8948 -101.098 1009.78 
77.2642 -101.103 1009.82 
77.568 -101.023 1009.01 
80.3267 -97.7172 975.797 
80.7645 -97.8198 976.808 
81.0397 -97.7253 975.852 
81.4213 -97.7596 976.181 
81.6991 -97.6693 975.267 
82.0994 -97.7257 975.818 
82.4673 -97.7432 975.979 
82.768 -97.6814 975.349 
83.097 -97.6531 975.054 
83.3926 -97.5861 974.373 
83.7682 -97.613 974.628 
84.183 -97.685 975.335 
84.4924 -97.6347 974.819 
84.8192 -97.6048 974.508 
85.1168 -97.5416 973.865 
85.4792 -97.553 973.966 
85.8786 -97.6063 974.485 
86.2403 -97.6165 974.575 
86.5726 -97.5936 974.333 
86.8972 -97.5621 974.006 
87.2537 -97.5665 974.038 
87.6037 -97.5638 973.997 
87.9253 -97.5295 973.643 
88.215 -97.4602 972.938 
88.6081 -97.5053 973.376 
96.1037 -101.322 1011.34 
96.3371 -101.183 1009.93 
96.7246 -101.206 1010.15 
97.1094 -101.226 1010.34 
97.4661 -101.217 1010.23 
97.8104 -101.195 1010 
98.1516 -101.169 1009.73 
59.3094 -101.392 1009.68 
59.6603 -101.367 1009.43 
60.0203 -101.358 1009.32 
60.3824 -101.353 1009.26 
60.7462 -101.351 1009.22 
61.1181 -101.362 1009.32 
61.505 -101.398 1009.67 
61.8665 -101.392 1009.59 
62.2059 -101.35 1009.16 
62.5839 -101.371 1009.35 
62.9681 -101.402 1009.65 
63.3245 -101.387 1009.49 
63.7071 -101.415 1009.75 
64.076 -101.421 1009.79 
64.4218 -101.39 1009.48 
64.7682 -101.361 1009.17 
65.1662 -101.412 1009.67 
65.5408 -101.426 1009.8 
65.8967 -101.412 1009.64 
66.2763 -101.434 1009.84 
66.6152 -101.393 1009.43 
66.99 -101.408 1009.56 
67.3504 -101.4 1009.47 
67.7194 -101.406 1009.52 
68.1206 -101.46 1010.03 
68.4659 -101.43 1009.72 
68.8371 -101.438 1009.8 
69.1843 -101.412 1009.52 
69.5308 -101.384 1009.23 
69.9239 -101.425 1009.62 
70.3137 -101.46 1009.96 
70.6715 -101.449 1009.84 
71.0208 -101.427 1009.6 
71.4256 -101.483 1010.14 
71.7865 -101.476 1010.07 
72.134 -101.451 1009.8 
72.499 -101.45 1009.78 
72.8466 -101.426 1009.52 
73.2167 -101.432 1009.58 
73.604 -101.463 1009.86 
73.9744 -101.469 1009.92 
74.3296 -101.456 1009.77 
74.6818 -101.438 1009.58 
75.0568 -101.451 1009.69 
75.4325 -101.465 1009.82 
75.82 -101.494 1010.1 
76.1764 -101.482 1009.97 
76.5311 -101.468 1009.81 
76.8815 -101.448 1009.6 
77.2587 -101.464 1009.74 
77.576 -101.401 1009.1 
80.4283 -98.1965 977.023 
80.7785 -98.1924 976.969 
81.0337 -98.0734 975.773 
81.4194 -98.1127 976.15 
81.7256 -98.0563 975.576 
82.0934 -98.0738 975.738 
82.4728 -98.1051 976.037 
82.7849 -98.0565 975.54 
83.0579 -97.9621 974.588 
83.3946 -97.9433 974.389 
83.7807 -97.9825 974.766 
84.1297 -97.9781 974.709 
84.4863 -97.9825 974.74 
84.7884 -97.9239 974.145 
85.1311 -97.9127 974.02 
85.4746 -97.9024 973.905 
85.8311 -97.9069 973.938 
86.1827 -97.906 973.916 
86.5169 -97.8853 973.697 
86.8917 -97.9105 973.935 
87.242 -97.908 973.898 
87.6116 -97.9272 974.076 
87.8975 -97.853 973.326 
88.2087 -97.8074 972.86 
88.5761 -97.8243 973.015 
96.1052 -101.692 1011.34 
96.3237 -101.537 1009.78 
96.7177 -101.567 1010.07 
97.1009 -101.585 1010.24 
97.4658 -101.584 1010.22 
97.8119 -101.564 1010 
98.1621 -101.548 1009.83 
58.5589 -101.725 1009.37 
58.9355 -101.745 1009.55 
59.2953 -101.736 1009.44 
59.6601 -101.735 1009.42 
60.0259 -101.736 1009.42 
60.3877 -101.73 1009.35 
60.7455 -101.718 1009.21 
61.1227 -101.738 1009.4 
61.5021 -101.762 1009.62 
61.8568 -101.744 1009.43 
62.2028 -101.713 1009.11 
62.5966 -101.76 1009.56 
62.9782 -101.786 1009.81 
63.3242 -101.755 1009.48 
63.691 -101.757 1009.5 
64.0516 -101.75 1009.41 
64.4 -101.723 1009.13 
64.7738 -101.737 1009.25 
65.1747 -101.793 1009.8 
65.5438 -101.799 1009.84 
65.8745 -101.745 1009.29 
66.2655 -101.785 1009.68 
66.6196 -101.768 1009.49 
66.988 -101.773 1009.53 
67.3572 -101.779 1009.57 
67.7382 -101.802 1009.79 
68.123 -101.831 1010.07 
68.4395 -101.758 1009.33 
68.8253 -101.789 1009.62 
69.1812 -101.775 1009.47 
69.5248 -101.743 1009.14 
69.9212 -101.789 1009.58 
70.3163 -101.832 1010 
70.6602 -101.801 1009.67 
71.0243 -101.799 1009.64 
71.4212 -101.844 1010.08 
71.7828 -101.839 1010.01 
72.1197 -101.799 1009.6 
72.4911 -101.807 1009.67 
72.8347 -101.777 1009.35 
73.2254 -101.812 1009.69 
73.6034 -101.83 1009.85 
73.9691 -101.83 1009.84 
74.3202 -101.81 1009.63 
74.6795 -101.802 1009.54 
75.0455 -101.803 1009.54 
75.4392 -101.842 1009.9 
75.8152 -101.856 1010.03 
76.1676 -101.838 1009.84 
76.5273 -101.831 1009.76 
76.8871 -101.823 1009.67 
77.2686 -101.845 1009.87 
77.581 -101.775 1009.16 
80.431 -98.5556 977.048 
80.7203 -98.4772 976.258 
81.0044 -98.3931 975.412 
81.3843 -98.4258 975.723 
81.7043 -98.3858 975.314 
82.0873 -98.4219 975.659 
82.4552 -98.4395 975.821 
82.7439 -98.363 975.049 
83.0389 -98.2944 974.356 
83.3373 -98.2306 973.711 
83.7479 -98.2988 974.375 
84.1236 -98.3258 974.63 
84.4419 -98.2857 974.22 
84.7822 -98.2715 974.066 
85.1327 -98.2691 974.03 
85.4719 -98.2539 973.866 
85.7926 -98.2174 973.492 
86.1859 -98.2642 973.943 
86.5192 -98.2424 973.714 
86.8735 -98.2446 973.723 
87.2114 -98.2281 973.548 
87.5696 -98.2347 973.6 
87.8587 -98.164 972.887 
88.1781 -98.1276 972.514 
88.5875 -98.1912 973.131 
88.9845 -98.2407 973.608 
96.3361 -101.917 1009.9 
96.7181 -101.935 1010.06 
97.0939 -101.945 1010.16 
97.4562 -101.942 1010.11 
97.8283 -101.949 1010.16 
98.1502 -101.903 1009.7 
58.1864 -102.08 1009.25 
58.5522 -102.082 1009.25 
58.9324 -102.108 1009.49 
59.3028 -102.117 1009.57 
59.6554 -102.095 1009.34 
60.0224 -102.098 1009.36 
60.3881 -102.099 1009.36 
60.7465 -102.088 1009.23 
61.1194 -102.101 1009.34 
61.4925 -102.114 1009.46 
61.8494 -102.1 1009.31 
62.2047 -102.084 1009.14 
62.5762 -102.094 1009.23 
62.9561 -102.118 1009.45 
63.3239 -102.122 1009.48 
63.6837 -102.114 1009.38 
64.0401 -102.1 1009.23 
64.4118 -102.11 1009.32 
64.7983 -102.144 1009.64 
65.1942 -102.192 1010.1 
65.5269 -102.14 1009.58 
65.8736 -102.112 1009.28 
66.2642 -102.151 1009.65 
66.6142 -102.127 1009.41 
66.9818 -102.131 1009.43 
67.3704 -102.166 1009.77 
67.7485 -102.186 1009.94 
68.1149 -102.187 1009.94 
68.437 -102.123 1009.29 
68.8071 -102.13 1009.35 
69.1655 -102.12 1009.24 
69.5322 -102.122 1009.25 
69.9119 -102.143 1009.44 
70.2844 -102.154 1009.53 
70.644 -102.145 1009.44 
71.0261 -102.17 1009.67 
71.4099 -102.196 1009.91 
71.7745 -102.195 1009.89 
72.1285 -102.179 1009.72 
72.4976 -102.184 1009.75 
72.838 -102.149 1009.39 
73.2315 -102.188 1009.77 
73.605 -102.2 1009.87 
73.953 -102.176 1009.62 
74.3119 -102.167 1009.52 
74.6841 -102.176 1009.6 
75.0424 -102.167 1009.49 
75.4317 -102.199 1009.8 
75.8045 -102.209 1009.88 
76.1632 -102.2 1009.78 
76.5306 -102.203 1009.79 
76.9126 -102.225 1010 
77.275 -102.221 1009.94 
77.5882 -102.152 1009.25 
80.3267 -98.7832 975.774 
80.6844 -98.7888 975.817 
81.0021 -98.7456 975.378 
81.3459 -98.7345 975.255 
81.7518 -98.7985 975.874 
82.0813 -98.7699 975.579 
82.4491 -98.7876 975.741 
82.7379 -98.7108 974.97 
83.0296 -98.6381 974.239 
83.3864 -98.6432 974.276 
83.7352 -98.6387 974.219 
84.0413 -98.5842 973.668 
84.388 -98.5774 973.589 
84.7761 -98.619 973.987 
85.1436 -98.6364 974.146 
85.4523 -98.5859 973.634 
85.8039 -98.5849 973.612 
86.1479 -98.5753 973.504 
86.4924 -98.5664 973.404 
86.8571 -98.5805 973.53 
87.2143 -98.5859 973.571 
87.5343 -98.5495 973.199 
87.8481 -98.5064 972.76 
88.1961 -98.5018 972.703 
88.5285 -98.48 972.474 
88.8689 -98.4671 972.335 
96.3621 -102.313 1010.17 
96.7261 -102.311 1010.14 
97.0817 -102.3 1010.02 
97.429 -102.281 1009.81 
97.8126 -102.3 1009.99 
98.153 -102.274 1009.72 
57.4638 -102.462 1009.42 
57.8287 -102.462 1009.4 
58.187 -102.45 1009.27 
58.5522 -102.45 1009.25 
58.9276 -102.467 1009.41 
59.2976 -102.476 1009.48 
59.6616 -102.474 1009.45 
60.0321 -102.483 1009.52 
60.3963 -102.481 1009.49 
60.7466 -102.456 1009.23 
61.1193 -102.468 1009.34 
61.485 -102.469 1009.34 
61.8448 -102.46 1009.24 
62.2065 -102.454 1009.17 
62.558 -102.432 1008.93 
62.9375 -102.456 1009.15 
63.324 -102.49 1009.48 
63.6782 -102.473 1009.29 
64.0309 -102.453 1009.08 
64.41 -102.475 1009.29 
64.8101 -102.53 1009.82 
65.1965 -102.563 1010.13 
65.5259 -102.507 1009.56 
65.8757 -102.483 1009.31 
66.255 -102.505 1009.51 
66.6141 -102.495 1009.4 
66.9913 -102.513 1009.57 
67.3863 -102.559 1010 
67.7492 -102.555 1009.95 
68.1063 -102.542 1009.81 
68.4314 -102.482 1009.21 
68.7998 -102.487 1009.24 
69.1656 -102.488 1009.24 
69.5408 -102.502 1009.37 
69.9327 -102.541 1009.74 
70.2834 -102.52 1009.52 
70.6515 -102.524 1009.54 
71.0336 -102.548 1009.77 
71.387 -102.531 1009.59 
71.7775 -102.567 1009.93 
72.1409 -102.564 1009.88 
72.5046 -102.562 1009.85 
72.8485 -102.532 1009.54 
73.2357 -102.562 1009.82 
73.6034 -102.565 1009.84 
73.948 -102.537 1009.54 
74.304 -102.524 1009.4 
74.678 -102.536 1009.51 
75.0427 -102.535 1009.49 
75.4211 -102.553 1009.65 
75.7912 -102.559 1009.7 
76.1682 -102.575 1009.84 
76.5324 -102.573 1009.81 
76.9082 -102.587 1009.93 
77.2658 -102.577 1009.82 
77.5787 -102.507 1009.12 
80.4104 -99.2418 976.783 
80.7083 -99.1736 976.099 
80.9725 -99.0645 975.013 
81.3399 -99.0823 975.175 
81.693 -99.0825 975.164 
82.04 -99.0753 975.08 
82.4064 -99.0915 975.228 
82.7241 -99.0493 974.799 
83.0302 -98.9937 974.239 
83.3635 -98.9708 974.001 
83.7125 -98.9667 973.948 
84.0352 -98.9315 973.589 
84.4025 -98.9491 973.749 
84.7602 -98.9552 973.797 
85.1374 -98.984 974.067 
85.4223 -98.9056 973.283 
85.778 -98.9096 973.31 
86.1416 -98.9226 973.425 
86.5068 -98.9373 973.557 
86.8566 -98.9344 973.516 
87.208 -98.9333 973.492 
87.528 -98.8968 973.12 
87.8519 -98.8648 972.793 
88.1616 -98.8173 972.313 
88.5222 -98.827 972.396 
88.8337 -98.782 971.94 
96.3954 -102.716 1010.5 
96.7072 -102.659 1009.93 
97.0736 -102.66 1009.92 
97.4345 -102.655 1009.86 
97.8165 -102.672 1010.02 
98.1596 -102.648 1009.77 
98.551 -102.675 1010.03 
56.7154 -102.798 1009.13 
57.0955 -102.825 1009.38 
57.4677 -102.837 1009.49 
57.8299 -102.832 1009.42 
58.1867 -102.817 1009.26 
58.5478 -102.81 1009.18 
58.9275 -102.835 1009.41 
59.3038 -102.855 1009.59 
59.6552 -102.831 1009.34 
60.0321 -102.851 1009.52 
60.3906 -102.839 1009.4 
60.7516 -102.832 1009.31 
61.1175 -102.833 1009.31 
61.482 -102.832 1009.29 
61.843 -102.825 1009.21 
62.2032 -102.817 1009.11 
62.5434 -102.776 1008.7 
62.929 -102.81 1009.01 
63.3346 -102.876 1009.65 
63.6973 -102.871 1009.59 
64.0328 -102.824 1009.11 
64.4133 -102.848 1009.34 
64.8262 -102.924 1010.07 
65.1864 -102.915 1009.97 
65.5327 -102.885 1009.66 
65.9035 -102.894 1009.73 
66.2552 -102.873 1009.51 
66.607 -102.852 1009.29 
66.9808 -102.865 1009.41 
67.3733 -102.907 1009.8 
67.7392 -102.908 1009.8 
68.088 -102.883 1009.54 
68.4387 -102.861 1009.31 
68.8013 -102.857 1009.26 
69.164 -102.853 1009.21 
69.5539 -102.89 1009.56 
69.9534 -102.94 1010.03 
70.2896 -102.897 1009.6 
70.6466 -102.885 1009.47 
71.0251 -102.904 1009.64 
71.3744 -102.881 1009.4 
71.7545 -102.902 1009.6 
72.1422 -102.934 1009.9 
72.5052 -102.931 1009.85 
72.8562 -102.91 1009.64 
73.2292 -102.921 1009.73 
73.5972 -102.925 1009.75 
73.949 -102.906 1009.55 
74.3081 -102.897 1009.46 
74.6656 -102.886 1009.34 
75.0386 -102.897 1009.43 
75.4118 -102.908 1009.52 
75.7784 -102.91 1009.52 
76.1695 -102.944 1009.85 
76.5384 -102.949 1009.88 
76.9053 -102.951 1009.89 
77.2626 -102.94 1009.77 
77.5813 -102.878 1009.15 
80.3346 -99.5037 975.856 
80.7545 -99.586 976.65 
80.9665 -99.4123 974.933 
81.3339 -99.4302 975.096 
81.7015 -99.448 975.258 
82.0452 -99.4368 975.135 
82.3562 -99.3862 974.626 
82.718 -99.397 974.72 
83.0433 -99.3642 974.385 
83.3574 -99.3182 973.922 
83.7047 -99.312 973.848 
84.0511 -99.3049 973.766 
84.414 -99.3171 973.873 
84.7334 -99.2784 973.48 
85.1312 -99.3315 973.988 
85.4335 -99.273 973.402 
85.7603 -99.2436 973.101 
86.1098 -99.2405 973.057 
86.4837 -99.2654 973.289 
86.8446 -99.2752 973.372 
87.1926 -99.2703 973.311 
87.5195 -99.2414 973.016 
87.8724 -99.2422 973.011 
88.1589 -99.1683 972.274 
88.489 -99.144 972.022 
88.8712 -99.1778 972.342 
96.403 -103.092 1010.57 
96.7215 -103.042 1010.07 
97.0503 -103.003 1009.67 
97.3982 -102.984 1009.47 
97.792 -103.014 1009.75 
98.173 -103.03 1009.9 
98.575 -103.068 1010.26 
56.3402 -103.147 1008.96 
56.714 -103.163 1009.1 
57.0896 -103.182 1009.28 
57.4647 -103.2 1009.44 
57.8345 -103.208 1009.5 
58.1899 -103.191 1009.32 
58.5482 -103.179 1009.19 
58.9212 -103.192 1009.31 
59.2937 -103.205 1009.42 
59.6591 -103.206 1009.41 
60.0391 -103.231 1009.64 
60.3873 -103.202 1009.34 
60.7511 -103.199 1009.31 
61.1126 -103.193 1009.23 
61.4733 -103.186 1009.14 
61.8478 -103.201 1009.28 
62.1923 -103.167 1008.94 
62.5352 -103.13 1008.56 
62.9375 -103.192 1009.15 
63.3451 -103.261 1009.81 
63.7007 -103.245 1009.65 
64.0352 -103.195 1009.15 
64.4063 -103.205 1009.22 
64.807 -103.262 1009.77 
65.1721 -103.261 1009.75 
65.5403 -103.265 1009.78 
65.9069 -103.267 1009.78 
66.2629 -103.253 1009.63 
66.6124 -103.228 1009.37 
66.9783 -103.229 1009.37 
67.3621 -103.258 1009.63 
67.7139 -103.237 1009.42 
68.0591 -103.207 1009.11 
68.4233 -103.205 1009.08 
68.8115 -103.24 1009.41 
69.1795 -103.244 1009.43 
69.5549 -103.259 1009.57 
69.9597 -103.317 1010.12 
70.3025 -103.284 1009.78 
70.6484 -103.255 1009.49 
71.0214 -103.267 1009.59 
71.3736 -103.248 1009.39 
71.7462 -103.258 1009.48 
72.126 -103.279 1009.67 
72.4855 -103.271 1009.57 
72.8672 -103.294 1009.79 
73.2274 -103.286 1009.7 
73.591 -103.284 1009.66 
73.9452 -103.268 1009.5 
74.3092 -103.266 1009.46 
74.6533 -103.237 1009.16 
75.0182 -103.237 1009.15 
75.4072 -103.269 1009.45 
75.798 -103.304 1009.78 
76.1693 -103.312 1009.84 
76.5226 -103.296 1009.67 
76.8867 -103.294 1009.64 
77.2518 -103.294 1009.62 
77.5991 -103.269 1009.37 
80.6664 -99.8328 975.578 
80.9841 -99.7892 975.139 
81.3279 -99.7779 975.016 
81.6809 -99.7781 975.005 
81.9785 -99.7108 974.335 
82.3729 -99.7614 974.816 
82.7082 -99.7403 974.597 
83.0039 -99.6717 973.914 
83.3404 -99.6526 973.715 
83.6948 -99.6549 973.725 
84.0512 -99.6596 973.758 
84.3902 -99.6438 973.591 
84.722 -99.6195 973.341 
85.125 -99.679 973.909 
85.4397 -99.6348 973.465 
85.7511 -99.5872 972.987 
86.0916 -99.5737 972.842 
86.4673 -99.601 973.096 
86.8189 -99.6002 973.075 
87.1631 -99.591 972.973 
87.4998 -99.5734 972.788 
87.8354 -99.5547 972.593 
88.1538 -99.5167 972.209 
88.5445 -99.5603 972.622 
88.8405 -99.4975 971.996 
89.2204 -99.5288 972.289 
96.4076 -103.465 1010.61 
96.7269 -103.415 1010.11 
97.0478 -103.368 1009.63 
97.3978 -103.351 1009.46 
97.783 -103.372 1009.65 
98.1657 -103.39 1009.82 
98.5659 -103.427 1010.16 
55.6112 -103.518 1009.01 
55.9789 -103.522 1009.04 
56.3341 -103.504 1008.85 
56.7038 -103.513 1008.92 
57.0845 -103.541 1009.19 
57.4715 -103.581 1009.56 
57.8227 -103.555 1009.3 
58.1863 -103.553 1009.26 
58.5491 -103.549 1009.2 
58.918 -103.555 1009.25 
59.2931 -103.572 1009.41 
59.6633 -103.581 1009.48 
60.0338 -103.59 1009.55 
60.397 -103.586 1009.51 
60.7553 -103.575 1009.38 
61.1112 -103.559 1009.21 
61.4787 -103.563 1009.23 
61.8465 -103.567 1009.26 
62.1885 -103.528 1008.87 
62.5365 -103.5 1008.58 
62.9411 -103.566 1009.21 
63.3369 -103.616 1009.68 
63.6882 -103.593 1009.45 
64.0502 -103.588 1009.38 
64.4263 -103.605 1009.54 
64.8157 -103.644 1009.9 
65.173 -103.631 1009.76 
65.54 -103.633 1009.77 
65.902 -103.628 1009.71 
66.2506 -103.602 1009.44 
66.6067 -103.587 1009.28 
66.9829 -103.604 1009.44 
67.3607 -103.624 1009.61 
67.7046 -103.591 1009.28 
68.0417 -103.548 1008.85 
68.4266 -103.578 1009.13 
68.8169 -103.616 1009.48 
69.1862 -103.622 1009.53 
69.5543 -103.626 1009.55 
69.9496 -103.67 1009.97 
70.296 -103.642 1009.69 
70.6527 -103.63 1009.55 
71.0269 -103.643 1009.66 
71.3796 -103.624 1009.47 
71.7466 -103.627 1009.48 
72.1171 -103.634 1009.54 
72.481 -103.632 1009.51 
72.8694 -103.665 1009.81 
73.2279 -103.655 1009.7 
73.5882 -103.648 1009.62 
73.9499 -103.643 1009.56 
74.3122 -103.639 1009.5 
74.6465 -103.595 1009.07 
75.0165 -103.602 1009.12 
75.4126 -103.645 1009.52 
75.7858 -103.655 1009.61 
76.1578 -103.664 1009.69 
76.5113 -103.648 1009.52 
76.8758 -103.647 1009.49 
77.2682 -103.683 1009.83 
77.6116 -103.654 1009.53 
80.6705 -100.193 975.619 
81.0382 -100.211 975.782 
81.3998 -100.222 975.871 
81.6894 -100.144 975.099 
82.0571 -100.162 975.261 
82.3515 -100.09 974.555 
82.7022 -100.088 974.518 
83.0269 -100.054 974.177 
83.35 -100.019 973.819 
83.7008 -100.017 973.787 
84.0346 -99.9946 973.558 
84.3702 -99.9747 973.352 
84.7344 -99.9887 973.476 
85.107 -100.012 973.695 
85.4174 -99.9633 973.203 
85.7359 -99.9239 972.807 
86.071 -99.9041 972.601 
86.451 -99.9365 972.903 
86.8339 -99.9718 973.235 
87.1587 -99.9404 972.916 
87.476 -99.9006 972.516 
87.8202 -99.8917 972.416 
88.1552 -99.8724 972.216 
88.5004 -99.8648 972.129 
88.84 -99.8509 971.982 
89.1477 -99.8015 971.488 
96.4023 -103.827 1010.55 
96.7478 -103.806 1010.32 
97.0682 -103.757 1009.84 
97.4229 -103.746 1009.71 
97.7863 -103.743 1009.67 
98.1777 -103.771 1009.93 
98.5655 -103.794 1010.14 
54.9006 -103.923 1009.4 
55.2476 -103.889 1009.06 
55.6105 -103.885 1009 
55.9903 -103.912 1009.25 
56.3433 -103.889 1009.02 
56.7025 -103.879 1008.9 
57.08 -103.901 1009.11 
57.4679 -103.942 1009.5 
57.8193 -103.918 1009.24 
58.1841 -103.917 1009.22 
58.5503 -103.919 1009.23 
58.9159 -103.92 1009.22 
59.2855 -103.927 1009.28 
59.6595 -103.942 1009.42 
60.0241 -103.941 1009.39 
60.3917 -103.946 1009.42 
60.75 -103.934 1009.29 
61.1177 -103.938 1009.32 
61.4781 -103.93 1009.22 
61.8442 -103.931 1009.22 
62.1946 -103.907 1008.97 
62.5487 -103.888 1008.78 
62.9253 -103.907 1008.95 
63.3149 -103.948 1009.33 
63.6884 -103.961 1009.45 
64.061 -103.973 1009.55 
64.4335 -103.985 1009.65 
64.8052 -103.995 1009.73 
65.164 -103.984 1009.62 
65.5278 -103.982 1009.58 
65.8781 -103.958 1009.34 
66.239 -103.951 1009.26 
66.6049 -103.952 1009.26 
66.9982 -103.996 1009.66 
67.3688 -104.004 1009.73 
67.704 -103.958 1009.27 
68.0345 -103.905 1008.74 
68.4237 -103.941 1009.08 
68.8166 -103.983 1009.47 
69.1804 -103.981 1009.44 
69.5485 -103.985 1009.47 
69.9355 -104.018 1009.77 
70.3009 -104.018 1009.75 
70.6604 -104.009 1009.65 
71.0317 -104.018 1009.73 
71.3924 -104.011 1009.65 
71.7407 -103.986 1009.39 
72.1143 -103.998 1009.49 
72.5048 -104.034 1009.83 
72.8701 -104.034 1009.82 
73.2309 -104.027 1009.74 
73.5968 -104.028 1009.73 
73.9473 -104.007 1009.52 
74.2985 -103.987 1009.31 
74.656 -103.976 1009.19 
75.0217 -103.977 1009.18 
75.3988 -103.993 1009.33 
75.7912 -104.031 1009.68 
76.1531 -104.026 1009.62 
76.4953 -103.994 1009.3 
76.8741 -104.013 1009.46 
77.2684 -104.052 1009.83 
77.6273 -104.043 1009.73 
77.8966 -103.915 1008.47 
80.7166 -100.606 976.17 
80.9485 -100.455 974.695 
81.4 -100.577 975.866 
81.6834 -100.491 975.02 
81.9664 -100.406 974.176 
82.3543 -100.449 974.581 
82.6808 -100.417 974.259 
83.0118 -100.391 973.992 
83.3122 -100.328 973.37 
83.688 -100.356 973.631 
84.0005 -100.309 973.156 
84.3331 -100.285 972.916 
84.7142 -100.319 973.236 
85.0962 -100.354 973.563 
85.4053 -100.304 973.056 
85.7114 -100.25 972.521 
86.0554 -100.24 972.417 
86.439 -100.277 972.761 
86.8197 -100.31 973.067 
87.1469 -100.281 972.775 
87.4776 -100.257 972.524 
87.7906 -100.212 972.08 
88.1501 -100.221 972.151 
88.485 -100.201 971.951 
88.8064 -100.167 971.605 
89.1754 -100.186 971.781 
96.4031 -104.196 1010.54 
96.737 -104.162 1010.2 
97.0837 -104.142 1009.99 
97.4274 -104.118 1009.75 
97.7685 -104.092 1009.48 
98.1766 -104.137 1009.91 
98.544 -104.139 1009.91 
98.8983 -104.127 1009.78 
54.5268 -104.275 1009.26 
54.8935 -104.278 1009.28 
55.2522 -104.266 1009.14 
55.6129 -104.257 1009.05 
55.9864 -104.273 1009.19 
56.3473 -104.265 1009.1 
56.7016 -104.245 1008.89 
57.0782 -104.266 1009.08 
57.4635 -104.303 1009.42 
57.811 -104.271 1009.1 
58.1715 -104.263 1009 
58.5427 -104.273 1009.1 
58.9184 -104.292 1009.26 
59.2854 -104.295 1009.28 
59.6452 -104.286 1009.17 
60.0205 -104.303 1009.33 
60.3931 -104.316 1009.44 
60.7525 -104.306 1009.33 
61.1266 -104.321 1009.46 
61.4818 -104.304 1009.28 
61.8411 -104.294 1009.17 
62.2015 -104.286 1009.08 
62.5589 -104.273 1008.94 
62.9317 -104.286 1009.05 
63.298 -104.288 1009.06 
63.6762 -104.309 1009.25 
64.0693 -104.355 1009.68 
64.4484 -104.377 1009.88 
64.7979 -104.351 1009.62 
65.1534 -104.336 1009.45 
65.5141 -104.328 1009.37 
65.8541 -104.288 1008.97 
66.2223 -104.293 1009 
66.5986 -104.311 1009.16 
67.0109 -104.384 1009.85 
67.3722 -104.377 1009.78 
67.7017 -104.322 1009.23 
68.0482 -104.293 1008.94 
68.4293 -104.318 1009.16 
68.8079 -104.338 1009.34 
69.1712 -104.335 1009.3 
69.5397 -104.34 1009.34 
69.944 -104.398 1009.89 
70.3044 -104.391 1009.8 
70.6364 -104.341 1009.31 
71.0308 -104.384 1009.71 
71.4066 -104.399 1009.84 
71.7382 -104.35 1009.35 
72.1034 -104.35 1009.34 
72.5087 -104.408 1009.88 
72.8673 -104.398 1009.77 
73.2228 -104.384 1009.62 
73.6013 -104.402 1009.79 
73.9514 -104.381 1009.57 
74.3048 -104.364 1009.39 
74.672 -104.367 1009.4 
75.0197 -104.342 1009.15 
75.4003 -104.363 1009.35 
75.7884 -104.395 1009.64 
76.1417 -104.378 1009.46 
76.4968 -104.364 1009.31 
76.8617 -104.364 1009.3 
77.2622 -104.411 1009.74 
77.6216 -104.403 1009.65 
77.9136 -104.305 1008.69 
80.7105 -100.954 976.09 
80.9424 -100.803 974.615 
81.3566 -100.879 975.339 
81.6773 -100.839 974.94 
81.9603 -100.753 974.097 
82.3277 -100.771 974.258 
82.6657 -100.753 974.073 
82.9979 -100.729 973.822 
83.3123 -100.683 973.363 
83.6819 -100.703 973.552 
83.9886 -100.649 973.009 
84.3282 -100.634 972.851 
84.6996 -100.657 973.06 
85.0519 -100.657 973.048 
85.3977 -100.649 972.962 
85.6905 -100.579 972.276 
86.0656 -100.606 972.524 
86.4328 -100.624 972.682 
86.7842 -100.623 972.661 
87.117 -100.601 972.433 
87.4592 -100.59 972.311 
87.8181 -100.598 972.375 
88.146 -100.57 972.096 
88.4757 -100.545 971.84 
88.7621 -100.471 971.112 
89.169 -100.533 971.703 
96.4044 -104.566 1010.55 
96.7274 -104.52 1010.09 
97.0998 -104.527 1010.14 
97.429 -104.488 1009.75 
97.766 -104.457 1009.44 
98.1573 -104.485 1009.7 
98.5317 -104.494 1009.77 
98.8912 -104.487 1009.7 
53.7899 -104.631 1009.17 
54.1574 -104.635 1009.2 
54.5187 -104.628 1009.12 
54.8908 -104.641 1009.23 
55.2545 -104.638 1009.19 
55.601 -104.603 1008.84 
55.9781 -104.626 1009.04 
56.3481 -104.635 1009.11 
56.7117 -104.632 1009.07 
57.0687 -104.617 1008.92 
57.4588 -104.663 1009.34 
57.8101 -104.637 1009.08 
58.1708 -104.629 1008.99 
58.5454 -104.646 1009.14 
58.9237 -104.67 1009.36 
59.2877 -104.668 1009.32 
59.6446 -104.653 1009.17 
60.0131 -104.659 1009.21 
60.3844 -104.669 1009.3 
60.7543 -104.677 1009.36 
61.1215 -104.681 1009.38 
61.4746 -104.66 1009.17 
61.8433 -104.666 1009.21 
62.2119 -104.672 1009.25 
62.573 -104.665 1009.17 
62.924 -104.641 1008.93 
63.2803 -104.627 1008.78 
63.66 -104.651 1009 
64.0796 -104.74 1009.84 
64.4434 -104.737 1009.8 
64.7889 -104.705 1009.48 
65.1429 -104.687 1009.29 
65.4972 -104.669 1009.11 
65.8399 -104.633 1008.75 
66.223 -104.662 1009.01 
66.6244 -104.719 1009.55 
67.0013 -104.737 1009.71 
67.3541 -104.718 1009.51 
67.6915 -104.674 1009.08 
68.0538 -104.67 1009.02 
68.4123 -104.66 1008.91 
68.8024 -104.698 1009.26 
69.1606 -104.687 1009.14 
69.5548 -104.731 1009.55 
69.9527 -104.779 1010.01 
70.3018 -104.755 1009.76 
70.6282 -104.697 1009.19 
71.0292 -104.75 1009.68 
71.4057 -104.766 1009.83 
71.7284 -104.704 1009.21 
72.0876 -104.695 1009.11 
72.4964 -104.758 1009.71 
72.8736 -104.775 1009.86 
73.2285 -104.76 1009.7 
73.6152 -104.79 1009.98 
73.9486 -104.745 1009.52 
74.2966 -104.72 1009.28 
74.667 -104.727 1009.33 
75.0228 -104.714 1009.19 
75.3969 -104.726 1009.29 
75.7868 -104.76 1009.61 
76.1553 -104.765 1009.64 
76.501 -104.738 1009.36 
76.8598 -104.729 1009.27 
77.2492 -104.762 1009.57 
77.6031 -104.746 1009.4 
77.9166 -104.676 1008.72 
80.6259 -101.203 975.06 
81.3038 -101.169 974.698 
81.6138 -101.116 974.175 
81.9951 -101.151 974.502 
82.3417 -101.143 974.417 
82.6377 -101.074 973.735 
82.9878 -101.071 973.696 
83.3061 -101.03 973.284 
83.6556 -101.026 973.239 
83.9764 -100.988 972.86 
84.3273 -100.987 972.833 
84.6804 -100.988 972.831 
85.0476 -101.006 972.99 
85.3959 -101.001 972.933 
85.7042 -100.95 972.422 
86.0265 -100.915 972.074 
86.4014 -100.942 972.321 
86.7773 -100.969 972.575 
87.1114 -100.949 972.362 
87.4649 -100.95 972.366 
87.8116 -100.944 972.294 
88.1298 -100.906 971.909 
88.4403 -100.859 971.443 
88.7739 -100.838 971.233 
89.1312 -100.844 971.282 
96.4097 -104.94 1010.59 
96.7293 -104.89 1010.1 
97.0908 -104.885 1010.04 
97.4232 -104.849 1009.68 
97.7765 -104.836 1009.54 
98.1556 -104.851 1009.67 
98.5282 -104.858 1009.73 
98.8949 -104.859 1009.73 
53.4209 -104.992 1009.12 
53.799 -105.017 1009.35 
54.1602 -105.009 1009.26 
54.5163 -104.992 1009.07 
54.8889 -105.006 1009.2 
55.2597 -105.017 1009.29 
55.608 -104.985 1008.97 
55.9757 -104.99 1009 
56.3488 -105.004 1009.13 
56.7123 -105.001 1009.09 
57.0685 -104.985 1008.91 
57.4486 -105.012 1009.16 
57.8095 -105.005 1009.08 
58.1721 -105 1009.02 
58.5486 -105.02 1009.2 
58.9217 -105.034 1009.32 
59.2797 -105.022 1009.19 
59.6417 -105.016 1009.12 
60.0095 -105.021 1009.15 
60.3855 -105.039 1009.32 
60.7581 -105.052 1009.43 
61.1192 -105.045 1009.34 
61.4772 -105.033 1009.21 
61.8419 -105.032 1009.19 
62.2065 -105.031 1009.16 
62.5771 -105.04 1009.24 
62.9296 -105.018 1009.02 
63.2841 -105.001 1008.84 
63.65 -105.002 1008.84 
64.0569 -105.071 1009.48 
64.432 -105.087 1009.62 
64.7849 -105.067 1009.42 
65.1372 -105.046 1009.2 
65.4977 -105.038 1009.11 
65.8401 -105.002 1008.75 
66.2297 -105.041 1009.11 
66.6321 -105.099 1009.66 
66.9919 -105.091 1009.56 
67.337 -105.059 1009.25 
67.6886 -105.038 1009.03 
68.0642 -105.054 1009.17 
68.419 -105.038 1009 
68.8063 -105.072 1009.32 
69.1743 -105.076 1009.34 
69.5464 -105.086 1009.43 
69.9519 -105.146 1009.99 
70.2971 -105.116 1009.69 
70.6254 -105.061 1009.14 
71.0456 -105.142 1009.91 
71.4125 -105.144 1009.92 
71.7266 -105.069 1009.18 
72.0823 -105.055 1009.03 
72.4786 -105.1 1009.46 
72.8615 -105.126 1009.69 
73.2216 -105.118 1009.6 
73.6022 -105.14 1009.79 
73.9478 -105.111 1009.51 
74.2896 -105.078 1009.18 
74.6477 -105.068 1009.07 
75.0289 -105.09 1009.27 
75.3989 -105.097 1009.32 
75.79 -105.133 1009.65 
76.153 -105.129 1009.6 
76.5057 -105.112 1009.42 
76.8588 -105.095 1009.25 
77.2338 -105.109 1009.36 
77.5997 -105.109 1009.35 
77.9281 -105.059 1008.86 
80.9304 -101.498 974.456 
81.3372 -101.566 975.092 
81.6479 -101.513 974.574 
82.0116 -101.526 974.692 
82.3006 -101.448 973.924 
82.6193 -101.406 973.512 
82.9354 -101.362 973.073 
83.2812 -101.354 972.985 
83.6371 -101.359 973.015 
83.9986 -101.37 973.11 
84.3221 -101.335 972.765 
84.6551 -101.312 972.533 
85.0426 -101.355 972.925 
85.3737 -101.33 972.673 
85.6832 -101.279 972.176 
86.0166 -101.257 971.954 
86.3957 -101.289 972.248 
86.768 -101.313 972.463 
87.0943 -101.283 972.163 
87.4533 -101.291 972.229 
87.8024 -101.288 972.185 
88.1315 -101.262 971.919 
88.4331 -101.204 971.355 
88.7327 -101.145 970.772 
89.1562 -101.227 971.546 
89.5117 -101.231 971.574 
96.3992 -105.296 1010.47 
96.7201 -105.247 1009.99 
97.0762 -105.237 1009.88 
97.4237 -105.217 1009.68 
97.776 -105.203 1009.53 
98.1378 -105.199 1009.48 
98.5043 -105.2 1009.47 
98.8948 -105.227 1009.72 
52.6896 -105.358 1009.13 
53.0496 -105.348 1009.02 
53.4057 -105.33 1008.83 
53.7968 -105.381 1009.31 
54.1577 -105.373 1009.21 
54.5139 -105.355 1009.03 
54.8844 -105.366 1009.12 
55.2578 -105.381 1009.26 
55.6111 -105.359 1009.03 
55.9717 -105.35 1008.93 
56.3429 -105.362 1009.03 
56.7136 -105.372 1009.11 
57.072 -105.36 1008.98 
57.4477 -105.379 1009.15 
57.8159 -105.385 1009.19 
58.1796 -105.382 1009.15 
58.5477 -105.387 1009.19 
58.9129 -105.387 1009.17 
59.2685 -105.37 1009 
59.64 -105.381 1009.09 
60.0049 -105.381 1009.07 
60.3797 -105.397 1009.22 
60.7591 -105.422 1009.44 
61.1142 -105.405 1009.26 
61.4732 -105.394 1009.14 
61.8415 -105.399 1009.18 
62.2075 -105.4 1009.18 
62.5702 -105.396 1009.13 
62.926 -105.381 1008.96 
63.289 -105.377 1008.92 
63.6586 -105.384 1008.97 
64.0398 -105.411 1009.21 
64.4136 -105.425 1009.33 
64.7946 -105.45 1009.56 
65.1472 -105.43 1009.35 
65.5073 -105.422 1009.26 
65.8825 -105.437 1009.4 
66.2495 -105.44 1009.41 
66.6197 -105.448 1009.47 
66.9807 -105.441 1009.39 
67.3318 -105.419 1009.17 
67.7037 -105.429 1009.25 
68.0791 -105.445 1009.39 
68.4264 -105.417 1009.11 
68.8148 -105.453 1009.44 
69.1735 -105.443 1009.33 
69.5442 -105.451 1009.39 
69.9262 -105.476 1009.62 
70.2769 -105.454 1009.4 
70.6328 -105.44 1009.25 
71.0439 -105.508 1009.89 
71.392 -105.482 1009.63 
71.732 -105.445 1009.25 
72.0926 -105.438 1009.18 
72.4687 -105.454 1009.31 
72.8665 -105.501 1009.75 
73.2265 -105.493 1009.66 
73.5976 -105.501 1009.73 
73.9316 -105.456 1009.28 
74.2718 -105.421 1008.93 
74.6332 -105.415 1008.87 
75.039 -105.472 1009.4 
75.411 -105.482 1009.47 
75.7966 -105.51 1009.73 
76.1551 -105.5 1009.62 
76.4952 -105.465 1009.28 
76.8745 -105.485 1009.45 
77.2545 -105.505 1009.63 
77.5882 -105.461 1009.2 
77.9282 -105.427 1008.86 
80.5571 -101.827 974.214 
80.9244 -101.845 974.377 
81.3958 -101.994 975.788 
81.6591 -101.882 974.702 
82.0055 -101.874 974.612 
82.2945 -101.795 973.844 
82.6449 -101.793 973.806 
82.9642 -101.752 973.403 
83.2834 -101.711 973.003 
83.6362 -101.712 972.997 
83.9712 -101.691 972.784 
84.3016 -101.665 972.521 
84.6395 -101.648 972.345 
85.0077 -101.667 972.519 
85.3796 -101.691 972.731 
85.7008 -101.654 972.368 
86.0417 -101.641 972.23 
86.4103 -101.661 972.404 
86.7515 -101.648 972.27 
87.0808 -101.621 972.004 
87.4313 -101.62 971.976 
87.7767 -101.612 971.891 
88.1293 -101.613 971.887 
88.4367 -101.562 971.385 
88.7612 -101.531 971.076 
89.0714 -101.484 970.612 
89.46 -101.526 971.003 
96.425 -105.693 1010.73 
96.7273 -105.623 1010.06 
97.082 -105.611 1009.93 
97.4294 -105.591 1009.73 
97.7872 -105.583 1009.63 
98.1379 -105.567 1009.47 
98.4991 -105.562 1009.41 
98.9002 -105.6 1009.76 
99.2877 -105.624 1009.97 
52.3096 -105.697 1008.86 
52.6936 -105.735 1009.21 
53.0487 -105.715 1009.01 
53.3988 -105.685 1008.71 
53.7877 -105.732 1009.14 
54.1543 -105.735 1009.16 
54.5135 -105.723 1009.03 
54.884 -105.733 1009.12 
55.2535 -105.742 1009.18 
55.617 -105.738 1009.14 
55.9769 -105.729 1009.03 
56.3422 -105.729 1009.02 
56.7028 -105.72 1008.92 
57.0657 -105.716 1008.87 
57.4494 -105.75 1009.18 
57.8137 -105.749 1009.15 
58.1745 -105.741 1009.07 
58.5384 -105.739 1009.03 
58.8985 -105.729 1008.93 
59.2653 -105.732 1008.94 
59.6338 -105.738 1008.99 
60.0005 -105.741 1009 
60.3864 -105.777 1009.33 
60.7627 -105.797 1009.5 
61.1116 -105.768 1009.22 
61.4713 -105.759 1009.11 
61.8399 -105.765 1009.16 
62.2019 -105.759 1009.09 
62.5662 -105.758 1009.06 
62.9308 -105.757 1009.04 
63.2904 -105.747 1008.94 
63.6596 -105.754 1008.99 
64.0283 -105.76 1009.03 
64.398 -105.767 1009.09 
64.7872 -105.807 1009.45 
65.1422 -105.79 1009.27 
65.5261 -105.82 1009.55 
65.9151 -105.858 1009.9 
66.2532 -105.814 1009.47 
66.5986 -105.783 1009.15 
66.974 -105.799 1009.29 
67.346 -105.809 1009.38 
67.71 -105.807 1009.34 
68.0844 -105.821 1009.47 
68.4446 -105.813 1009.38 
68.8193 -105.828 1009.5 
69.1787 -105.819 1009.4 
69.5265 -105.792 1009.13 
69.9082 -105.817 1009.36 
70.2838 -105.832 1009.49 
70.6493 -105.833 1009.48 
71.0397 -105.87 1009.82 
71.3756 -105.826 1009.39 
71.7347 -105.817 1009.29 
72.1056 -105.825 1009.35 
72.4605 -105.81 1009.2 
72.8556 -105.853 1009.6 
73.2328 -105.87 1009.74 
73.5767 -105.839 1009.43 
73.9166 -105.803 1009.07 
74.2787 -105.798 1009.02 
74.6418 -105.795 1008.98 
75.0336 -105.833 1009.32 
75.4296 -105.876 1009.72 
75.785 -105.862 1009.57 
76.1352 -105.841 1009.36 
76.4743 -105.804 1009 
76.8854 -105.868 1009.59 
77.2746 -105.9 1009.88 
77.5991 -105.844 1009.34 
77.9242 -105.79 1008.8 
80.5511 -102.174 974.135 
80.9183 -102.193 974.297 
81.2856 -102.211 974.46 
81.6967 -102.284 975.143 
81.9994 -102.222 974.533 
82.2716 -102.122 973.566 
82.6225 -102.12 973.535 
82.9461 -102.084 973.183 
83.2828 -102.065 972.989 
83.6245 -102.052 972.853 
83.965 -102.038 972.705 
84.2916 -102.007 972.398 
84.6459 -102.01 972.412 
85.0185 -102.035 972.634 
85.3578 -102.019 972.476 
85.6932 -101.999 972.274 
86.0473 -102.002 972.284 
86.396 -101.998 972.235 
86.7409 -101.99 972.143 
87.0759 -101.97 971.941 
87.3986 -101.936 971.604 
87.7432 -101.928 971.512 
88.0997 -101.933 971.552 
88.4334 -101.912 971.341 
88.7464 -101.868 970.905 
89.0692 -101.835 970.579 
89.4318 -101.848 970.688 
96.4292 -106.066 1010.77 
96.7143 -105.977 1009.91 
97.0626 -105.958 1009.72 
97.4278 -105.958 1009.7 
97.7952 -105.96 1009.71 
98.1494 -105.947 1009.58 
98.5024 -105.934 1009.43 
98.878 -105.945 1009.52 
99.255 -105.957 1009.63 
51.942 -106.06 1008.83 
52.3137 -106.074 1008.95 
52.6809 -106.078 1008.97 
53.0337 -106.053 1008.73 
53.4016 -106.059 1008.77 
53.7795 -106.084 1008.99 
54.142 -106.079 1008.93 
54.5068 -106.078 1008.91 
54.8855 -106.105 1009.15 
55.254 -106.111 1009.19 
55.6118 -106.097 1009.05 
55.9771 -106.097 1009.04 
56.3453 -106.103 1009.08 
56.7056 -106.094 1008.98 
57.0661 -106.085 1008.88 
57.445 -106.111 1009.11 
57.8085 -106.108 1009.07 
58.1677 -106.097 1008.95 
58.5392 -106.108 1009.04 
58.9038 -106.107 1009.02 
59.2661 -106.102 1008.96 
59.638 -106.114 1009.06 
60.0122 -106.13 1009.2 
60.3853 -106.144 1009.32 
60.7618 -106.163 1009.49 
61.1155 -106.143 1009.28 
61.4789 -106.14 1009.24 
61.8375 -106.129 1009.12 
62.2019 -106.127 1009.09 
62.5682 -106.129 1009.1 
62.9318 -106.126 1009.06 
63.2973 -106.127 1009.05 
63.6625 -106.127 1009.03 
64.018 -106.111 1008.87 
64.3904 -106.123 1008.97 
64.7794 -106.162 1009.33 
65.1413 -106.157 1009.26 
65.5338 -106.201 1009.67 
65.9104 -106.219 1009.82 
66.2379 -106.158 1009.23 
66.5798 -106.121 1008.86 
66.9694 -106.159 1009.22 
67.3468 -106.179 1009.39 
67.7016 -106.162 1009.22 
68.0588 -106.149 1009.09 
68.4435 -106.18 1009.36 
68.8079 -106.178 1009.33 
69.1729 -106.178 1009.31 
69.5317 -106.168 1009.21 
69.9132 -106.192 1009.43 
70.282 -106.198 1009.46 
70.64 -106.187 1009.34 
71.0286 -106.221 1009.66 
71.3768 -106.196 1009.4 
71.7467 -106.203 1009.45 
72.0992 -106.184 1009.26 
72.4491 -106.161 1009.03 
72.8372 -106.194 1009.34 
73.2253 -106.227 1009.64 
73.5802 -106.212 1009.48 
73.9167 -106.171 1009.07 
74.2743 -106.16 1008.95 
74.6368 -106.156 1008.91 
75.0229 -106.186 1009.17 
75.4207 -106.231 1009.59 
75.7751 -106.216 1009.43 
76.1201 -106.187 1009.15 
76.4679 -106.163 1008.91 
76.8881 -106.239 1009.62 
77.2774 -106.272 1009.91 
77.5997 -106.213 1009.34 
77.9319 -106.168 1008.89 
78.2314 -106.079 1008.03 
80.6104 -102.605 974.845 
81.0159 -102.672 975.465 
81.3837 -102.69 975.628 
81.647 -102.577 974.542 
81.9635 -102.532 974.099 
82.2655 -102.469 973.487 
82.5834 -102.426 973.067 
82.9582 -102.454 973.319 
83.3002 -102.441 973.185 
83.6425 -102.429 973.055 
83.9636 -102.391 972.681 
84.2848 -102.353 972.312 
84.6331 -102.349 972.256 
85.0031 -102.37 972.45 
85.3655 -102.383 972.556 
85.6902 -102.35 972.231 
86.0049 -102.306 971.797 
86.3613 -102.311 971.836 
86.7169 -102.316 971.865 
87.0696 -102.317 971.863 
87.3923 -102.282 971.525 
87.733 -102.27 971.391 
88.082 -102.267 971.348 
88.4468 -102.282 971.479 
88.7557 -102.232 970.999 
89.0759 -102.196 970.644 
89.4144 -102.182 970.491 
89.8713 -102.302 971.619 
96.4398 -106.446 1010.87 
96.7024 -106.332 1009.78 
97.0475 -106.309 1009.55 
97.4272 -106.325 1009.68 
97.7899 -106.322 1009.64 
98.1559 -106.322 1009.63 
98.5097 -106.309 1009.5 
98.8777 -106.312 1009.51 
99.2652 -106.336 1009.72 
51.19 -106.383 1008.44 
51.5749 -106.425 1008.81 
51.9531 -106.452 1009.06 
52.3155 -106.446 1008.99 
52.6711 -106.427 1008.79 
53.0334 -106.421 1008.73 
53.4099 -106.444 1008.93 
53.7855 -106.465 1009.11 
54.1475 -106.458 1009.04 
54.5065 -106.446 1008.91 
54.8831 -106.469 1009.11 
55.245 -106.462 1009.03 
55.6057 -106.454 1008.94 
55.9785 -106.468 1009.06 
56.3468 -106.474 1009.11 
56.699 -106.45 1008.86 
57.0705 -106.462 1008.96 
57.4418 -106.473 1009.05 
57.8098 -106.478 1009.09 
58.1555 -106.443 1008.74 
58.5277 -106.456 1008.85 
58.9097 -106.486 1009.12 
59.2726 -106.482 1009.07 
59.6353 -106.478 1009.02 
60.0031 -106.482 1009.05 
60.3915 -106.523 1009.42 
60.7591 -106.527 1009.45 
61.1142 -106.509 1009.26 
61.4803 -106.511 1009.26 
61.8348 -106.492 1009.07 
62.1981 -106.489 1009.03 
62.5673 -106.496 1009.08 
62.9285 -106.489 1009 
63.2866 -106.477 1008.88 
63.6555 -106.483 1008.92 
64.0236 -106.488 1008.96 
64.3796 -106.473 1008.8 
64.7645 -106.506 1009.09 
65.1276 -106.502 1009.05 
65.5236 -106.552 1009.51 
65.8964 -106.564 1009.61 
66.2354 -106.522 1009.19 
66.5859 -106.498 1008.96 
66.9677 -106.525 1009.19 
67.3394 -106.535 1009.28 
67.6912 -106.514 1009.06 
68.044 -106.494 1008.86 
68.4353 -106.535 1009.23 
68.8068 -106.545 1009.31 
69.1689 -106.54 1009.25 
69.5352 -106.541 1009.25 
69.9097 -106.555 1009.37 
70.285 -106.57 1009.5 
70.6493 -106.569 1009.47 
71.0354 -106.6 1009.75 
71.3831 -106.573 1009.49 
71.7357 -106.554 1009.3 
72.0998 -106.553 1009.27 
72.4391 -106.514 1008.89 
72.8182 -106.535 1009.07 
73.2194 -106.587 1009.55 
73.589 -106.593 1009.6 
73.9146 -106.536 1009.04 
74.269 -106.52 1008.88 
74.6292 -106.513 1008.8 
75.0232 -106.554 1009.17 
75.4171 -106.594 1009.54 
75.7699 -106.577 1009.36 
76.1125 -106.545 1009.04 
76.4801 -106.548 1009.06 
76.8882 -106.607 1009.61 
77.2762 -106.639 1009.89 
77.6051 -106.588 1009.4 
77.9388 -106.545 1008.98 
78.2251 -106.438 1007.95 
80.9062 -102.888 974.138 
81.3217 -102.967 974.879 
81.6409 -102.925 974.463 
81.9789 -102.906 974.275 
82.2656 -102.824 973.481 
82.558 -102.749 972.761 
82.9295 -102.773 972.974 
83.2961 -102.791 973.13 
83.6344 -102.773 972.954 
83.9675 -102.75 972.72 
84.2666 -102.685 972.095 
84.6149 -102.681 972.04 
85.0034 -102.725 972.446 
85.3619 -102.733 972.507 
85.6889 -102.703 972.209 
86.0167 -102.674 971.923 
86.3597 -102.663 971.81 
86.7097 -102.661 971.776 
87.067 -102.668 971.825 
87.4002 -102.646 971.605 
87.7569 -102.651 971.646 
88.0945 -102.635 971.477 
88.424 -102.609 971.221 
88.7203 -102.545 970.603 
89.0522 -102.523 970.377 
89.4244 -102.547 970.591 
89.8429 -102.623 971.304 
96.6945 -106.691 1009.68 
97.0455 -106.675 1009.52 
97.423 -106.688 1009.63 
97.7826 -106.682 1009.56 
98.1505 -106.684 1009.57 
98.5144 -106.682 1009.54 
98.8905 -106.694 1009.63 
99.2727 -106.712 1009.79 
99.6361 -106.709 1009.75 
50.8265 -106.755 1008.49 
51.1978 -106.768 1008.6 
51.5849 -106.814 1009.02 
51.9572 -106.829 1009.14 
52.3099 -106.803 1008.89 
52.6663 -106.785 1008.7 
53.0294 -106.781 1008.65 
53.4125 -106.818 1008.98 
53.7828 -106.828 1009.06 
54.1408 -106.814 1008.92 
54.5045 -106.811 1008.88 
54.8712 -106.814 1008.89 
55.2334 -106.808 1008.83 
55.6005 -106.812 1008.85 
55.9859 -106.851 1009.2 
56.3435 -106.836 1009.05 
56.7012 -106.822 1008.9 
57.0769 -106.842 1009.08 
57.445 -106.847 1009.11 
57.8058 -106.839 1009.02 
58.1614 -106.822 1008.84 
58.5336 -106.835 1008.95 
58.9092 -106.854 1009.12 
59.2748 -106.854 1009.11 
59.6287 -106.834 1008.91 
60.0028 -106.85 1009.04 
60.3819 -106.875 1009.26 
60.7547 -106.888 1009.37 
61.111 -106.872 1009.21 
61.4823 -106.883 1009.3 
61.8419 -106.873 1009.19 
62.1985 -106.858 1009.04 
62.5639 -106.858 1009.03 
62.9242 -106.85 1008.93 
63.2868 -106.846 1008.88 
63.6569 -106.854 1008.95 
64.0249 -106.859 1008.98 
64.3916 -106.861 1008.99 
64.7688 -106.881 1009.16 
65.124 -106.864 1008.99 
65.4874 -106.862 1008.95 
65.8969 -106.933 1009.61 
66.2442 -106.904 1009.32 
66.5844 -106.864 1008.93 
66.9607 -106.882 1009.09 
67.3337 -106.894 1009.19 
67.6855 -106.873 1008.97 
68.0353 -106.849 1008.73 
68.4237 -106.885 1009.06 
68.7992 -106.901 1009.2 
69.1728 -106.914 1009.31 
69.5474 -106.928 1009.43 
69.9138 -106.93 1009.43 
70.2906 -106.947 1009.58 
70.6463 -106.932 1009.43 
71.0256 -106.953 1009.61 
71.3837 -106.942 1009.5 
71.7298 -106.914 1009.21 
72.0755 -106.884 1008.92 
72.4303 -106.869 1008.76 
72.8178 -106.902 1009.06 
73.2014 -106.929 1009.3 
73.5783 -106.946 1009.45 
73.9312 -106.928 1009.26 
74.2753 -106.897 1008.96 
74.6352 -106.889 1008.88 
75.0119 -106.906 1009.02 
75.3988 -106.937 1009.29 
75.7708 -106.946 1009.37 
76.1394 -106.95 1009.4 
76.4968 -106.939 1009.28 
76.885 -106.971 1009.57 
77.2639 -106.99 1009.73 
77.6077 -106.96 1009.43 
77.9544 -106.934 1009.18 
78.2595 -106.852 1008.39 
80.9324 -103.276 974.446 
81.3157 -103.315 974.799 
81.6348 -103.272 974.383 
81.9713 -103.252 974.177 
82.2647 -103.177 973.463 
82.5607 -103.107 972.785 
82.9225 -103.119 972.885 
83.2879 -103.135 973.027 
83.6437 -103.14 973.055 
83.9502 -103.083 972.512 
84.2604 -103.032 972.016 
84.5824 -102.996 971.659 
84.9657 -103.034 972.006 
85.3704 -103.098 972.595 
85.6969 -103.067 972.292 
86.0253 -103.038 972.012 
86.3527 -103.009 971.723 
86.6671 -102.965 971.292 
87.038 -102.987 971.493 
87.4115 -103.013 971.722 
87.7645 -103.015 971.723 
88.0903 -102.984 971.423 
88.3956 -102.93 970.901 
88.7082 -102.885 970.461 
89.0555 -102.88 970.404 
89.393 -102.864 970.241 
89.7793 -102.904 970.607 
96.7053 -107.071 1009.79 
97.0567 -107.055 1009.63 
97.4187 -107.051 1009.58 
97.7842 -107.051 1009.56 
98.1537 -107.056 1009.59 
98.5171 -107.053 1009.55 
98.9 -107.072 1009.72 
99.2871 -107.095 1009.92 
99.6353 -107.076 1009.73 
50.4708 -107.143 1008.69 
50.8324 -107.136 1008.61 
51.2004 -107.142 1008.65 
51.5844 -107.182 1009.01 
51.9469 -107.176 1008.95 
52.3018 -107.155 1008.74 
52.6599 -107.141 1008.59 
53.0432 -107.178 1008.92 
53.4296 -107.221 1009.31 
53.7851 -107.201 1009.11 
54.1337 -107.168 1008.79 
54.4984 -107.167 1008.77 
54.8627 -107.166 1008.74 
55.2204 -107.151 1008.59 
55.5895 -107.159 1008.65 
55.9761 -107.201 1009.03 
56.3475 -107.212 1009.13 
56.7102 -107.208 1009.07 
57.0846 -107.225 1009.22 
57.4307 -107.189 1008.87 
57.8095 -107.215 1009.09 
58.1639 -107.195 1008.89 
58.5289 -107.194 1008.87 
58.8981 -107.202 1008.93 
59.2659 -107.207 1008.96 
59.6289 -107.203 1008.91 
59.9951 -107.205 1008.92 
60.3785 -107.237 1009.21 
60.7515 -107.251 1009.32 
61.1073 -107.234 1009.15 
61.4699 -107.229 1009.09 
61.8508 -107.256 1009.34 
62.2057 -107.238 1009.15 
62.5655 -107.229 1009.05 
62.9214 -107.213 1008.89 
63.284 -107.209 1008.84 
63.6537 -107.217 1008.89 
64.0302 -107.236 1009.06 
64.4035 -107.249 1009.17 
64.7642 -107.242 1009.09 
65.1164 -107.22 1008.87 
65.4701 -107.201 1008.68 
65.9007 -107.308 1009.67 
66.2599 -107.298 1009.56 
66.5878 -107.238 1008.98 
66.9526 -107.237 1008.96 
67.3141 -107.231 1008.89 
67.6853 -107.241 1008.97 
68.0456 -107.233 1008.88 
68.4249 -107.255 1009.08 
68.7897 -107.254 1009.06 
69.1796 -107.292 1009.4 
69.5559 -107.309 1009.55 
69.9053 -107.285 1009.31 
70.2869 -107.31 1009.52 
70.6564 -107.316 1009.57 
71.0163 -107.307 1009.48 
71.3708 -107.291 1009.31 
71.72 -107.267 1009.07 
72.072 -107.247 1008.87 
72.4387 -107.249 1008.88 
72.807 -107.254 1008.91 
73.2015 -107.297 1009.3 
73.5729 -107.306 1009.37 
73.9279 -107.291 1009.21 
74.2896 -107.285 1009.15 
74.6488 -107.277 1009.05 
75.0107 -107.272 1009 
75.3634 -107.254 1008.81 
75.7746 -107.319 1009.41 
76.1397 -107.319 1009.4 
76.5107 -107.327 1009.46 
76.8908 -107.347 1009.64 
77.262 -107.355 1009.7 
77.6021 -107.32 1009.35 
77.9481 -107.293 1009.09 
78.2839 -107.253 1008.7 
81.2614 -103.601 974.142 
81.6287 -103.62 974.304 
81.9636 -103.597 974.078 
82.2609 -103.527 973.411 
82.575 -103.479 972.947 
82.926 -103.478 972.919 
83.3006 -103.506 973.167 
83.6239 -103.47 972.818 
83.9485 -103.436 972.485 
84.2605 -103.386 972.009 
84.5762 -103.342 971.581 
84.9541 -103.374 971.866 
85.3607 -103.44 972.477 
85.7033 -103.429 972.357 
86.0438 -103.415 972.213 
86.3511 -103.361 971.697 
86.647 -103.295 971.058 
87.0064 -103.304 971.133 
87.3865 -103.338 971.437 
87.7572 -103.36 971.634 
88.0758 -103.321 971.255 
88.3964 -103.285 970.901 
88.7314 -103.266 970.708 
89.0719 -103.253 970.574 
89.4061 -103.233 970.375 
89.7661 -103.243 970.456 
96.7213 -107.457 1009.95 
97.0532 -107.419 1009.58 
97.3954 -107.394 1009.32 
97.7749 -107.409 1009.46 
98.1391 -107.407 1009.43 
98.5236 -107.428 1009.61 
98.8951 -107.435 1009.66 
99.2777 -107.453 1009.82 
99.6232 -107.431 1009.6 
50.1047 -107.51 1008.69 
50.4684 -107.507 1008.65 
50.8358 -107.512 1008.69 
51.2019 -107.514 1008.69 
51.5672 -107.514 1008.68 
51.9291 -107.508 1008.61 
52.2991 -107.518 1008.69 
52.6656 -107.521 1008.7 
53.0469 -107.554 1009 
53.4196 -107.569 1009.13 
53.7716 -107.543 1008.86 
54.1276 -107.524 1008.68 
54.4896 -107.518 1008.61 
54.8616 -107.532 1008.73 
55.2224 -107.524 1008.63 
55.5941 -107.537 1008.74 
55.9677 -107.553 1008.88 
56.348 -107.582 1009.14 
56.716 -107.587 1009.17 
57.0807 -107.586 1009.15 
57.4333 -107.563 1008.92 
57.8019 -107.569 1008.96 
58.1682 -107.571 1008.97 
58.523 -107.552 1008.78 
58.8905 -107.556 1008.8 
59.2609 -107.566 1008.88 
59.6299 -107.573 1008.93 
60.0012 -107.584 1009.02 
60.3643 -107.58 1008.97 
60.741 -107.6 1009.15 
61.1107 -107.608 1009.21 
61.4732 -107.603 1009.15 
61.8463 -107.617 1009.26 
62.2066 -107.608 1009.17 
62.5633 -107.594 1009.02 
62.9179 -107.576 1008.83 
63.2881 -107.584 1008.9 
63.6536 -107.585 1008.89 
64.0347 -107.611 1009.13 
64.4081 -107.625 1009.24 
64.7742 -107.626 1009.24 
65.1108 -107.579 1008.79 
65.4756 -107.578 1008.77 
65.8988 -107.673 1009.64 
66.2575 -107.662 1009.53 
66.5914 -107.611 1009.03 
66.9542 -107.608 1008.98 
67.308 -107.589 1008.8 
67.6742 -107.591 1008.8 
68.0538 -107.614 1009 
68.4056 -107.593 1008.79 
68.7898 -107.622 1009.06 
69.1766 -107.656 1009.36 
69.5604 -107.685 1009.61 
69.9137 -107.666 1009.42 
70.2742 -107.658 1009.34 
70.6453 -107.667 1009.41 
71.0078 -107.663 1009.35 
71.3702 -107.658 1009.3 
71.7202 -107.635 1009.07 
72.0635 -107.602 1008.75 
72.4379 -107.616 1008.86 
72.8129 -107.631 1008.99 
73.1896 -107.648 1009.13 
73.5701 -107.67 1009.32 
73.9314 -107.664 1009.26 
74.2925 -107.658 1009.19 
74.6399 -107.632 1008.93 
74.9931 -107.615 1008.75 
75.3656 -107.625 1008.84 
75.7904 -107.71 1009.62 
76.1437 -107.693 1009.44 
76.5097 -107.693 1009.44 
76.8993 -107.727 1009.74 
77.2356 -107.687 1009.35 
77.5941 -107.677 1009.24 
77.9506 -107.665 1009.12 
78.2841 -107.621 1008.69 
81.6025 -103.941 973.985 
81.9324 -103.912 973.701 
82.2662 -103.889 973.467 
82.5529 -103.806 972.679 
82.9198 -103.825 972.84 
83.2824 -103.838 972.948 
83.6264 -103.827 972.839 
83.9535 -103.796 972.535 
84.2657 -103.747 972.062 
84.5818 -103.703 971.638 
84.9591 -103.734 971.916 
85.3435 -103.774 972.273 
85.691 -103.768 972.21 
86.0676 -103.798 972.474 
86.3587 -103.725 971.776 
86.6487 -103.651 971.069 
86.9969 -103.647 971.019 
87.3733 -103.676 971.282 
87.7338 -103.687 971.367 
88.0679 -103.666 971.159 
88.3896 -103.631 970.818 
88.7228 -103.609 970.605 
89.0896 -103.627 970.759 
89.4083 -103.589 970.391 
89.7664 -103.597 970.45 
96.722 -107.825 1009.94 
97.0517 -107.786 1009.55 
97.3906 -107.756 1009.27 
97.7568 -107.757 1009.26 
98.1563 -107.794 1009.6 
98.5283 -107.801 1009.65 
98.8957 -107.803 1009.65 
99.2844 -107.828 1009.87 
99.6271 -107.803 1009.63 
49.3878 -107.907 1009 
49.7485 -107.898 1008.89 
50.1035 -107.876 1008.68 
50.4651 -107.868 1008.59 
50.8288 -107.866 1008.55 
51.1993 -107.877 1008.65 
51.5636 -107.876 1008.62 
