ply
format ascii 1.0
comment Created by CloudCompare v2.11 beta (Anoia)
comment Created 2020/4/1 下午4:13
obj_info Generated by CloudCompare!
element vertex 1861
property float x
property float y
property float z
end_header
71.4281 -91.192 1010.33 
71.8205 -91.2265 1010.7 
72.2001 -91.2443 1010.88 
72.5831 -91.2663 1011.11 
72.924 -91.2354 1010.76 
73.2746 -91.217 1010.54 
73.6292 -91.2036 1010.38 
74.0147 -91.2285 1010.64 
74.4065 -91.2608 1010.99 
74.7568 -91.2423 1010.77 
75.1098 -91.2271 1010.59 
75.4713 -91.2224 1010.52 
75.8478 -91.2357 1010.66 
32.6055 -91.3315 1009.22 
32.9784 -91.3541 1009.46 
33.351 -91.3754 1009.68 
33.708 -91.3538 1009.43 
36.8664 -90.1555 996.054 
37.2346 -90.1754 996.26 
37.6354 -90.2728 997.324 
37.9966 -90.2747 997.33 
38.3186 -90.1841 996.316 
38.6568 -90.1329 995.737 
39.0329 -90.1702 996.137 
39.3845 -90.1509 995.91 
39.7304 -90.119 995.544 
40.0832 -90.103 995.354 
40.4538 -90.1273 995.609 
40.7975 -90.0915 995.201 
41.155 -90.0866 995.133 
41.5155 -90.0884 995.14 
41.8697 -90.0765 994.995 
42.2191 -90.0545 994.739 
42.556 -90.0067 994.197 
42.9165 -90.0091 994.21 
43.2747 -90.0066 994.17 
43.6435 -90.026 994.371 
43.9976 -90.0153 994.239 
44.37 -90.0416 994.516 
44.7213 -90.0251 994.321 
45.1101 -90.0838 994.956 
45.4341 -90.013 994.162 
45.8289 -90.0829 994.92 
46.1439 -89.9958 993.945 
46.5283 -90.0444 994.468 
46.9829 -90.2269 996.471 
47.3344 -90.2105 996.276 
49.8874 -91.5918 1011.46 
50.1921 -91.4807 1010.22 
50.5341 -91.4387 1009.75 
50.8988 -91.4382 1009.73 
51.2729 -91.4545 1009.89 
51.6435 -91.4642 1009.99 
52.0328 -91.5068 1010.45 
52.401 -91.5119 1010.49 
52.753 -91.4889 1010.22 
53.1072 -91.4701 1010 
53.4853 -91.4922 1010.23 
53.8614 -91.5107 1010.42 
54.2148 -91.4907 1010.19 
54.5637 -91.4635 1009.87 
54.9304 -91.4663 1009.89 
55.2906 -91.4581 1009.79 
55.6716 -91.4843 1010.06 
56.0554 -91.5148 1010.39 
56.4136 -91.5033 1010.25 
56.7638 -91.4792 1009.97 
57.1454 -91.5055 1010.24 
57.5181 -91.5175 1010.36 
57.8756 -91.5052 1010.21 
58.2373 -91.4998 1010.14 
58.6194 -91.5261 1010.42 
58.9776 -91.5153 1010.29 
59.332 -91.4984 1010.09 
59.6934 -91.4928 1010.01 
60.0708 -91.5115 1010.2 
60.4534 -91.5378 1010.48 
60.8257 -91.5482 1010.58 
61.174 -91.5228 1010.29 
61.5217 -91.4966 1009.99 
61.9173 -91.5418 1010.47 
62.2968 -91.5626 1010.69 
62.6346 -91.5222 1010.23 
62.9994 -91.5216 1010.21 
63.3689 -91.5278 1010.26 
63.7338 -91.5273 1010.25 
64.1038 -91.5341 1010.31 
64.4903 -91.5643 1010.63 
64.8704 -91.585 1010.84 
65.2229 -91.5668 1010.63 
65.5962 -91.5779 1010.74 
65.9387 -91.5461 1010.38 
66.2869 -91.5226 1010.1 
66.6755 -91.5547 1010.44 
67.0402 -91.5538 1010.42 
67.3919 -91.5354 1010.2 
67.7747 -91.559 1010.45 
68.1354 -91.5528 1010.37 
68.4967 -91.5475 1010.3 
68.8721 -91.561 1010.43 
69.256 -91.5855 1010.69 
69.6186 -91.5817 1010.64 
70.0008 -91.6038 1010.87 
70.3621 -91.5983 1010.79 
70.7228 -91.5921 1010.71 
71.0798 -91.5813 1010.58 
71.4309 -91.5629 1010.36 
71.8094 -91.5797 1010.54 
72.1967 -91.6075 1010.83 
72.5824 -91.633 1011.1 
72.9089 -91.5839 1010.54 
73.2546 -91.5594 1010.26 
73.6387 -91.5828 1010.5 
74.0215 -91.6043 1010.73 
74.3945 -91.6136 1010.82 
74.7518 -91.6036 1010.69 
75.0985 -91.5807 1010.43 
75.4825 -91.6033 1010.67 
32.6124 -91.7198 1009.46 
32.9751 -91.7136 1009.38 
33.3477 -91.7348 1009.6 
33.7084 -91.7235 1009.46 
37.2467 -90.568 996.594 
37.6317 -90.6277 997.238 
37.9929 -90.6296 997.245 
38.3149 -90.5386 996.231 
38.6531 -90.4872 995.652 
39.0408 -90.5519 996.35 
39.3763 -90.4952 995.713 
39.748 -90.5221 995.995 
40.0952 -90.4931 995.663 
40.4446 -90.4696 995.391 
40.8005 -90.461 995.284 
41.1623 -90.4654 995.319 
41.5233 -90.4681 995.335 
41.8832 -90.4684 995.324 
42.2346 -90.4502 995.112 
42.5693 -90.3973 994.516 
42.9151 -90.3683 994.184 
43.2824 -90.3849 994.353 
43.6518 -90.4055 994.567 
44.0302 -90.4444 994.982 
44.3636 -90.3909 994.38 
44.7504 -90.4461 994.973 
45.0863 -90.3984 994.436 
45.4364 -90.3799 994.219 
45.8411 -90.4692 995.188 
46.1943 -90.4564 995.034 
46.5639 -90.4757 995.233 
46.9786 -90.5817 996.386 
49.8623 -91.9139 1010.96 
50.1833 -91.8325 1010.05 
50.5348 -91.8078 1009.77 
50.9082 -91.8227 1009.92 
51.2793 -91.8335 1010.02 
51.6466 -91.8375 1010.05 
52.0317 -91.8728 1010.43 
52.3947 -91.8687 1010.37 
52.7405 -91.8348 1009.98 
53.1073 -91.8377 1010 
53.4843 -91.8582 1010.21 
53.8563 -91.8699 1010.33 
54.2139 -91.8568 1010.17 
54.5573 -91.8202 1009.75 
54.9166 -91.8106 1009.64 
55.287 -91.8197 1009.72 
55.6641 -91.8395 1009.93 
56.0571 -91.8852 1010.42 
56.4189 -91.8796 1010.34 
56.7636 -91.8463 1009.96 
57.1466 -91.8751 1010.27 
57.5165 -91.8825 1010.33 
57.8758 -91.8731 1010.22 
58.2335 -91.8613 1010.07 
58.6126 -91.8832 1010.3 
58.9758 -91.8799 1010.25 
59.3405 -91.8792 1010.23 
59.6966 -91.865 1010.06 
60.0746 -91.8847 1010.26 
60.4584 -91.9129 1010.56 
60.82 -91.9073 1010.49 
61.1678 -91.881 1010.18 
61.5208 -91.8627 1009.97 
61.9073 -91.8944 1010.31 
62.2879 -91.9171 1010.54 
62.6261 -91.8772 1010.09 
62.9893 -91.8743 1010.04 
63.3658 -91.8908 1010.21 
63.7378 -91.9005 1010.31 
64.1091 -91.9092 1010.39 
64.5027 -91.9496 1010.82 
64.8773 -91.9625 1010.95 
65.2267 -91.9399 1010.69 
65.5751 -91.916 1010.41 
65.9523 -91.9325 1010.58 
66.285 -91.8873 1010.07 
66.6653 -91.9081 1010.28 
67.0501 -91.9349 1010.57 
67.423 -91.945 1010.66 
67.7692 -91.9191 1010.37 
68.1289 -91.9114 1010.27 
68.5177 -91.943 1010.6 
68.8869 -91.9482 1010.65 
69.2564 -91.9535 1010.69 
69.6062 -91.9329 1010.45 
69.9815 -91.9459 1010.58 
70.3663 -91.9714 1010.85 
70.721 -91.9573 1010.68 
71.0716 -91.9381 1010.46 
71.436 -91.9369 1010.43 
71.815 -91.9544 1010.61 
72.1951 -91.9731 1010.8 
72.5658 -91.9797 1010.86 
72.9056 -91.9473 1010.49 
73.2651 -91.9399 1010.4 
73.6407 -91.9527 1010.53 
74.0248 -91.976 1010.77 
74.4045 -91.9935 1010.95 
74.7429 -91.9601 1010.57 
32.6189 -92.1068 1009.68 
32.9751 -92.0824 1009.4 
33.348 -92.1045 1009.62 
33.7105 -92.098 1009.54 
36.8866 -90.932 996.625 
37.2593 -90.9625 996.945 
37.6466 -91.0277 997.646 
38.0156 -91.0478 997.854 
38.3328 -90.9445 996.708 
38.6493 -90.8416 995.567 
39.0398 -90.9128 996.334 
39.4058 -90.9264 996.469 
39.7686 -90.9323 996.521 
40.0884 -90.8406 995.503 
40.4396 -90.8214 995.278 
40.8069 -90.8381 995.448 
41.1637 -90.8313 995.361 
41.5184 -90.8202 995.225 
41.8699 -90.8023 995.016 
42.2192 -90.7799 994.758 
42.5732 -90.7679 994.613 
42.9145 -90.7293 994.177 
43.2765 -90.735 994.226 
43.6314 -90.7256 994.109 
44.0225 -90.791 994.812 
44.3754 -90.7773 994.65 
44.7463 -90.8003 994.888 
45.0822 -90.7525 994.351 
45.4719 -90.813 995.001 
45.8825 -90.9137 996.091 
46.1901 -90.8107 994.949 
46.6352 -90.9774 996.763 
46.9643 -90.9169 996.086 
47.2993 -90.8687 995.545 
49.5265 -92.3372 1011.58 
49.842 -92.2444 1010.55 
50.1796 -92.1934 1009.98 
50.5443 -92.1927 1009.96 
50.9196 -92.2112 1010.15 
51.2875 -92.2161 1010.19 
51.6439 -92.2003 1010 
52.0247 -92.2282 1010.29 
52.3857 -92.2207 1010.2 
52.7386 -92.1992 1009.95 
53.1052 -92.2019 1009.96 
53.4824 -92.2227 1010.18 
53.8561 -92.2373 1010.32 
54.2157 -92.2276 1010.21 
54.5581 -92.1892 1009.77 
54.9097 -92.1666 1009.51 
55.2773 -92.171 1009.54 
55.6623 -92.2041 1009.89 
56.059 -92.2561 1010.45 
56.4199 -92.2489 1010.36 
56.7699 -92.2241 1010.07 
57.1421 -92.2355 1010.19 
57.5158 -92.2491 1010.32 
57.876 -92.241 1010.22 
58.2231 -92.2124 1009.89 
58.603 -92.2356 1010.13 
58.9814 -92.2562 1010.35 
59.3517 -92.2642 1010.42 
59.7104 -92.2539 1010.29 
60.0748 -92.2526 1010.27 
60.4432 -92.2574 1010.31 
60.82 -92.2749 1010.48 
61.168 -92.2487 1010.18 
61.527 -92.2395 1010.07 
61.9159 -92.2748 1010.44 
62.2842 -92.2792 1010.48 
62.6311 -92.252 1010.17 
62.9843 -92.2345 1009.96 
63.369 -92.2629 1010.26 
63.7472 -92.2816 1010.45 
64.1173 -92.2885 1010.51 
64.4934 -92.3039 1010.67 
64.8598 -92.3054 1010.67 
65.2162 -92.2925 1010.52 
65.5772 -92.2864 1010.44 
65.9508 -92.2979 1010.55 
66.3036 -92.2805 1010.35 
66.6626 -92.2717 1010.24 
67.0443 -92.2944 1010.47 
67.4433 -92.3404 1010.96 
67.7764 -92.2963 1010.47 
68.1297 -92.28 1010.28 
68.5155 -92.3076 1010.56 
68.8842 -92.3121 1010.6 
69.2442 -92.3048 1010.51 
69.5881 -92.2764 1010.18 
69.9764 -92.3067 1010.5 
70.37 -92.3438 1010.9 
70.7156 -92.3178 1010.6 
71.0584 -92.2884 1010.26 
71.427 -92.2927 1010.3 
71.8066 -92.3111 1010.48 
72.1835 -92.3258 1010.63 
72.5432 -92.3185 1010.54 
72.9021 -92.3102 1010.44 
73.2761 -92.3211 1010.54 
73.65 -92.3318 1010.65 
74.0258 -92.3447 1010.77 
32.6175 -92.4717 1009.65 
32.9801 -92.4652 1009.57 
33.3405 -92.4527 1009.42 
33.6994 -92.4361 1009.22 
36.9209 -91.3808 997.567 
37.2556 -91.3172 996.859 
37.5919 -91.259 996.21 
37.9854 -91.3392 997.073 
38.3291 -91.2992 996.622 
38.6455 -91.1958 995.481 
39.036 -91.2674 996.248 
39.3795 -91.2288 995.814 
39.7578 -91.271 996.261 
40.0974 -91.2243 995.738 
40.4385 -91.1816 995.259 
40.793 -91.1699 995.118 
41.168 -91.2037 995.473 
41.5166 -91.179 995.19 
41.8742 -91.1744 995.127 
42.2277 -91.1608 994.965 
42.5875 -91.1611 994.955 
42.9441 -91.1546 994.871 
43.2793 -91.1032 994.297 
43.6426 -91.1112 994.371 
44.0427 -91.1953 995.276 
44.4039 -91.1982 995.294 
44.7577 -91.186 995.148 
45.0992 -91.1491 994.732 
45.4678 -91.1672 994.916 
45.8557 -91.2233 995.515 
46.2254 -91.2428 995.715 
46.5555 -91.1843 995.063 
46.9763 -91.3031 996.346 
49.5103 -92.6753 1011.25 
49.8275 -92.5853 1010.26 
50.1737 -92.5503 1009.86 
50.5481 -92.5674 1010.04 
50.9247 -92.5883 1010.25 
51.2887 -92.586 1010.21 
51.6397 -92.5606 1009.92 
52.0113 -92.5722 1010.03 
52.3808 -92.5798 1010.1 
52.7399 -92.5693 1009.98 
53.1096 -92.5772 1010.05 
53.4892 -92.6022 1010.31 
53.864 -92.6186 1010.47 
54.2232 -92.6082 1010.35 
54.556 -92.553 1009.73 
54.9036 -92.5237 1009.4 
55.2813 -92.545 1009.62 
55.6811 -92.603 1010.24 
56.0551 -92.6175 1010.38 
56.4096 -92.5997 1010.17 
56.7601 -92.5758 1009.9 
57.1365 -92.5941 1010.09 
57.508 -92.6042 1010.18 
57.8789 -92.6133 1010.27 
58.2359 -92.6002 1010.11 
58.6104 -92.6149 1010.26 
58.9867 -92.6323 1010.44 
59.3482 -92.6264 1010.36 
59.7091 -92.6195 1010.27 
60.0686 -92.6106 1010.16 
60.4362 -92.6143 1010.19 
60.8065 -92.6219 1010.26 
61.1674 -92.6154 1010.17 
61.5376 -92.6229 1010.24 
61.9134 -92.6387 1010.4 
62.2747 -92.6327 1010.32 
62.63 -92.6179 1010.15 
62.9791 -92.5942 1009.87 
63.3555 -92.6107 1010.04 
63.7643 -92.6741 1010.72 
64.1253 -92.6677 1010.64 
64.4921 -92.6697 1010.65 
64.8439 -92.6502 1010.42 
65.2261 -92.6741 1010.67 
65.5856 -92.6658 1010.56 
65.9561 -92.673 1010.63 
66.3083 -92.6545 1010.41 
66.6703 -92.6499 1010.35 
67.0481 -92.6672 1010.53 
67.4413 -92.7054 1010.93 
67.7897 -92.6819 1010.66 
68.1322 -92.6508 1010.31 
68.517 -92.6772 1010.58 
68.8772 -92.6701 1010.49 
69.2341 -92.6588 1010.36 
69.5851 -92.6397 1010.13 
69.9772 -92.6753 1010.51 
70.378 -92.722 1011 
70.7188 -92.6894 1010.64 
71.047 -92.6409 1010.09 
71.4311 -92.6654 1010.35 
71.8137 -92.6877 1010.58 
72.1809 -92.6899 1010.59 
72.5427 -92.6854 1010.53 
72.9106 -92.6885 1010.55 
73.2893 -92.7053 1010.72 
73.6468 -92.6952 1010.59 
32.618 -92.8421 1009.69 
32.9794 -92.832 1009.56 
33.3327 -92.7998 1009.2 
33.6816 -92.7559 1008.71 
36.5667 -91.7609 997.768 
37.3046 -91.8016 998.184 
37.6392 -91.7376 997.475 
37.9666 -91.6575 996.59 
38.3253 -91.6538 996.537 
38.6941 -91.674 996.743 
39.0523 -91.6691 996.676 
39.3956 -91.6295 996.232 
39.7474 -91.6103 996.01 
40.1017 -91.5971 995.853 
40.4528 -91.577 995.622 
40.798 -91.5439 995.249 
41.1633 -91.5563 995.37 
41.5266 -91.5639 995.439 
41.8789 -91.5473 995.246 
42.216 -91.4982 994.698 
42.5835 -91.5152 994.87 
42.9401 -91.5087 994.786 
43.295 -91.4987 994.664 
43.6385 -91.4652 994.286 
44.0266 -91.5247 994.92 
44.3974 -91.5476 995.156 
44.705 -91.4408 993.982 
45.1074 -91.5282 994.918 
45.5167 -91.6283 995.993 
45.8585 -91.5918 995.582 
46.244 -91.6425 996.121 
46.5911 -91.6169 995.829 
49.1615 -93.0755 1011.62 
49.4886 -93.0029 1010.81 
49.8201 -92.9395 1010.11 
50.1785 -92.9269 1009.96 
50.5527 -92.9437 1010.13 
50.92 -92.9476 1010.16 
51.286 -92.9489 1010.16 
51.6409 -92.9305 1009.95 
52.0019 -92.9232 1009.85 
52.3702 -92.9288 1009.9 
52.7402 -92.9374 1009.98 
53.1116 -92.9484 1010.09 
53.4862 -92.9648 1010.25 
53.8593 -92.9783 1010.39 
54.2207 -92.9717 1010.3 
54.5604 -92.9282 1009.81 
54.9096 -92.9012 1009.51 
55.2785 -92.9079 1009.57 
55.6892 -92.9842 1010.38 
56.0545 -92.9842 1010.37 
56.4075 -92.964 1010.14 
56.7548 -92.9346 1009.8 
57.1312 -92.953 1009.99 
57.4984 -92.9564 1010.01 
57.8672 -92.9621 1010.06 
58.2336 -92.9641 1010.07 
58.6186 -92.9956 1010.4 
58.9916 -93.0077 1010.52 
59.3468 -92.9917 1010.33 
59.7065 -92.9831 1010.22 
60.0638 -92.9707 1010.08 
60.4219 -92.9599 1009.95 
60.8023 -92.9831 1010.18 
61.1634 -92.9769 1010.1 
61.544 -93.0001 1010.34 
61.9165 -93.0109 1010.45 
62.2679 -92.9902 1010.21 
62.6305 -92.9861 1010.15 
62.9937 -92.9832 1010.11 
63.3617 -92.9872 1010.14 
63.7628 -93.0396 1010.69 
64.1346 -93.0488 1010.78 
64.4866 -93.0294 1010.55 
64.8368 -93.0077 1010.31 
65.2207 -93.0341 1010.58 
65.5835 -93.0304 1010.53 
65.942 -93.0208 1010.41 
66.3029 -93.0145 1010.33 
66.6615 -93.0051 1010.21 
67.0381 -93.0208 1010.37 
67.4296 -93.0569 1010.75 
67.7921 -93.0528 1010.69 
68.1424 -93.0322 1010.45 
68.5065 -93.0305 1010.42 
68.8602 -93.0147 1010.24 
69.2249 -93.014 1010.22 
69.5988 -93.0254 1010.33 
69.9718 -93.0357 1010.42 
70.3699 -93.0789 1010.88 
70.7172 -93.0549 1010.61 
71.0529 -93.016 1010.17 
71.4317 -93.0336 1010.35 
71.8156 -93.0576 1010.6 
72.1775 -93.0531 1010.54 
72.5436 -93.0539 1010.53 
72.9158 -93.0627 1010.61 
32.6101 -93.1886 1009.46 
32.9817 -93.2075 1009.66 
33.3268 -93.1521 1009.04 
33.6649 -93.0782 1008.23 
36.205 -92.1225 997.768 
36.5946 -92.1953 998.542 
37.2824 -92.111 997.602 
37.6458 -92.1177 997.662 
37.9945 -92.0888 997.335 
38.3352 -92.0412 996.807 
38.7122 -92.0807 997.221 
39.0346 -91.9911 996.237 
39.4003 -92.004 996.364 
39.7501 -91.98 996.09 
40.1014 -91.9598 995.858 
40.4572 -91.9501 995.739 
40.7996 -91.9106 995.298 
41.164 -91.9208 995.396 
41.5154 -91.9022 995.181 
41.8932 -91.9417 995.595 
42.2368 -91.9062 995.197 
42.5904 -91.8927 995.038 
42.9361 -91.8628 994.701 
43.291 -91.8528 994.579 
43.6535 -91.8591 994.634 
44.029 -91.8924 994.981 
44.3736 -91.861 994.628 
44.739 -91.873 994.746 
45.1188 -91.9142 995.178 
45.5193 -91.9964 996.054 
45.8892 -92.0161 996.254 
46.2821 -92.0813 996.947 
46.6099 -92.0168 996.235 
49.1366 -93.3965 1011.11 
49.4702 -93.3364 1010.44 
49.8196 -93.3066 1010.11 
50.1764 -93.291 1009.92 
50.5611 -93.3272 1010.3 
50.921 -93.3172 1010.18 
51.2896 -93.3235 1010.23 
51.6499 -93.3146 1010.12 
51.9989 -93.2854 1009.8 
52.3625 -93.2828 1009.75 
52.7361 -93.2979 1009.9 
53.1136 -93.3197 1010.13 
53.4875 -93.335 1010.28 
53.8669 -93.3594 1010.53 
54.22 -93.3383 1010.29 
54.5717 -93.3151 1010.02 
54.9179 -93.2829 1009.66 
55.2776 -93.2738 1009.55 
55.6767 -93.331 1010.16 
56.0558 -93.3541 1010.39 
56.4093 -93.3346 1010.17 
56.7597 -93.3102 1009.89 
57.1277 -93.3149 1009.93 
57.4935 -93.316 1009.93 
57.8601 -93.3184 1009.94 
58.2398 -93.3417 1010.18 
58.6256 -93.3745 1010.52 
58.9865 -93.3673 1010.43 
59.3391 -93.3473 1010.2 
59.7006 -93.3415 1010.12 
60.0587 -93.3304 1009.99 
60.4351 -93.3478 1010.16 
60.806 -93.3565 1010.24 
61.16 -93.3391 1010.04 
61.5322 -93.3499 1010.15 
61.9045 -93.3605 1010.25 
62.2537 -93.3364 1009.97 
62.6155 -93.3313 1009.91 
63.0019 -93.3629 1010.23 
63.3637 -93.3577 1010.17 
63.7551 -93.3961 1010.57 
64.1235 -93.4004 1010.6 
64.4775 -93.3838 1010.41 
64.8466 -93.3893 1010.45 
65.2191 -93.3994 1010.55 
65.5678 -93.3758 1010.28 
65.9277 -93.368 1010.18 
66.292 -93.3666 1010.16 
66.6633 -93.3751 1010.23 
67.0373 -93.3872 1010.35 
67.4126 -93.4011 1010.49 
67.7878 -93.4145 1010.62 
68.148 -93.4074 1010.53 
68.5092 -93.4017 1010.46 
68.8567 -93.3774 1010.18 
69.217 -93.3707 1010.09 
69.6003 -93.3949 1010.34 
69.9589 -93.3859 1010.23 
70.3497 -93.4198 1010.59 
70.7178 -93.4232 1010.61 
71.0659 -93.4005 1010.35 
71.4398 -93.4117 1010.46 
71.8203 -93.4313 1010.66 
72.1843 -93.4294 1010.62 
32.5968 -93.5194 1009.07 
32.9761 -93.5606 1009.5 
33.3331 -93.5385 1009.25 
36.2219 -92.53 998.247 
36.5909 -92.5505 998.456 
36.9282 -92.4913 997.804 
37.2787 -92.4659 997.516 
37.6476 -92.4864 997.724 
37.9775 -92.4115 996.902 
38.3439 -92.426 997.045 
38.6808 -92.3696 996.424 
39.0323 -92.3491 996.189 
39.3711 -92.2989 995.635 
39.7397 -92.3191 995.839 
40.0957 -92.3099 995.726 
40.4555 -92.3095 995.708 
40.8046 -92.2848 995.429 
41.1671 -92.2909 995.481 
41.4987 -92.2279 994.789 
41.8736 -92.2615 995.137 
42.2339 -92.2627 995.138 
42.5864 -92.2469 994.953 
42.9381 -92.2299 994.757 
43.3039 -92.243 994.885 
43.6494 -92.2131 994.549 
44.0404 -92.2789 995.245 
44.3695 -92.215 994.543 
44.7375 -92.2324 994.718 
45.1147 -92.2684 995.093 
45.5151 -92.3509 995.969 
45.885 -92.3707 996.169 
46.2779 -92.4361 996.861 
46.5936 -92.3474 995.891 
49.1174 -93.7282 1010.71 
49.4563 -93.6781 1010.16 
49.8181 -93.6717 1010.08 
50.1785 -93.6627 1009.97 
50.5589 -93.691 1010.26 
50.9278 -93.6977 1010.32 
51.2908 -93.6936 1010.26 
51.6459 -93.6751 1010.05 
51.9938 -93.644 1009.7 
52.3553 -93.6376 1009.62 
52.7337 -93.6615 1009.86 
53.111 -93.683 1010.08 
53.4793 -93.6883 1010.12 
53.8565 -93.7093 1010.34 
54.2119 -93.6922 1010.14 
54.572 -93.6833 1010.03 
54.9333 -93.6768 1009.95 
55.2872 -93.6577 1009.73 
55.6552 -93.6626 1009.77 
56.0415 -93.698 1010.13 
56.4083 -93.7007 1010.15 
56.7587 -93.6763 1009.87 
57.1267 -93.6809 1009.91 
57.4993 -93.6931 1010.03 
57.8598 -93.6855 1009.93 
58.2367 -93.7044 1010.12 
58.6149 -93.7252 1010.33 
58.9749 -93.7167 1010.23 
59.3412 -93.7183 1010.23 
59.7015 -93.7105 1010.14 
60.0623 -93.7035 1010.05 
60.4494 -93.7375 1010.4 
60.8029 -93.7193 1010.19 
61.1605 -93.7076 1010.05 
61.5337 -93.7197 1010.17 
61.8969 -93.7166 1010.12 
62.2458 -93.692 1009.84 
62.6177 -93.7021 1009.94 
63.0055 -93.7358 1010.29 
63.3685 -93.7323 1010.24 
63.7451 -93.749 1010.41 
64.1206 -93.7638 1010.55 
64.4885 -93.7674 1010.58 
64.857 -93.7719 1010.61 
65.2094 -93.7531 1010.4 
65.5565 -93.7271 1010.1 
65.9278 -93.7357 1010.18 
66.3052 -93.7528 1010.35 
66.6609 -93.7393 1010.19 
67.033 -93.7489 1010.28 
67.415 -93.772 1010.52 
67.7718 -93.7601 1010.38 
68.1228 -93.7403 1010.15 
68.4913 -93.7447 1010.19 
68.871 -93.7643 1010.38 
69.235 -93.7625 1010.35 
69.5924 -93.7519 1010.22 
69.9291 -93.7134 1009.8 
70.3337 -93.766 1010.35 
70.7177 -93.7907 1010.6 
71.0851 -93.7933 1010.62 
71.4346 -93.7724 1010.38 
71.8159 -93.7932 1010.59 
32.5953 -93.8839 1009.04 
32.9682 -93.9071 1009.28 
33.3304 -93.8996 1009.19 
35.8494 -92.8644 997.953 
36.2182 -92.8851 998.161 
36.5872 -92.9057 998.37 
36.9563 -92.9263 998.578 
37.275 -92.8208 997.43 
37.6182 -92.7779 996.957 
37.9455 -92.697 996.074 
38.3277 -92.7505 996.635 
38.716 -92.8176 997.342 
39.0515 -92.7582 996.691 
39.3912 -92.7095 996.154 
39.7567 -92.722 996.275 
40.1015 -92.6866 995.882 
40.4537 -92.6686 995.675 
40.8153 -92.6723 995.701 
41.1621 -92.6425 995.368 
41.5076 -92.6105 995.01 
41.8685 -92.6132 995.026 
42.2289 -92.6145 995.027 
42.5828 -92.602 994.879 
42.9657 -92.6519 995.402 
43.2985 -92.594 994.767 
43.6518 -92.5807 994.61 
44.0144 -92.587 994.665 
44.3901 -92.6205 995.012 
44.777 -92.6769 995.604 
45.1106 -92.6226 995.008 
45.511 -92.7054 995.884 
45.9035 -92.7711 996.576 
46.2737 -92.791 996.776 
48.7832 -94.1567 1011.38 
49.0942 -94.052 1010.24 
49.4476 -94.0295 1009.99 
49.811 -94.0262 1009.94 
50.1793 -94.0322 1009.99 
50.5541 -94.05 1010.17 
50.917 -94.0459 1010.11 
51.2874 -94.0554 1010.2 
51.6397 -94.0318 1009.93 
51.9953 -94.0145 1009.73 
52.3631 -94.0194 1009.77 
52.7346 -94.0307 1009.88 
53.1002 -94.0316 1009.88 
53.4716 -94.0427 1009.98 
53.8511 -94.0677 1010.24 
54.2129 -94.0617 1010.16 
54.5743 -94.0551 1010.07 
54.9389 -94.054 1010.05 
55.2965 -94.0411 1009.9 
55.6498 -94.0211 1009.67 
56.0298 -94.0461 1009.92 
56.399 -94.0529 1009.98 
56.7573 -94.0415 1009.85 
57.1209 -94.0391 1009.81 
57.4865 -94.0398 1009.8 
57.851 -94.0388 1009.78 
58.2352 -94.0696 1010.1 
58.5992 -94.0676 1010.06 
58.9558 -94.054 1009.9 
59.3378 -94.0806 1010.17 
59.7011 -94.0776 1010.13 
60.0517 -94.0547 1009.87 
60.4496 -94.1056 1010.4 
60.8087 -94.0959 1010.28 
61.154 -94.0652 1009.94 
61.5247 -94.0736 1010.02 
61.8969 -94.0843 1010.12 
62.2496 -94.0653 1009.9 
62.6239 -94.079 1010.04 
62.9935 -94.0856 1010.09 
63.357 -94.0829 1010.05 
63.7341 -94.1004 1010.23 
64.1218 -94.1333 1010.57 
64.4931 -94.142 1010.65 
64.8626 -94.1477 1010.7 
65.192 -94.0958 1010.12 
65.5463 -94.0799 1009.94 
65.9321 -94.1094 1010.24 
66.2961 -94.1075 1010.21 
66.6643 -94.1116 1010.24 
67.037 -94.122 1010.34 
67.4193 -94.1456 1010.58 
67.7627 -94.115 1010.24 
68.1128 -94.0941 1010 
68.4949 -94.1172 1010.23 
68.871 -94.132 1010.38 
69.2375 -94.1335 1010.38 
69.5984 -94.1274 1010.3 
69.9443 -94.1013 1010.01 
70.3274 -94.1252 1010.25 
70.7249 -94.168 1010.7 
71.0876 -94.1643 1010.65 
32.5968 -94.2574 1009.11 
32.9622 -94.2589 1009.12 
33.3301 -94.2675 1009.2 
36.2145 -93.2401 998.075 
36.5434 -93.1587 997.19 
36.9025 -93.155 997.137 
37.2758 -93.187 997.466 
37.6056 -93.1108 996.637 
37.9605 -93.0975 996.481 
38.3102 -93.0719 996.194 
38.7122 -93.1724 997.256 
39.0477 -93.1128 996.605 
39.3737 -93.0316 995.723 
39.7374 -93.0405 995.804 
40.0967 -93.0387 995.772 
40.4615 -93.0497 995.876 
40.8188 -93.0435 995.796 
41.1687 -93.0206 995.538 
41.5112 -92.9817 995.108 
41.8693 -92.9778 995.053 
42.2321 -92.9847 995.113 
42.5926 -92.9861 995.115 
42.9429 -92.9657 994.883 
43.3018 -92.964 994.853 
43.6812 -93.0058 995.286 
44.0468 -93.0181 995.404 
44.3794 -92.961 994.78 
44.785 -93.0563 995.787 
45.1127 -92.9897 995.06 
45.5068 -93.0599 995.799 
45.8993 -93.1258 996.491 
46.2466 -93.0998 996.199 
46.6398 -93.1657 996.891 
48.7661 -94.4921 1011.03 
49.0734 -94.3803 1009.82 
49.4459 -94.3944 1009.96 
49.8108 -94.3938 1009.94 
50.1781 -94.3979 1009.97 
50.5477 -94.4062 1010.04 
50.916 -94.4119 1010.09 
51.2719 -94.3947 1009.89 
51.6298 -94.3815 1009.74 
51.9983 -94.3876 1009.79 
52.3729 -94.4048 1009.96 
52.7412 -94.4104 1010.01 
53.0982 -94.3959 1009.84 
53.4691 -94.406 1009.93 
53.8455 -94.4258 1010.13 
54.2141 -94.4316 1010.18 
54.5695 -94.4147 1009.99 
54.9368 -94.4182 1010.01 
55.3064 -94.4257 1010.08 
55.6597 -94.4055 1009.85 
56.0234 -94.4031 1009.81 
56.3909 -94.4071 1009.84 
56.7572 -94.4091 1009.85 
57.1105 -94.3894 1009.62 
57.4757 -94.3898 1009.61 
57.8515 -94.4072 1009.79 
58.2332 -94.4341 1010.06 
58.596 -94.4302 1010 
58.9507 -94.4134 1009.81 
59.3316 -94.4385 1010.07 
59.7002 -94.4438 1010.11 
60.0612 -94.4371 1010.03 
60.4438 -94.4643 1010.3 
60.8125 -94.4696 1010.35 
61.1635 -94.4473 1010.1 
61.5145 -94.4256 1009.85 
61.8948 -94.4487 1010.08 
62.2668 -94.4588 1010.18 
62.6202 -94.4409 1009.97 
62.9796 -94.4323 1009.87 
63.3573 -94.4509 1010.05 
63.7294 -94.4611 1010.15 
64.1121 -94.4867 1010.41 
64.4806 -94.4913 1010.45 
64.8541 -94.5031 1010.56 
65.206 -94.4836 1010.34 
65.5588 -94.4655 1010.13 
65.9277 -94.4706 1010.17 
66.2838 -94.4576 1010.02 
66.6683 -94.4849 1010.3 
67.0342 -94.4856 1010.29 
67.4145 -94.5067 1010.5 
67.7572 -94.4749 1010.15 
68.1147 -94.4641 1010.02 
68.4939 -94.4834 1010.22 
68.8635 -94.4892 1010.26 
69.2429 -94.5085 1010.46 
69.6036 -94.5021 1010.38 
69.9581 -94.4874 1010.21 
70.3215 -94.4847 1010.16 
32.6018 -94.6407 1009.29 
32.9602 -94.6221 1009.08 
33.3191 -94.6053 1008.88 
36.2247 -93.6309 998.371 
36.5798 -93.616 998.197 
36.8988 -93.5097 997.051 
37.2518 -93.491 996.838 
37.6107 -93.4873 996.785 
37.9745 -93.4956 996.861 
38.325 -93.4714 996.589 
38.7072 -93.5243 997.14 
39.0513 -93.4851 996.708 
39.3929 -93.4407 996.221 
39.733 -93.3934 995.704 
40.0969 -93.4025 995.787 
40.4657 -93.4229 995.992 
40.8236 -93.4178 995.924 
41.1662 -93.3782 995.489 
41.5125 -93.3474 995.147 
41.8729 -93.3489 995.15 
42.2374 -93.3591 995.245 
42.5894 -93.3422 995.051 
42.9389 -93.3197 994.798 
43.2896 -93.3003 994.578 
43.6556 -93.314 994.711 
44.0504 -93.3885 995.492 
44.4158 -93.4002 995.603 
44.7786 -93.406 995.652 
45.1446 -93.4186 995.772 
45.5026 -93.4143 995.713 
45.8904 -93.4709 996.303 
48.7441 -94.8178 1010.58 
49.0697 -94.741 1009.75 
49.4391 -94.7493 1009.82 
49.8081 -94.7567 1009.89 
50.1721 -94.7545 1009.85 
50.5385 -94.7569 1009.86 
50.9047 -94.7588 1009.87 
51.2633 -94.7468 1009.73 
51.6366 -94.7618 1009.87 
52.0042 -94.7663 1009.91 
52.3762 -94.7787 1010.03 
52.7388 -94.7741 1009.96 
53.0935 -94.7553 1009.75 
53.4658 -94.7681 1009.87 
53.8544 -94.8093 1010.3 
54.2173 -94.8052 1010.24 
54.5643 -94.7734 1009.89 
54.9344 -94.782 1009.97 
55.3066 -94.7939 1010.08 
55.6616 -94.7764 1009.88 
56.0202 -94.7655 1009.75 
56.3846 -94.7643 1009.73 
56.7483 -94.7619 1009.69 
57.1074 -94.7519 1009.57 
57.4707 -94.749 1009.52 
57.8528 -94.777 1009.81 
58.2317 -94.7994 1010.03 
58.599 -94.8027 1010.06 
58.9449 -94.7717 1009.71 
59.3273 -94.7993 1009.99 
59.7123 -94.8307 1010.31 
60.0664 -94.8129 1010.11 
60.4328 -94.8148 1010.12 
60.802 -94.8209 1010.17 
61.1619 -94.8125 1010.07 
61.5287 -94.815 1010.08 
61.9008 -94.8254 1010.18 
62.2576 -94.8125 1010.03 
62.6184 -94.8058 1009.94 
62.9747 -94.7924 1009.79 
63.3563 -94.8171 1010.04 
63.7327 -94.8336 1010.2 
64.0977 -94.8331 1010.18 
64.4641 -94.8348 1010.18 
64.8508 -94.8661 1010.5 
65.2097 -94.8566 1010.39 
65.5616 -94.8371 1010.17 
65.9154 -94.8206 1009.98 
66.263 -94.7953 1009.7 
66.6711 -94.8565 1010.34 
67.0454 -94.8691 1010.46 
67.3997 -94.8535 1010.28 
67.7492 -94.8312 1010.03 
68.1225 -94.8424 1010.13 
68.5064 -94.8682 1010.39 
68.8479 -94.8353 1010.03 
69.2105 -94.8316 1009.98 
69.6023 -94.8679 1010.35 
69.9804 -94.885 1010.52 
32.5988 -95.0012 1009.22 
32.9623 -94.9972 1009.16 
33.3062 -94.9375 1008.51 
35.8384 -93.9292 997.694 
36.2072 -93.9501 997.903 
36.5992 -94.0303 998.741 
36.9047 -93.8889 997.225 
37.2638 -93.8852 997.173 
37.6513 -93.9526 997.875 
37.981 -93.8756 997.045 
38.3312 -93.8506 996.765 
38.6843 -93.8328 996.563 
39.0646 -93.8809 997.06 
39.3962 -93.812 996.315 
39.732 -93.7545 995.691 
40.1014 -93.7765 995.911 
40.463 -93.78 995.935 
40.8137 -93.7583 995.691 
41.1577 -93.7219 995.291 
41.5089 -93.7025 995.072 
41.8753 -93.7173 995.216 
42.2398 -93.7275 995.31 
42.5934 -93.7137 995.151 
42.9318 -93.6672 994.643 
43.3038 -93.694 994.914 
43.6515 -93.668 994.625 
44.0291 -93.7064 995.02 
44.4117 -93.7546 995.518 
44.7864 -93.7853 995.831 
45.1098 -93.7093 995.011 
45.5241 -93.8216 996.19 
45.8961 -93.8457 996.433 
48.4111 -95.2499 1011.27 
48.7295 -95.1576 1010.28 
49.0639 -95.0978 1009.63 
49.4375 -95.1141 1009.79 
49.8047 -95.1182 1009.82 
50.1609 -95.1012 1009.63 
50.5397 -95.127 1009.89 
50.9052 -95.1278 1009.88 
51.2647 -95.1173 1009.76 
51.6381 -95.1324 1009.91 
52.0071 -95.1395 1009.97 
52.3771 -95.1482 1010.05 
52.7373 -95.1392 1009.94 
53.0933 -95.1227 1009.75 
53.4566 -95.1195 1009.7 
53.8414 -95.1544 1010.06 
54.2184 -95.175 1010.26 
54.5708 -95.1524 1010.01 
54.9292 -95.1406 1009.87 
55.2972 -95.1457 1009.91 
55.6668 -95.1531 1009.98 
56.0237 -95.1391 1009.82 
56.3855 -95.1335 1009.74 
56.7402 -95.1159 1009.54 
57.0988 -95.1052 1009.42 
57.4733 -95.1209 1009.57 
57.8526 -95.1442 1009.8 
58.2232 -95.1532 1009.89 
58.5901 -95.1561 1009.9 
58.9538 -95.1537 1009.86 
59.3322 -95.1748 1010.07 
59.7247 -95.2182 1010.52 
60.0701 -95.1865 1010.17 
60.4221 -95.1656 1009.94 
60.7981 -95.1825 1010.1 
61.1761 -95.2024 1010.3 
61.5344 -95.1915 1010.17 
61.9009 -95.1933 1010.18 
62.2493 -95.1675 1009.89 
62.6221 -95.179 1010 
62.9863 -95.1775 1009.97 
63.3682 -95.2026 1010.22 
63.725 -95.1897 1010.07 
64.0774 -95.1707 1009.86 
64.4468 -95.177 1009.91 
64.851 -95.2342 1010.5 
65.221 -95.2408 1010.56 
65.5668 -95.2123 1010.25 
65.9166 -95.1899 1009.99 
66.2789 -95.1857 1009.94 
66.68 -95.2368 1010.47 
67.0447 -95.2359 1010.44 
67.3927 -95.2112 1010.17 
67.7458 -95.194 1009.97 
68.1157 -95.2006 1010.03 
68.4964 -95.222 1010.24 
68.848 -95.203 1010.03 
69.2016 -95.1869 1009.84 
32.5909 -95.347 1008.99 
32.9626 -95.3672 1009.19 
33.2904 -95.2611 1008.06 
35.4862 -94.3165 997.965 
35.8347 -94.2841 997.608 
36.2035 -94.3051 997.817 
36.5955 -94.3855 998.655 
36.8758 -94.1793 996.459 
37.2346 -94.1756 996.406 
37.6475 -94.3075 997.789 
38.0025 -94.2931 997.622 
38.3357 -94.2256 996.895 
38.691 -94.213 996.749 
39.062 -94.2385 997.005 
39.4001 -94.185 996.426 
39.7401 -94.137 995.904 
40.1089 -94.1576 996.109 
40.4648 -94.1476 995.99 
40.8058 -94.1036 995.511 
41.1618 -94.0945 995.401 
41.5171 -94.084 995.277 
41.8801 -94.0912 995.339 
42.2532 -94.1204 995.635 
42.5942 -94.0787 995.18 
42.9587 -94.0889 995.275 
43.3235 -94.0995 995.374 
43.6817 -94.0958 995.322 
44.025 -94.0605 994.935 
44.4206 -94.1364 995.724 
44.7902 -94.1566 995.925 
45.1855 -94.23 996.688 
45.4751 -94.0836 995.126 
45.8819 -94.18 996.132 
48.396 -95.5886 1010.96 
48.7126 -95.4927 1009.94 
49.0651 -95.4681 1009.66 
49.436 -95.4792 1009.77 
49.7948 -95.4672 1009.63 
50.1563 -95.4605 1009.54 
50.5359 -95.4878 1009.82 
50.9008 -95.4875 1009.8 
51.2715 -95.4977 1009.89 
51.6431 -95.5098 1010.01 
52.0039 -95.5015 1009.91 
52.3707 -95.5045 1009.93 
52.7349 -95.5028 1009.89 
53.0966 -95.4966 1009.81 
53.456 -95.4862 1009.69 
53.8294 -95.501 1009.83 
54.2152 -95.5374 1010.21 
54.5767 -95.5307 1010.12 
54.9365 -95.5212 1010.01 
55.3042 -95.5255 1010.04 
55.6709 -95.5281 1010.05 
56.0282 -95.5144 1009.9 
56.3827 -95.4964 1009.69 
56.7338 -95.4729 1009.43 
57.0903 -95.4585 1009.26 
57.4683 -95.4802 1009.48 
57.8503 -95.5083 1009.76 
58.222 -95.519 1009.86 
58.5956 -95.5326 1009.99 
58.9588 -95.5294 1009.95 
59.3507 -95.5724 1010.39 
59.7285 -95.5923 1010.59 
60.0685 -95.5518 1010.14 
60.4136 -95.5198 1009.79 
60.7861 -95.5314 1009.9 
61.1726 -95.5647 1010.24 
61.5413 -95.57 1010.28 
61.8957 -95.553 1010.09 
62.2599 -95.5514 1010.06 
62.6347 -95.5658 1010.2 
62.9896 -95.5501 1010.02 
63.3665 -95.5677 1010.19 
63.7308 -95.5662 1010.16 
64.0719 -95.5301 1009.77 
64.4548 -95.5563 1010.03 
64.8512 -95.6023 1010.5 
65.2253 -95.6149 1010.62 
65.5621 -95.5732 1010.17 
65.9077 -95.5445 1009.85 
66.2757 -95.5486 1009.88 
66.673 -95.5945 1010.36 
67.0566 -95.6205 1010.62 
67.3971 -95.5851 1010.23 
67.7432 -95.5579 1009.93 
68.1203 -95.5745 1010.09 
68.4887 -95.5788 1010.12 
32.5878 -95.7073 1008.92 
32.9554 -95.7154 1008.99 
35.8311 -94.6389 997.522 
36.1998 -94.66 997.73 
36.5917 -94.7407 998.568 
36.9115 -94.6349 997.44 
37.238 -94.5481 996.511 
37.6438 -94.6624 997.703 
37.9592 -94.5496 996.5 
38.335 -94.5877 996.888 
38.6753 -94.5384 996.356 
39.04 -94.5493 996.457 
39.3924 -94.5304 996.244 
39.7478 -94.519 996.11 
40.105 -94.512 996.023 
40.4598 -94.4995 995.878 
40.8058 -94.4668 995.52 
41.162 -94.4582 995.417 
41.5233 -94.4613 995.436 
41.8819 -94.4583 995.39 
42.233 -94.4387 995.17 
42.5943 -94.4419 995.192 
42.9635 -94.4624 995.394 
43.3462 -94.512 995.903 
43.6735 -94.4412 995.144 
44.0469 -94.4704 995.438 
44.4164 -94.4907 995.639 
44.8004 -94.5413 996.158 
45.1478 -94.5144 995.861 
45.5515 -94.605 996.803 
45.8717 -94.5222 995.917 
48.373 -95.9115 1010.49 
48.7039 -95.8438 1009.76 
49.0667 -95.8393 1009.7 
49.432 -95.8396 1009.69 
49.7898 -95.8256 1009.53 
50.1609 -95.8371 1009.64 
50.5315 -95.8476 1009.73 
50.8994 -95.8528 1009.77 
51.2686 -95.8604 1009.84 
51.6418 -95.8754 1009.99 
52.0117 -95.884 1010.06 
52.37 -95.8712 1009.91 
52.7354 -95.8716 1009.91 
53.1006 -95.8717 1009.89 
53.4559 -95.8539 1009.69 
53.8225 -95.8566 1009.71 
54.1971 -95.8733 1009.87 
54.5711 -95.8888 1010.02 
54.9382 -95.8922 1010.04 
55.3119 -95.9067 1010.18 
55.6739 -95.9012 1010.11 
56.026 -95.8786 1009.86 
56.3805 -95.8605 1009.65 
56.7335 -95.8399 1009.42 
57.0931 -95.8308 1009.31 
57.4632 -95.8394 1009.39 
57.8453 -95.8676 1009.68 
58.2225 -95.8876 1009.87 
58.5905 -95.8922 1009.91 
58.9582 -95.8962 1009.94 
59.3476 -95.9354 1010.34 
59.731 -95.9643 1010.63 
60.0648 -95.9136 1010.08 
60.4099 -95.8816 1009.73 
60.7855 -95.8982 1009.89 
61.1658 -95.9218 1010.13 
61.5389 -95.9339 1010.24 
61.8948 -95.9194 1010.07 
62.2722 -95.9381 1010.26 
62.6337 -95.9321 1010.18 
62.9783 -95.9006 1009.84 
63.3589 -95.9238 1010.07 
63.7164 -95.9121 1009.93 
64.0753 -95.9027 1009.82 
64.4528 -95.921 1010 
64.8395 -95.9527 1010.32 
65.2129 -95.9646 1010.43 
65.5627 -95.9417 1010.18 
65.9118 -95.918 1009.91 
66.2922 -95.94 1010.13 
66.6642 -95.9497 1010.22 
67.0528 -95.9829 1010.56 
67.4071 -95.967 1010.38 
67.7471 -95.9309 1009.98 
68.1209 -95.943 1010.1 
32.5847 -96.0671 1008.84 
32.9458 -96.0564 1008.72 
35.4789 -95.0264 997.792 
35.8542 -95.0647 998.182 
36.1961 -95.0148 997.644 
36.565 -95.0359 997.853 
36.8738 -94.9022 996.435 
37.2525 -94.9492 996.915 
37.6233 -94.9752 997.175 
38.0002 -95.016 997.589 
38.3376 -94.9584 996.971 
38.6853 -94.9269 996.627 
39.0463 -94.9285 996.63 
39.3974 -94.9061 996.382 
39.7522 -94.8931 996.232 
40.1011 -94.8663 995.937 
40.4543 -94.8501 995.754 
40.7986 -94.8135 995.356 
41.1644 -94.8269 995.484 
41.5303 -94.8407 995.615 
41.8836 -94.8254 995.441 
42.2491 -94.8378 995.557 
42.6082 -94.8359 995.524 
42.9695 -94.8387 995.541 
43.3287 -94.8371 995.51 
43.6981 -94.8576 995.712 
44.0299 -94.7969 995.061 
44.4373 -94.8985 996.115 
44.8072 -94.9189 996.316 
45.1772 -94.9394 996.517 
45.5473 -94.9598 996.718 
45.9176 -94.9801 996.918 
48.3549 -96.2439 1010.12 
48.7008 -96.2057 1009.7 
49.0652 -96.2044 1009.67 
49.4362 -96.2159 1009.78 
49.7895 -96.1929 1009.53 
50.1556 -96.195 1009.53 
50.5248 -96.2028 1009.6 
50.8942 -96.211 1009.68 
51.2647 -96.221 1009.77 
51.6353 -96.2312 1009.86 
52.0168 -96.2614 1010.16 
52.3689 -96.2372 1009.9 
52.7278 -96.2258 1009.76 
53.0939 -96.2275 1009.77 
53.4589 -96.2273 1009.75 
53.8276 -96.2335 1009.8 
54.1949 -96.2374 1009.83 
54.5568 -96.2315 1009.76 
54.9409 -96.2648 1010.09 
55.3108 -96.2728 1010.16 
55.6702 -96.2627 1010.04 
56.0232 -96.2416 1009.81 
56.3803 -96.2278 1009.65 
56.7374 -96.2142 1009.49 
57.0983 -96.2071 1009.41 
57.4612 -96.2036 1009.36 
57.8418 -96.2295 1009.61 
58.2263 -96.2615 1009.94 
58.5924 -96.263 1009.94 
58.9498 -96.2502 1009.79 
59.3307 -96.2758 1010.05 
59.726 -96.3243 1010.54 
60.0728 -96.2943 1010.21 
60.4205 -96.2663 1009.91 
60.7935 -96.2786 1010.02 
61.1573 -96.2762 1009.98 
61.5239 -96.2783 1009.99 
61.9081 -96.3079 1010.29 
62.2736 -96.3079 1010.28 
62.6071 -96.259 1009.75 
62.979 -96.2693 1009.84 
63.3533 -96.2832 1009.98 
63.7098 -96.2698 1009.82 
64.0945 -96.2991 1010.12 
64.464 -96.3054 1010.17 
64.8219 -96.2944 1010.04 
65.1785 -96.2815 1009.89 
65.5611 -96.3071 1010.15 
65.9144 -96.2895 1009.95 
66.2654 -96.2687 1009.72 
66.6601 -96.3113 1010.15 
67.048 -96.3438 1010.48 
67.4061 -96.3333 1010.36 
32.5924 -96.459 1009.1 
32.9386 -96.4043 1008.52 
35.5254 -95.5159 999.116 
35.8876 -95.5185 999.129 
36.2236 -95.4518 998.418 
36.5612 -95.3908 997.766 
36.904 -95.3444 997.267 
37.2432 -95.2896 996.681 
37.6304 -95.3575 997.377 
37.9995 -95.3785 997.584 
38.3491 -95.3511 997.283 
38.7037 -95.3361 997.114 
39.0474 -95.2951 996.671 
39.4085 -95.2969 996.676 
39.7433 -95.2355 996.021 
40.0994 -95.2259 995.907 
40.4511 -95.2059 995.685 
40.8103 -95.2041 995.652 
41.1748 -95.2144 995.746 
41.5375 -95.2205 995.797 
41.8721 -95.1625 995.177 
42.2553 -95.2151 995.714 
42.6187 -95.2225 995.778 
42.9823 -95.2304 995.847 
43.3246 -95.1913 995.425 
43.694 -95.2119 995.627 
44.0729 -95.2527 996.04 
44.4409 -95.2695 996.203 
44.7578 -95.1774 995.226 
45.2013 -95.3538 997.057 
45.5431 -95.3144 996.632 
45.9133 -95.3349 996.833 
48.0299 -96.6932 1010.98 
48.3416 -96.5856 1009.84 
48.6923 -96.557 1009.53 
49.063 -96.5681 1009.63 
49.4264 -96.5647 1009.58 
49.7912 -96.5642 1009.57 
50.1561 -96.5638 1009.55 
50.5241 -96.5695 1009.59 
50.8873 -96.5659 1009.54 
51.2555 -96.5718 1009.59 
51.6306 -96.5905 1009.77 
52.0075 -96.6124 1009.99 
52.3672 -96.6021 1009.87 
52.73 -96.5978 1009.81 
53.0947 -96.5968 1009.78 
53.46 -96.5971 1009.77 
53.8306 -96.6069 1009.86 
54.1855 -96.5884 1009.66 
54.5496 -96.5867 1009.62 
54.9342 -96.6209 1009.97 
55.3059 -96.6323 1010.07 
55.6628 -96.6177 1009.91 
56.0177 -96.6 1009.71 
56.3739 -96.5847 1009.54 
56.7387 -96.5842 1009.52 
57.1078 -96.591 1009.58 
57.4663 -96.5798 1009.45 
57.8345 -96.5851 1009.49 
58.2155 -96.6114 1009.75 
58.5845 -96.6178 1009.8 
58.9579 -96.6312 1009.93 
59.3355 -96.6514 1010.13 
59.7247 -96.6901 1010.52 
60.0656 -96.6507 1010.09 
60.437 -96.6603 1010.18 
60.8081 -96.6695 1010.26 
61.1596 -96.6476 1010.02 
61.5121 -96.6276 1009.8 
61.8966 -96.6577 1010.1 
62.2505 -96.6399 1009.9 
62.59 -96.6002 1009.47 
62.9607 -96.6088 1009.55 
63.3535 -96.651 1009.98 
63.7074 -96.6339 1009.78 
64.0968 -96.6704 1010.15 
64.4665 -96.677 1010.21 
64.8207 -96.6602 1010.02 
65.1612 -96.6235 1009.62 
65.5508 -96.6595 1009.98 
65.9292 -96.6787 1010.17 
66.2783 -96.6551 1009.91 
66.643 -96.6542 1009.89 
32.5818 -96.7969 1008.8 
32.9272 -96.7399 1008.19 
35.5217 -95.8712 999.029 
35.8546 -95.7955 998.226 
36.2199 -95.8069 998.332 
36.5764 -95.795 998.195 
36.9265 -95.7669 997.888 
37.2657 -95.7115 997.298 
37.6192 -95.6933 997.094 
37.977 -95.6864 997.009 
38.3239 -95.6524 996.641 
38.697 -95.6838 996.954 
39.0566 -95.6816 996.919 
39.404 -95.6497 996.573 
39.748 -95.6104 996.15 
40.0933 -95.5749 995.766 
40.4556 -95.58 995.807 
40.8111 -95.5694 995.682 
41.1861 -95.604 996.029 
41.536 -95.5805 995.772 
41.8782 -95.5396 995.332 
42.2513 -95.5694 995.629 
42.6187 -95.5859 995.788 
42.9795 -95.5876 995.791 
43.3387 -95.5856 995.758 
43.7065 -95.6024 995.92 
44.0594 -95.5868 995.743 
44.429 -95.6074 995.944 
44.785 -95.5984 995.838 
45.1943 -95.7025 996.909 
45.5779 -95.7512 997.402 
48.0107 -97.0231 1010.58 
48.3325 -96.9357 1009.66 
48.694 -96.9284 1009.57 
49.0574 -96.925 1009.52 
49.4231 -96.9263 1009.52 
49.7882 -96.9265 1009.51 
50.1546 -96.9291 1009.52 
50.5219 -96.9333 1009.55 
50.882 -96.9237 1009.44 
51.2568 -96.9423 1009.62 
51.6276 -96.9529 1009.72 
51.9967 -96.9602 1009.78 
52.3607 -96.9581 1009.74 
52.7336 -96.9723 1009.88 
53.0997 -96.9739 1009.88 
53.4561 -96.958 1009.7 
53.8156 -96.9479 1009.58 
54.18 -96.9465 1009.56 
54.5514 -96.9577 1009.66 
54.9277 -96.9775 1009.85 
55.2912 -96.9746 1009.81 
55.6541 -96.9705 1009.75 
56.0247 -96.9799 1009.84 
56.3757 -96.9555 1009.57 
56.7395 -96.9532 1009.53 
57.1136 -96.9684 1009.68 
57.4732 -96.9592 1009.57 
57.8305 -96.9461 1009.42 
58.2016 -96.9561 1009.51 
58.5774 -96.9739 1009.68 
58.9622 -97.0062 1010 
59.3324 -97.0143 1010.07 
59.7081 -97.0311 1010.24 
60.0623 -97.0132 1010.04 
60.4376 -97.0292 1010.19 
60.8152 -97.0487 1010.38 
61.1557 -97.0093 1009.96 
61.5075 -96.9879 1009.72 
61.8852 -97.0076 1009.91 
62.231 -96.9773 1009.58 
62.5814 -96.9545 1009.33 
62.963 -96.98 1009.58 
63.3499 -97.0134 1009.92 
63.719 -97.0192 1009.96 
64.1143 -97.0647 1010.42 
64.4771 -97.0607 1010.37 
64.8382 -97.0542 1010.29 
65.1728 -97.0083 1009.8 
65.5506 -97.027 1009.98 
65.9299 -97.0476 1010.18 
66.2861 -97.0341 1010.03 
32.5741 -97.1431 1008.58 
32.9133 -97.0677 1007.78 
35.8802 -96.2291 998.956 
36.2162 -96.1619 998.245 
36.5745 -96.155 998.16 
36.9227 -96.1218 997.802 
37.2918 -96.1431 998.01 
37.6286 -96.0817 997.358 
37.9977 -96.1029 997.566 
38.3362 -96.0471 996.973 
38.6986 -96.052 997.01 
39.0496 -96.0286 996.754 
39.3992 -96.0021 996.465 
39.7366 -95.9467 995.877 
40.0871 -95.9236 995.623 
40.4607 -95.9559 995.945 
40.8062 -95.9214 995.574 
41.1798 -95.953 995.888 
41.534 -95.9392 995.732 
41.9084 -95.9721 996.06 
42.239 -95.9049 995.349 
42.6282 -95.9707 996.019 
42.9884 -95.9709 996.007 
43.3346 -95.9399 995.672 
43.7257 -96.0081 996.367 
44.0801 -95.9952 996.219 
44.4249 -95.9617 995.859 
44.8553 -96.1123 997.408 
45.1901 -96.0573 996.823 
45.5737 -96.1061 997.317 
47.988 -97.3456 1010.11 
48.3269 -97.2925 1009.55 
48.6996 -97.3078 1009.69 
49.0639 -97.3061 1009.66 
49.4203 -97.2888 1009.47 
49.7798 -97.278 1009.34 
50.157 -97.3017 1009.58 
50.5242 -97.3057 1009.6 
50.8912 -97.3093 1009.63 
51.2664 -97.3285 1009.81 
51.6311 -97.3275 1009.79 
51.9901 -97.3159 1009.65 
52.3527 -97.3112 1009.59 
52.7401 -97.3523 1010.01 
53.0978 -97.3385 1009.85 
53.4505 -97.3158 1009.6 
53.8203 -97.3242 1009.67 
54.1868 -97.3267 1009.69 
54.5547 -97.3316 1009.72 
54.9218 -97.3349 1009.74 
55.2792 -97.3213 1009.59 
55.6447 -97.3219 1009.58 
56.0313 -97.3592 1009.96 
56.3918 -97.3511 1009.86 
56.745 -97.3304 1009.63 
57.1098 -97.3299 1009.61 
57.4758 -97.3313 1009.61 
57.8353 -97.3219 1009.5 
58.1996 -97.3206 1009.47 
58.5703 -97.3299 1009.56 
58.9609 -97.3719 1009.98 
59.3418 -97.3976 1010.23 
59.7112 -97.4042 1010.29 
60.0687 -97.3913 1010.14 
60.4297 -97.3844 1010.06 
60.7952 -97.3847 1010.05 
61.1535 -97.3735 1009.92 
61.5091 -97.3583 1009.75 
61.8845 -97.3743 1009.9 
62.2203 -97.3283 1009.41 
62.5805 -97.3207 1009.32 
62.9702 -97.3588 1009.7 
63.3345 -97.3574 1009.67 
63.7285 -97.4015 1010.11 
64.0966 -97.4056 1010.14 
64.4548 -97.3949 1010.02 
64.8405 -97.4254 1010.32 
65.1981 -97.4137 1010.19 
65.5539 -97.3996 1010.03 
35.1863 -96.6727 999.811 
35.5558 -96.6944 1000.02 
35.8765 -96.5843 998.87 
36.2404 -96.5915 998.93 
36.5997 -96.5864 998.865 
36.9189 -96.4766 997.716 
37.2669 -96.4434 997.358 
37.6428 -96.4826 997.75 
37.9925 -96.4543 997.444 
38.3296 -96.3949 996.817 
38.6845 -96.381 996.659 
39.0414 -96.3724 996.557 
39.3959 -96.358 996.395 
39.7453 -96.3314 996.106 
40.0934 -96.3025 995.794 
40.4509 -96.2963 995.716 
40.8164 -96.3089 995.834 
41.168 -96.289 995.614 
41.53 -96.2935 995.647 
41.8954 -96.3057 995.76 
42.2339 -96.2566 995.239 
42.605 -96.282 995.488 
42.9713 -96.2961 995.621 
43.3478 -96.3327 995.985 
43.7216 -96.3626 996.281 
44.0759 -96.3496 996.134 
44.4207 -96.316 995.773 
44.8394 -96.442 997.062 
45.1887 -96.418 996.8 
47.6567 -97.7838 1010.85 
47.9737 -97.6849 1009.82 
48.3312 -97.6694 1009.64 
48.7053 -97.6873 1009.82 
49.0696 -97.6857 1009.78 
49.4231 -97.6624 1009.53 
49.7841 -97.6545 1009.44 
50.1553 -97.6664 1009.54 
50.5243 -97.6741 1009.61 
50.8938 -97.6824 1009.68 
51.2698 -97.703 1009.88 
51.6241 -97.6825 1009.66 
51.986 -97.6763 1009.58 
52.36 -97.6929 1009.74 
52.7363 -97.7135 1009.94 
53.0988 -97.7085 1009.87 
53.4483 -97.6796 1009.56 
53.819 -97.6899 1009.65 
54.2 -97.7184 1009.93 
54.5643 -97.7168 1009.9 
54.9205 -97.7007 1009.72 
55.2678 -97.669 1009.38 
55.6351 -97.673 1009.41 
56.0334 -97.7309 1010 
56.4041 -97.7404 1010.08 
56.7485 -97.7044 1009.69 
57.105 -97.6895 1009.53 
57.4685 -97.6868 1009.49 
57.8327 -97.6853 1009.46 
58.2026 -97.6932 1009.53 
58.5697 -97.6966 1009.55 
58.95 -97.7217 1009.79 
59.3318 -97.7491 1010.06 
59.7029 -97.7585 1010.15 
60.0797 -97.7772 1010.33 
60.4186 -97.7344 1009.87 
60.7673 -97.7078 1009.58 
61.1408 -97.7211 1009.71 
61.5323 -97.7629 1010.12 
61.8928 -97.7552 1010.03 
62.2257 -97.7043 1009.49 
62.5768 -97.6824 1009.25 
62.9698 -97.7258 1009.69 
63.3363 -97.7278 1009.7 
63.7281 -97.7687 1010.1 
64.1003 -97.7792 1010.2 
64.4539 -97.7613 1010 
64.8272 -97.7733 1010.11 
35.1826 -97.0282 999.725 
35.5254 -96.9771 999.185 
35.8907 -96.9877 999.281 
36.2421 -96.9611 998.992 
36.596 -96.9416 998.778 
36.947 -96.915 998.49 
37.2842 -96.8529 997.838 
37.6253 -96.802 997.299 
37.9732 -96.7696 996.952 
38.3345 -96.7715 996.958 
38.6861 -96.7492 996.715 
39.0436 -96.7419 996.626 
39.392 -96.7124 996.309 
39.7331 -96.6655 995.813 
40.0856 -96.6473 995.611 
40.4692 -96.7036 996.178 
40.8284 -96.701 996.138 
41.191 -96.7066 996.182 
41.5331 -96.6642 995.732 
41.8913 -96.66 995.675 
42.2654 -96.6919 995.991 
42.613 -96.6635 995.684 
42.9659 -96.6474 995.505 
43.3583 -96.7195 996.234 
43.7149 -96.7114 996.138 
44.0718 -96.704 996.048 
44.4712 -96.7893 996.914 
44.8247 -96.7741 996.743 
45.1561 -96.712 996.09 
45.5261 -96.7327 996.291 
47.6352 -98.1082 1010.4 
47.9711 -98.0479 1009.77 
48.3252 -98.0255 1009.52 
48.7064 -98.0579 1009.84 
49.0708 -98.0563 1009.81 
49.4265 -98.0374 1009.61 
49.777 -98.0085 1009.29 
50.1585 -98.0409 1009.61 
50.5284 -98.05 1009.69 
50.8879 -98.0392 1009.57 
51.2585 -98.0496 1009.66 
51.6276 -98.0572 1009.73 
51.985 -98.0425 1009.56 
52.355 -98.0515 1009.64 
52.7313 -98.0723 1009.84 
53.0989 -98.0767 1009.88 
53.4564 -98.0626 1009.72 
53.8256 -98.0698 1009.78 
54.206 -98.0974 1010.05 
54.5724 -98.0994 1010.06 
54.9195 -98.0668 1009.71 
55.2613 -98.0254 1009.27 
55.6275 -98.0274 1009.27 
56.0316 -98.0959 1009.97 
56.408 -98.1152 1010.15 
56.7521 -98.0784 1009.76 
57.0972 -98.044 1009.39 
57.4762 -98.0676 1009.62 
57.8437 -98.0717 1009.65 
58.2085 -98.071 1009.63 
58.5719 -98.0681 1009.59 
58.9484 -98.087 1009.77 
59.3253 -98.1063 1009.95 
59.6927 -98.1097 1009.97 
60.085 -98.1539 1010.41 
60.4154 -98.0969 1009.81 
60.7494 -98.0466 1009.28 
61.1247 -98.063 1009.44 
61.5248 -98.1188 1010 
61.898 -98.1313 1010.11 
62.2344 -98.0858 1009.63 
62.5743 -98.0461 1009.21 
62.9601 -98.0785 1009.53 
63.341 -98.1028 1009.77 
63.7209 -98.1254 1009.99 
64.0884 -98.1288 1010.01 
64.4481 -98.1202 1009.91 
35.1965 -97.4323 1000.14 
35.5176 -97.3213 998.984 
35.918 -97.4273 1000.06 
36.2383 -97.3163 998.906 
36.5922 -97.2968 998.692 
36.9283 -97.2306 997.999 
37.2804 -97.2078 997.751 
37.6369 -97.1966 997.623 
37.9737 -97.1351 996.978 
38.3184 -97.095 996.554 
38.686 -97.1132 996.726 
39.0497 -97.1211 996.794 
39.3988 -97.0931 996.494 
39.7483 -97.0666 996.208 
40.1044 -97.0564 996.09 
40.4611 -97.0479 995.99 
40.8393 -97.0907 996.415 
41.1845 -97.0551 996.036 
41.5332 -97.0282 995.747 
41.8873 -97.0142 995.589 
42.2439 -97.0062 995.495 
42.6201 -97.0431 995.859 
42.993 -97.0718 996.141 
43.3564 -97.0788 996.2 
43.6963 -97.0338 995.724 
44.0937 -97.1159 996.553 
44.4724 -97.1558 996.949 
44.782 -97.0455 995.804 
47.29 -98.5189 1010.85 
47.6115 -98.4279 1009.91 
47.9751 -98.4245 1009.86 
48.3424 -98.4287 1009.89 
48.7044 -98.4221 1009.81 
49.0581 -98.3991 1009.56 
49.4197 -98.3921 1009.47 
49.7792 -98.381 1009.35 
50.159 -98.4099 1009.63 
50.5293 -98.4201 1009.72 
50.8803 -98.3925 1009.42 
51.2478 -98.3972 1009.46 
51.6294 -98.4287 1009.77 
51.9923 -98.4244 1009.71 
52.3577 -98.4247 1009.7 
52.7265 -98.4316 1009.76 
53.0941 -98.436 1009.79 
53.4594 -98.4361 1009.77 
53.819 -98.4259 1009.66 
54.1912 -98.4387 1009.78 
54.5662 -98.4563 1009.94 
54.9187 -98.4335 1009.69 
55.2624 -98.3951 1009.29 
55.6249 -98.3906 1009.23 
56.0205 -98.4444 1009.77 
56.3947 -98.4601 1009.91 
56.7399 -98.4253 1009.54 
57.0981 -98.4133 1009.41 
57.4806 -98.4432 1009.7 
57.8523 -98.4541 1009.8 
58.2152 -98.4503 1009.75 
58.5814 -98.4518 1009.75 
58.9486 -98.4552 1009.77 
59.3151 -98.4573 1009.78 
59.67 -98.4403 1009.59 
60.0653 -98.4896 1010.08 
60.4102 -98.4564 1009.73 
60.7573 -98.427 1009.41 
61.1347 -98.4468 1009.6 
61.5095 -98.4623 1009.75 
61.8807 -98.4718 1009.83 
62.2484 -98.4756 1009.86 
62.5789 -98.421 1009.28 
62.962 -98.4491 1009.56 
63.3472 -98.4802 1009.87 
63.7216 -98.4944 1010 
34.8059 -97.7172 999.341 
35.1577 -97.6904 999.053 
35.5056 -97.6535 998.662 
35.8747 -97.6753 998.872 
36.2068 -97.5966 998.054 
36.5555 -97.5638 997.705 
36.9076 -97.5409 997.457 
37.3045 -97.6356 998.412 
37.6221 -97.5227 997.245 
37.9765 -97.5068 997.068 
38.33 -97.4887 996.869 
38.6843 -97.4732 996.697 
39.0528 -97.4931 996.888 
39.3985 -97.4565 996.5 
39.7571 -97.452 996.441 
40.1148 -97.4455 996.361 
40.4669 -97.4258 996.146 
40.8267 -97.4247 996.121 
41.1887 -97.4288 996.15 
41.541 -97.41 995.944 
41.8832 -97.3683 995.504 
42.2665 -97.4218 996.038 
42.628 -97.4247 996.054 
42.9777 -97.4008 995.796 
43.3585 -97.4473 996.258 
43.7282 -97.4683 996.46 
44.0982 -97.4894 996.662 
44.4682 -97.5105 996.864 
44.8162 -97.4833 996.572 
47.2756 -98.8576 1010.55 
47.6057 -98.7843 1009.79 
47.9731 -98.7887 1009.82 
48.3375 -98.787 1009.79 
48.7004 -98.7824 1009.73 
49.0538 -98.7587 1009.47 
49.4144 -98.7498 1009.37 
49.7718 -98.7344 1009.2 
50.1526 -98.7656 1009.51 
50.5174 -98.7649 1009.48 
50.8708 -98.7422 1009.24 
51.2507 -98.7709 1009.52 
51.6184 -98.7758 1009.55 
51.9946 -98.7968 1009.76 
52.3502 -98.7788 1009.56 
52.728 -98.8024 1009.79 
53.1055 -98.8253 1010.01 
53.4647 -98.8141 1009.88 
53.829 -98.8122 1009.85 
