# .PCD v0.7 - Point Cloud Data file format
VERSION 0.7
FIELDS x y z normal_x normal_y normal_z curvature
SIZE 4 4 4 4 4 4 4
TYPE F F F F F F F
COUNT 1 1 1 1 1 1 1
WIDTH 628
HEIGHT 1
VIEWPOINT 0 0 0 1 0 0 0
POINTS 628
DATA ascii
149.24399 118.6282 924.5332 0.040815759 -0.15658779 -0.98682028 0.068675444
108.5944 -12.69186 927.15247 -0.89811897 -0.25296214 -0.35971174 0.010080677
107.96275 -11.141425 927.25598 -0.85231626 -0.28589147 -0.43797612 0.001281823
108.42599 -11.13395 926.62976 -0.88220364 -0.27670178 -0.38098937 0.01295452
107.3102 -8.8394957 927.17999 -0.86381596 -0.30150688 -0.4036279 0.0075008245
107.2095 -7.2560925 926.54529 -0.87834191 -0.24448761 -0.41078138 0.0075556692
48.996422 -2.4155161 927.67859 -0.18777297 -0.655496 -0.73148227 0.010510143
51.081486 -2.5374844 927.51617 -0.093332119 -0.72150576 -0.68608928 0.029845638
53.095665 -2.575284 927.32953 -0.018827111 -0.67627859 -0.73640537 0.0085203415
54.965302 -2.575285 927.2923 0.14365366 -0.63582152 -0.7583499 0.0063550859
56.6008 -2.3092468 927.80298 0.30606183 -0.6112293 -0.72987998 0.026925057
45.636497 -0.1690035 927.88098 -0.51619095 -0.39289108 -0.7610411 0.0038315717
47.154701 -0.8272121 927.39032 -0.38310462 -0.48189878 -0.78803843 0.015342619
48.911488 -1.0471767 926.93976 -0.22931913 -0.54013586 -0.80973208 0.023901194
50.934189 -1.0239198 926.59796 -0.12010095 -0.55219257 -0.82502073 0.021221519
53.13818 -1.1930555 926.51837 -0.0054983329 -0.55216515 -0.83371663 0.010535218
55.120735 -0.94993329 926.44965 0.19302909 -0.53508204 -0.82245183 0.016165968
56.832951 -0.97134334 927.22552 0.31611878 -0.51694435 -0.79551083 0.0048106592
58.577526 -0.62793201 927.63141 0.41822872 -0.49505723 -0.76157939 0.0051126159
45.346394 1.2892947 927.42084 -0.5498988 -0.37138543 -0.74812049 0.0095352791
46.997181 0.98858595 926.58282 -0.41215962 -0.41737947 -0.80988812 0.0077578966
49.020161 0.365183 926.10699 -0.23272486 -0.46297804 -0.85527211 0.0029599899
57.179199 0.49854773 926.33899 0.3271198 -0.50627249 -0.79792285 0.010756279
58.964111 1.1132022 926.81781 0.45465019 -0.47528887 -0.75325537 0.0064950283
60.468327 1.5688728 927.617 0.61489987 -0.41266713 -0.67201489 0.0011474554
43.767601 3.3085651 927.95752 -0.683101 -0.26661259 -0.67991966 0.015077841
45.048901 3.0371449 926.80365 -0.59983081 -0.32520503 -0.73105729 0.011637535
46.352901 2.5011899 926.15997 -0.48026371 -0.38475081 -0.78823453 0
59.537701 2.6795835 926.31763 0.5201242 -0.43565133 -0.73462832 0.0072610271
60.840157 3.0384629 927.16547 0.66422063 -0.40125364 -0.63071913 0.0079401135
43.517372 5.0257215 927.51105 -0.71390396 -0.24788453 -0.65490031 0.011751599
44.655357 4.7582579 926.64429 -0.65745658 -0.30226615 -0.69020718 0.0162709
61.398216 4.7467804 926.7088 0.67844653 -0.40324786 -0.61408591 0.0090564955
62.466148 5.4461899 927.48755 0.73081356 -0.40381569 -0.55031312 0.005551002
43.13522 7.1534271 927.01892 -0.74755418 -0.26202351 -0.61033303 0.0067174821
44.743801 6.23804 926.013 -0.6270014 -0.32710373 -0.70701659 0
61.8335 6.2386098 926.02502 0.66092074 -0.37864509 -0.64792877 0
62.970253 7.0471902 927.02765 0.76800066 -0.32737273 -0.55045611 0.010749842
153.05701 7.5916901 927.26697 -0.030687483 -0.91907972 -0.39287496 0.10559861
155.57399 7.50314 927.31537 -0.37357116 -0.73415416 -0.56697643 0.095304132
157.02725 7.4554648 926.896 -0.15360032 -0.71717364 -0.67975646 0.11691215
158.961 7.2707243 927.19775 0.19212179 -0.60619116 -0.77176517 0.09356492
160.61333 7.147953 927.42334 0.25483963 -0.66463804 -0.70236242 0.10060871
42.707809 9.2126598 926.88837 -0.80384189 -0.21409647 -0.55497843 0.011696754
63.305767 9.004426 926.71973 0.84615868 -0.18862945 -0.49843207 0.022369182
64.077499 9.9933701 927.573 0.80382752 -0.10071296 -0.58627492 0
150.77284 9.0119524 926.44818 0.16381577 -0.85559046 -0.49104917 0.10254673
152.81412 9.1290817 927.0177 0.064471617 -0.86077487 -0.50488615 0.067775846
155.04224 8.9293623 927.08087 -0.25456101 -0.72582948 -0.63903856 0.048103686
156.95551 8.6562195 926.47009 -0.15086006 -0.69649798 -0.70152104 0.068144001
159.1974 8.4980383 926.6922 0.13728496 -0.70727956 -0.69347566 0.045056202
161.07983 8.661788 927.00702 0.21489298 -0.78154165 -0.58567363 0.059961837
162.98141 8.9308405 927.11194 0.17615518 -0.7508713 -0.63652307 0.0146672
165.00482 9.5124168 926.79791 0.22012067 -0.71698713 -0.66141993 0.00059920695
166.51733 9.4693832 927.32568 0.24758738 -0.70923024 -0.66007042 0.0036319734
168.78 9.47616 927.927 0.22744204 -0.75300503 -0.61745739 0.031854596
42.366451 11.049382 926.55927 -0.79643577 -0.058773097 -0.60186028 0.0052404334
63.471165 11.050766 926.53204 0.82754481 -0.045046657 -0.55958939 0.0079139704
64.053398 11.058933 927.22266 0.84514856 -0.042313039 -0.5328542 0.0052512917
165.763 10.5276 926.117 0.31387308 -0.6324572 -0.70815372 0.006640804
167.0854 10.80077 926.59216 0.28011578 -0.60332149 -0.74668491 0.0029163284
168.91187 10.807858 927.16803 0.19072704 -0.61248732 -0.76712614 0.0096724909
170.89479 11.1293 927.11719 0.2121944 -0.64464051 -0.73444682 0.050370205
41.603764 12.663667 927.4173 -0.72151887 0.11059052 -0.68350589 0.000773012
42.539436 13.029941 926.83899 -0.77746218 0.080642626 -0.62373829 0.012035324
63.471451 12.92075 926.53302 0.82701695 -0.060759392 -0.55888391 0.0054904264
64.082199 12.936375 927.63672 0.89790511 0.029488206 -0.43920025 0.017646383
111.2195 12.9432 927.59802 -0.57205033 -0.7822082 -0.24679716 0.015854396
169.12949 12.2683 926.14648 0.17036252 -0.50069833 -0.84869182 0.029398371
170.59145 12.970667 926.37671 0.12817051 -0.46654829 -0.87515992 0.07547228
172.44701 12.6871 927.35303 -0.061996419 -0.51874918 -0.85267568 0.089700542
42.649059 14.90099 926.89325 -0.78295106 -0.040648166 -0.62075388 0.013693877
63.4389 14.2492 926.05603 0.79714036 -0.20684649 -0.56725818 0
64.096252 14.5442 927.83704 0.85756296 -0.11898673 -0.50042778 0.012364408
63.976898 16.386299 926.10699 0.8464731 -0.32060942 -0.42507982 0
173.31799 17.490999 926.242 0.2063798 0.057533544 -0.97677904 0.034013484
173.29449 18.82695 926.11304 0.22626533 0.057729539 -0.97235346 0
172.20599 21.768999 926.03802 0.32520056 0.28998092 -0.90008652 0.02833952
171.57784 23.297417 926.51227 0.38296863 0.44089097 -0.81175745 0.026400728
172.73654 23.092844 926.63531 0.43739867 0.46405569 -0.77028227 0.031076392
169.028 25.521002 926.29102 0.41837093 0.57225782 -0.70532739 0.041057069
170.96581 24.956989 926.98999 0.46162581 0.50605845 -0.72856468 0.02565279
172.36401 25.029566 927.84399 0.53332603 0.5286333 -0.66038638 0.009921615
165.54599 27.662251 926.35999 0.39294246 0.71109569 -0.58304298 0.0070265457
166.96098 27.050201 926.75464 0.35349363 0.70998335 -0.60906959 0.01933304
168.83618 26.712946 927.11401 0.32606772 0.6834389 -0.65313941 0.023989523
170.49532 26.268402 927.44336 0.43781456 0.59884328 -0.67060065 0.01955731
153.942 29.785601 926.06299 0.10532241 0.82942545 -0.54859883 0.012749544
155.05267 29.793501 926.28271 0.034956537 0.75054795 -0.65989071 0
156.62201 29.786667 926.03271 0.027725331 0.81600463 -0.57738012 0.018685572
161.14275 29.672501 926.53949 0.24218264 0.85101396 -0.4659645 0.012841778
162.9305 29.145689 926.76855 0.32381499 0.80787146 -0.49243033 0.0092897303
164.83519 28.42778 926.89581 0.37623349 0.75670451 -0.53464633 0.0066681756
166.02699 28.2339 927.54498 0.37793997 0.79687268 -0.47133365 0.013373295
153.62801 30.3645 927.41199 -0.049955443 0.86106139 -0.50604129 0.013792614
154.9162 30.55806 926.74738 0.018872978 0.81755584 -0.57553989 0.015615514
156.87115 30.531267 926.9704 0.028536778 0.86712414 -0.4972738 0.0205168
158.967 30.360765 927.17267 0.10413682 0.85862637 -0.50191253 0.0037459806
160.092 30.370899 927.45697 0.16609317 0.88968307 -0.42529649 0.0027301223
131.144 33.415447 927.05426 0.17420861 -0.02189103 -0.98446542 0.13800183
132.77414 33.321198 927.06146 0.1938429 0.21148653 -0.95796573 0.16318452
134.4375 33.269096 926.6355 0.010443958 0.40822944 -0.91281968 0.064561956
119.851 35.1786 927.88702 -0.38502547 0.61000258 -0.69256938 0.043544684
121.15533 34.786236 926.91766 -0.18787026 0.67476577 -0.71371984 0.017882956
122.98625 34.754951 927.24097 -0.16029704 0.35723367 -0.92015707 0.038376015
125.07258 34.987831 927.45905 -0.25895855 0.14115728 -0.95551819 0.066793196
126.88708 34.993412 926.89569 -0.19543889 0.053767242 -0.97924083 0.069903933
129.12694 34.933521 926.88904 0.042966608 -0.15485699 -0.98700207 0.044946745
131.078 34.94455 927.15002 0.11351745 -0.28678781 -0.95124477 0.034765661
132.92976 35.049065 927.47852 0.2279291 -0.33222476 -0.91524583 0.069487631
134.87326 35.58725 927.76996 0.38224518 -0.47060463 -0.79524833 0.019182023
123.49361 36.892879 927.81775 -0.35899287 -0.045306377 -0.93224007 0.019823451
124.86975 37.032845 927.26917 -0.33518368 -0.13603698 -0.93227994 0.022924643
126.93007 37.009289 926.63824 -0.26326612 -0.19302931 -0.94521457 0.031415559
128.96475 36.811745 926.28668 -0.098058254 -0.27590102 -0.9561711 0.011348979
130.95721 36.66993 926.24445 0.036222674 -0.39114156 -0.91961753 0.011016537
133.03346 36.79044 926.51764 0.1836606 -0.4510808 -0.87338132 0.017304089
134.9664 37.080692 926.92609 0.31520072 -0.51281697 -0.79854071 0.022835199
136.82687 37.395054 927.47473 0.40981659 -0.52417958 -0.74651599 7.2341762e-05
123.11188 39.323624 927.65692 -0.56628478 -0.022780733 -0.82389474 0.05907961
124.82393 39.159779 926.91577 -0.39764199 -0.095798217 -0.91252589 0.0090260431
126.80813 39.020657 926.2951 -0.31455606 -0.17661656 -0.93266338 0.010066374
135.19574 38.473198 926.28223 0.2648707 -0.46308061 -0.8458131 0.0019134929
137.14491 39.083874 926.59576 0.40553343 -0.50045103 -0.76491272 0.010810661
138.40733 39.0144 927.42816 0.56103879 -0.47868016 -0.67535228 0.0075447368
123.34216 40.984619 927.86334 -0.563806 0.049192127 -0.82444096 0.012950405
124.81957 41.031521 926.87384 -0.48054925 -0.020312194 -0.87673253 0.03408993
126.41567 40.821384 926.12036 -0.39749691 -0.10029858 -0.9121055 0.0072295214
137.842 40.4711 926.02899 0.37634289 -0.52057976 -0.76639599 0.016891537
139.11349 41.025803 926.45123 0.44342947 -0.59338111 -0.67176569 0.0099891331
140.79587 41.294556 927.30219 0.46961677 -0.68729055 -0.55415863 0.013030539
123.41334 42.763966 927.71484 -0.60605925 0.09410014 -0.78983372 0.010070846
124.82662 42.906746 926.91205 -0.53157353 0.032894351 -0.84637314 0.0097404895
126.1718 43.033337 926.15106 -0.47843674 -0.032834947 -0.87750793 0.015549714
141.052 42.280766 926.54279 0.46272275 -0.63298595 -0.6206581 0.0080571426
142.58971 43.194588 926.97656 0.57309341 -0.59550965 -0.56296736 0.009271781
123.60699 45.090401 927.80823 -0.70494497 0.15589538 -0.69191706 0.047914684
124.8545 45.05756 927.10559 -0.645271 0.071077719 -0.76064008 0.028664883
126.1905 44.607948 926.08032 -0.53683215 -0.03160556 -0.84309691 0.01544358
143.66634 44.786835 926.64935 0.63897032 -0.52874136 -0.55870336 0.0078264447
144.31067 44.820736 927.34033 0.69446063 -0.51631266 -0.50114435 0.003562243
38.885277 47.630127 926.18701 -0.31862658 -0.27760991 -0.90631664 0.10644971
123.62 46.434399 927.89697 -0.76643848 0.18467665 -0.61519647 0.039519187
125.06145 46.975094 926.99847 -0.67677897 0.13807936 -0.72312117 0.016495764
126.0985 47.698399 926.37 -0.64325756 0.12931584 -0.75465035 0.0052799382
145.27266 46.956867 927.17462 0.71726644 -0.49700436 -0.48838055 0.0078653665
146.201 47.5331 927.94299 0.6996547 -0.58488524 -0.41035676 0.028097697
125.12188 48.797832 927.51312 -0.70202917 0.13826461 -0.69859713 0.035055254
126.246 49.174576 926.45471 -0.64461279 0.16394311 -0.74672413 0.026874185
145.952 48.522598 926.35699 0.52275616 -0.66580069 -0.53238654 0.0084109781
146.82919 48.457779 927.151 0.48247579 -0.70889324 -0.51447797 0.011337797
36.2118 50.028 926.08301 -0.64610112 -0.5910688 -0.48289865 0.1039626
123.491 50.667252 926.89551 -0.42642617 -0.17665586 -0.88710392 0.099411428
125.27063 50.844597 927.65698 -0.63557065 0.10431138 -0.76496345 0.075064853
126.57619 51.03463 926.69885 -0.71092945 0.16543381 -0.6835283 0.06009699
125.654 52.282299 927.00897 -0.75528836 0.2623767 -0.60058147 0.092238113
126.94983 52.978424 926.66913 -0.71875238 0.2351763 -0.6542837 0.055436209
128.20801 53.5695 926.06348 -0.74262065 0.26102504 -0.61675 0.078550838
71.271103 55.706951 926.93298 -0.70283931 0.5529815 -0.44746882 0.026745815
127.35 54.811699 927.05548 -0.65766317 0.22268157 -0.71964717 0.060388736
128.491 55.150078 926.54523 -0.70346141 0.2391849 -0.66927773 0.064240478
71.070503 56.026901 927.80402 -0.60413778 0.42480293 -0.67421067 0.072186314
72.43203 57.046066 926.9411 -0.76703495 0.49557951 -0.40750256 0.026085442
128.278 56.274002 926.547 -0.71965116 0.35692823 -0.59557074 0.079567581
41.128113 59.238052 926.98773 0.8142814 0.3135879 -0.48847559 0.02007648
42.138901 58.113998 927.18701 0.74276221 0.48476502 -0.46185184 0.016201928
44.851898 59.7719 927.98602 -0.40208653 0.8013227 -0.44295421 0.056008175
73.255783 58.760445 926.96924 -0.81803888 0.30147862 -0.48981929 0.039605502
129.90149 58.690048 926.62451 -0.77307796 0.32589003 -0.54419309 0.06629014
130.472 58.706249 926.86652 -0.80560005 0.28379446 -0.52006662 0.059088614
40.625 60.868603 926.776 0.86766809 0.10542844 -0.48583624 0.0097462311
73.7379 61.105175 927.62549 -0.62054145 0.021467809 -0.78387976 0.051204052
74.181435 61.2971 926.47394 -0.78340989 0.13724004 -0.60616344 0.032172613
130.422 60.288898 926.49597 -0.92472935 0.18991271 -0.32986185 0.055923708
40.502876 63.143372 926.40698 0.9081223 -0.095018424 -0.40778103 0.0042547225
71.438133 63.172802 927.87335 -0.19412655 -0.28632581 -0.93826026 0.064680479
73.1129 63.420959 927.82635 -0.2648581 -0.21543151 -0.93991464 0.058102183
74.480103 62.659878 926.85071 -0.56577706 -0.0045677572 -0.82454562 0.031376645
41.094101 65.103897 927.67462 0.83592975 -0.25294882 -0.48707122 0.013710572
69.286934 65.661003 927.73065 -0.32920745 -0.37252319 -0.86766863 0.021246945
70.904236 64.845818 927.54578 -0.18852364 -0.32349005 -0.92726105 0.02693917
72.924538 64.841461 927.4599 -0.14034073 -0.27357677 -0.95155674 0.036044642
74.258278 64.838226 927.3985 -0.26916292 -0.23314096 -0.93444991 0.053522021
41.427532 66.760796 927.13568 0.77783692 -0.38609713 -0.49588183 0.004030175
42.338734 67.595406 927.5647 0.67502552 -0.42550915 -0.60272926 0.00250601
67.746902 67.153305 927.6449 -0.48220685 -0.43410012 -0.76094252 0.026684621
69.1623 66.964531 927.242 -0.29023072 -0.40168694 -0.86856985 0.025694288
71.005836 66.937874 926.85101 -0.11207566 -0.34369275 -0.93237031 0.021975264
72.882973 66.943604 926.90814 -0.091462798 -0.32776344 -0.94032216 0.026848031
74.185875 66.913208 926.4715 -0.17771874 -0.35142538 -0.91919327 0.04833667
42.909 68.971672 927.20966 0.68956292 -0.52492678 -0.49895376 0.017359143
65.537231 69.759735 927.66431 -0.51067036 -0.60740471 -0.60850251 0.014624887
67.068741 69.149757 927.1322 -0.45072851 -0.52999777 -0.71829391 0.036733244
69.009605 68.818062 926.36743 -0.21053377 -0.43755853 -0.87419569 0.036877692
70.965973 68.965218 926.30786 -0.080487229 -0.40216476 -0.91202259 0.058237314
72.575912 68.644119 926.38489 -0.12041796 -0.39586112 -0.91038096 0.06432502
74.161697 68.227501 926.15503 -0.24304885 -0.40136436 -0.88308203 0.061182115
43.745998 70.418503 927.125 0.64190644 -0.60270685 -0.47402596 0.010617604
44.896252 71.207664 926.94037 0.55770093 -0.64266551 -0.52531004 0.010593695
61.9902 71.566399 927.97498 -0.42274946 -0.73067808 -0.5360899 0
63.57 71.269745 927.58655 -0.4197115 -0.74956334 -0.5118565 0.011316521
64.793877 71.054939 926.99512 -0.42668509 -0.7133612 -0.55592775 0.025755115
66.710503 70.394165 926.60101 -0.38037595 -0.61271143 -0.69274729 0.051132452
71.487396 70.361603 926.11902 -0.099016018 -0.40849063 -0.90737605 0
45.863503 72.257202 926.6665 0.50747246 -0.72127426 -0.4714182 0.010061425
47.142914 72.752998 927.29468 0.40173435 -0.74999189 -0.52547276 0.029669717
49.009781 73.370033 927.18317 0.2769742 -0.76477295 -0.5817281 0.010272109
50.205898 73.692902 927.86798 0.26865965 -0.71340251 -0.64720851 0.017805554
54.744701 73.680199 927.66949 -0.13230853 -0.8346377 -0.53467226 0.028239051
56.885452 73.681526 927.6665 -0.088181667 -0.86899853 -0.48689383 0.0044363113
58.627159 73.437462 927.27539 -0.11915252 -0.89641273 -0.42690381 0.017887328
61.164547 72.921638 927.25354 -0.39199287 -0.79755813 -0.45852214 0.023213642
62.971451 72.267136 926.64453 -0.38492173 -0.78917211 -0.47858393 0.021292135
49.310303 74.088448 926.12048 0.2953591 -0.89179432 -0.34273303 0.0082060704
51.11562 74.257378 926.88153 0.23046836 -0.84467053 -0.48313144 0.0094439639
53.373081 74.613533 927.07733 -0.037922814 -0.88809019 -0.4581022 0.014082317
55.054604 74.342453 926.57404 -0.15357801 -0.88953722 -0.43027583 0.0026188889
56.816502 74.126724 926.53601 -0.12091554 -0.90496022 -0.40795395 0.0012901471
58.949799 74.1213 926.44849 -0.11803274 -0.88391727 -0.45250246 0.010844004
60.301601 74.141197 926.685 -0.2511639 -0.84009838 -0.48078218 0.032430403
36.637676 79.589844 926.43323 -0.47364271 0.73619121 -0.48340985 0.033768188
37.286339 80.920395 927.26746 -0.463745 0.61624372 -0.63654095 0.017981851
38.599442 81.191216 926.68359 -0.54077554 0.68237591 -0.49185866 0.028426591
37.889351 82.503799 927.604 -0.43511742 0.70635694 -0.55833036 0.031784881
39.26804 82.318222 927.31677 -0.44600028 0.75919068 -0.47403929 0.022444936
40.811726 82.998573 927.12897 -0.41152024 0.80528486 -0.42681068 0.0035994779
42.307201 83.584465 926.68799 -0.40763098 0.82595891 -0.38939539 0.00052912795
43.209667 84.320564 926.92902 -0.38474882 0.8495748 -0.36081982 0.0068798154
45.486851 84.998604 927.00824 -0.32336238 0.87391663 -0.36291379 0.0050184401
46.657249 85.339905 926.34399 -0.31456718 0.88435692 -0.34490633 0.0066143316
107.6075 -11.159975 928.81201 -0.90551364 -0.2851195 -0.31424823 0.01021605
45.799366 -2.4912434 929.37531 -0.44725117 -0.63047451 -0.63440388 0.0046779839
47.091133 -2.6936028 928.68085 -0.33649826 -0.67749035 -0.65404564 0.0074411929
48.788181 -3.1535172 928.95001 -0.16367306 -0.82836884 -0.53573895 0.015594544
50.888557 -3.2762198 929.01355 -0.078790732 -0.85030991 -0.52035093 0.0047613955
53.234497 -3.4898839 928.81921 -0.022983149 -0.86464518 -0.50185698 0.0069008069
55.072922 -3.51791 929.10657 0.10154113 -0.85540557 -0.50790817 0.0069014095
57.012859 -3.0256042 928.70105 0.26837769 -0.73060113 -0.62784976 0.019368408
58.947521 -2.7957039 929.36438 0.42743447 -0.65162009 -0.62665057 0.013227964
43.667835 -0.34794068 929.62866 -0.6572262 -0.40045515 -0.63850558 0.0097972602
45.126778 -1.0343491 928.82721 -0.54664129 -0.46576425 -0.69587851 0.0038632499
46.4529 -1.77447 928.15601 -0.44293055 -0.59775007 -0.66821212 0.03920339
57.697449 -1.50755 928.22852 0.35572472 -0.52755064 -0.77145988 0.0051234374
59.385349 -1.2405577 928.57495 0.51250666 -0.49188882 -0.70383394 0.0082662515
60.816467 -0.52716666 929.52814 0.67002666 -0.44360739 -0.59521151 0.0095899655
43.337162 1.2430246 929.15875 -0.67533582 -0.32301134 -0.66301233 0.0026383887
44.538342 0.90133798 928.40985 -0.60521209 -0.35988376 -0.71007192 0.0093991822
61.150665 0.96830428 928.83636 0.6586231 -0.39394847 -0.64110857 0.0014977448
62.075401 1.7063501 929.64746 0.72241074 -0.35841852 -0.59131968 0
41.7183 3.5838599 929.979 -0.79083675 -0.21806335 -0.57186151 0.005743261
42.849342 2.9906793 928.93262 -0.69824332 -0.24604665 -0.67224795 0.00081711344
61.71685 3.0421648 928.28748 0.7325452 -0.38745269 -0.55969441 0.012040669
62.598881 3.0459557 929.45563 0.77607745 -0.33301711 -0.53554034 0.0069915536
41.356098 5.5491166 929.87103 -0.79118216 -0.17507115 -0.58598715 0.015328635
42.55661 4.8287258 928.77539 -0.73309034 -0.20074131 -0.64983201 0.0071021491
63.017071 4.8802142 928.8468 0.75497705 -0.38490474 -0.53090298 0.0066380897
165.133 5.72614 928.625 0.37350538 -0.54293001 -0.75214416 0.12858036
41.459629 6.9490361 929.32874 -0.74456757 -0.17727962 -0.64357674 0.0057468028
42.402321 6.6831422 928.5202 -0.73163313 -0.19680506 -0.65267199 0.003103337
63.587502 6.2535601 928.23401 0.7466591 -0.3748087 -0.54956222 0
64.17218 7.0615726 928.94629 0.82216763 -0.31880352 -0.47159806 0.0092634298
153.55899 7.8715949 928.67603 -0.14862809 -0.83542347 -0.52912885 0.10378078
154.76979 7.6558657 928.51257 -0.33222517 -0.72861373 -0.59895617 0.089967906
159.192 7.8712101 928.547 0.23082916 -0.75470746 -0.61411285 0.10014883
161.28613 7.3352876 928.58026 0.1998812 -0.8341381 -0.51406342 0.1107102
162.91335 7.0467801 929.09644 0.23309526 -0.68647462 -0.68878096 0.078795098
164.86034 7.34375 929.61713 0.24503891 -0.74521577 -0.62016875 0.07593517
166.96399 7.8829746 929.81152 0.21062161 -0.78023118 -0.58896339 0.044419449
41.680351 8.6694508 929.13049 -0.81257576 -0.19115072 -0.5506196 0.031394366
42.191849 8.664505 928.59802 -0.77953702 -0.23681471 -0.57986271 0.0059831571
64.113434 8.9285669 928.09473 0.86632115 -0.17714158 -0.46702081 0.007926424
153.38051 8.5397072 928.41125 -0.07218723 -0.82780242 -0.55635613 0.08666645
154.64801 8.408905 928.75201 -0.22928478 -0.81525367 -0.53177994 0.097023129
163.97 8.4047499 928.13898 0.13618179 -0.70196873 -0.69906682 0.00097917533
165.08067 8.4066162 928.32635 0.21528493 -0.78423387 -0.58191884 0.038174774
167.15288 8.8789034 928.61139 0.20630921 -0.74752307 -0.6313839 0.0041082553
168.76537 8.8824081 928.95685 0.18274498 -0.75051981 -0.63507807 0.0025925799
170.56683 9.1326714 929.34064 0.27054539 -0.75043803 -0.60303235 0.0084170382
64.68795 10.808175 928.65302 0.87359303 -0.059947506 -0.48295078 0.0040659411
111.958 11.626 929.276 -0.59658664 -0.71889567 -0.35675386 0.0019943547
112.27734 11.264534 928.95898 -0.62318629 -0.70452523 -0.33953372 0.0073940116
169.875 10.0137 928.02002 0.17547248 -0.68924624 -0.70295745 0.00043018011
171.07036 10.020733 928.65533 0.23174311 -0.70197242 -0.67344618 0.0025155246
172.172 11.096 928.77802 0.50377887 -0.67754966 -0.5358482 0.049627393
41.642799 13.746 928.28699 -0.8380726 0.11014564 -0.53432423 0.0472573
64.685547 12.41445 928.61694 0.8852253 0.021243401 -0.46467721 0.0065732705
109.26833 13.591466 929.24738 -0.45419869 -0.82707167 -0.3311435 0.00086828711
111.03617 12.605933 929.05585 -0.57092637 -0.75795537 -0.3155103 0.0082776016
112.36 12.1478 928.15997 -0.62988091 -0.73166293 -0.26061344 0.021423744
41.630901 14.2771 928.01898 -0.74741876 0.068421096 -0.66082048 0.020083044
106.83025 14.839149 929.06372 -0.42597929 -0.86144936 -0.27649009 0.0081593432
108.347 14.29105 928.258 -0.43938521 -0.84607559 -0.30182233 0.00040210065
188.03 17.5641 929.77802 0.11606587 -0.13693035 -0.98375756 0.10684102
183.19701 18.640301 929.93903 -0.24694996 0.015419791 -0.96890557 0.012903465
185.90601 18.911049 929.96649 -0.28312016 0.041786347 -0.95817375 0.06526418
188.39867 18.281868 929.81598 0.15690064 -0.04925783 -0.98638523 0.053662956
187.101 21.060301 929.854 -0.21801105 0.014693179 -0.97583574 0.053439595
188.06 21.868999 929.91602 -0.10452402 -0.096266232 -0.98985225 0
173.743 23.70615 928.49597 0.67597985 0.48272952 -0.5567975 0.019963358
174.552 23.4743 929.935 0.83027053 0.31820866 -0.45759594 0.016738845
187.66519 23.043159 929.56238 -0.34988075 0.08267507 -0.93313903 0.062246151
188.7794 23.15542 929.72345 0.0092175482 -0.053210575 -0.9985407 0.054754026
191.84801 23.4849 929.91699 0.46087897 -0.16568229 -0.87186009 0.0016008733
173.24976 24.919874 928.73926 0.64598095 0.51851147 -0.56022716 0.017226102
174.51401 24.006599 929.729 0.78156674 0.4117575 -0.46862486 0.013252464
187.53 24.021 929.95898 -0.48394078 0.20179197 -0.85151708 0
189.11037 24.420012 929.75128 -0.069595762 0.17824136 -0.98152256 0.050102793
190.20599 25.0947 929.81702 0.1517043 0.18456265 -0.97104192 0.032501902
167.47601 27.715801 928.1145 0.27022892 0.82317036 -0.49936643 0.018828012
169.53574 27.58955 928.32874 0.28454226 0.70572823 -0.64883226 0.0036798832
171.19237 27.071186 928.90997 0.46664768 0.65419346 -0.5952065 0.0053268434
172.42168 26.317001 929.11639 0.57742828 0.58789963 -0.56652504 0.0093161985
163.27899 29.8787 928.74805 0.29763794 0.85988569 -0.41473871 0.0021084216
164.75681 29.45484 928.8786 0.37524238 0.83242822 -0.40774563 0.0031575959
167.41525 28.4216 929.26923 0.23341228 0.82566935 -0.51360381 0.04248311
168.73479 28.50732 929.40558 0.19525069 0.80752808 -0.55657494 0.032034479
170.16901 28.298599 929.57703 0.30467159 0.69679874 -0.64934337 0
154.825 30.9252 928.13202 -0.0011615449 0.68298745 -0.73042923 0
157.536 30.931101 928.24701 0.058866173 0.81523108 -0.57613635 0
161.03149 30.396549 928.2215 0.24176008 0.91104752 -0.33398283 0.0076984768
167.953 30.972799 929.25201 0.023518905 0.80619216 -0.59118617 0.14163038
135.51001 33.46867 929.69366 0.55283809 -0.6334877 -0.54135329 0.033052094
117.6855 35.2519 929.86499 -0.56275874 0.59463996 -0.57420033 0.032610551
119.26619 35.441978 929.18878 -0.50343591 0.45902973 -0.73201358 0.051081397
121.1324 35.530464 928.65704 -0.39098009 0.36125547 -0.8465395 0.037973203
122.81414 35.500912 928.25488 -0.27061233 0.21645568 -0.93803835 0.060287554
124.4495 35.191849 928.15002 -0.28229311 0.11923182 -0.95188987 0.10316339
130.92599 34.6684 928.35803 0.12406613 -0.22351898 -0.96677136 0.036051068
133.12599 34.302433 928.08234 0.30550691 -0.21692307 -0.92715144 0.093427487
135.01349 34.618526 928.73999 0.47736281 -0.47399521 -0.73990089 0.024651321
136.70587 35.37767 929.27191 0.51930904 -0.61297995 -0.59546083 0.0092530428
119.57 36.863899 929.867 -0.55751109 0.25994122 -0.78842372 0.0032320453
120.8375 37.109673 929.27386 -0.51421827 0.15651491 -0.84325719 0.021062931
122.54082 37.144821 928.28931 -0.45321271 0.024945229 -0.89105332 0.036269188
137.13651 36.556885 928.53619 0.51158941 -0.58118606 -0.63284999 0.015024896
138.71114 37.525944 928.78412 0.64362144 -0.49739254 -0.58168042 0.011728409
120.85266 38.992168 929.37885 -0.59537548 0.062726967 -0.80099523 0.015678331
122.505 38.770317 928.31714 -0.56280845 -0.0058207954 -0.82656687 0.031857718
139.39766 39.002468 929.25336 0.68353653 -0.48477051 -0.54568785 0.01736255
140.75751 39.544449 929.34302 0.5874666 -0.63250571 -0.5047965 0.034173388
119.263 41.413101 929.54602 -0.52938879 0.050967488 -0.846847 0.0077548642
121.01676 40.897198 929.51489 -0.60937995 0.10069109 -0.78645879 0.043897029
122.40613 40.895813 928.40076 -0.60551411 0.077703595 -0.79203212 0.008668853
139.586 40.321049 928.70728 0.59594852 -0.60113341 -0.53243214 0.026578821
140.94339 40.486744 928.78778 0.49531242 -0.68059117 -0.53987145 0.013088387
142.44366 41.329601 929.20703 0.58634055 -0.67734307 -0.4443098 0.020194264
121.0557 43.191833 929.67126 -0.61595881 0.16632044 -0.77002096 0.039502542
122.5401 43.09417 928.69092 -0.64994347 0.12675858 -0.7493369 0.026900202
143.27167 42.740967 928.74835 0.68154579 -0.60280651 -0.41487309 0.010787409
121.48901 44.539867 929.409 -0.70379239 0.21229252 -0.677944 0.036694899
122.69392 45.148624 929.02802 -0.67068648 0.2001162 -0.71423608 0.009825889
145.138 45.927799 928.03699 0.75573391 -0.47408527 -0.45178476 0.0060385983
123.10537 46.962353 929.07758 -0.74211538 0.21918069 -0.63342297 0.025322828
124.191 47.251549 928.14697 -0.71707749 0.18527268 -0.67191809 0.014358385
121.746 49.758701 929.96802 -0.8338809 0.11475986 -0.53988224 0.083063215
123.58 48.88187 929.30896 -0.7450701 0.12336244 -0.65547866 0.035453994
124.58984 49.05405 928.43488 -0.73022866 0.10615166 -0.6749059 0.043376952
123.21533 50.416767 928.8667 -0.73661602 -0.11252245 -0.6668849 0.06839186
124.9915 50.197548 928.08301 -0.6535663 0.055937838 -0.75479931 0.054329865
70.328445 55.539551 928.61749 -0.52151901 0.55687612 -0.6464572 0.14264509
69.282669 57.198799 929.46484 -0.1686841 0.07146588 -0.98307592 0.05271842
70.832809 57.030159 929.19489 -0.40904334 0.21286942 -0.88733882 0.067965828
72.179306 57.395752 928.27698 -0.66335648 0.34917039 -0.66184449 0.064838588
43.054279 59.339798 929.62109 0.19695303 0.64473659 -0.73859614 0.11491525
44.390598 59.8713 929.53497 -0.29110423 0.62818414 -0.72155607 0.11569794
65.8713 59.911098 929.96503 -0.50941855 0.37722373 -0.77343071 0.081775345
67.608437 59.50922 929.25653 -0.39243391 -0.024506008 -0.91945362 0.088102579
69.071648 59.091618 929.70367 -0.25796247 -0.09598799 -0.96137488 0.067734651
70.899071 59.050556 929.03833 -0.29283687 -0.073059782 -0.95336705 0.053970538
72.631805 59.23999 928.71765 -0.5198729 0.059100658 -0.85219675 0.0812013
41.414932 61.169498 928.90607 0.81287766 0.086744167 -0.5759387 0.037278246
45.074673 60.630985 929.42566 -0.26024765 0.51970083 -0.8137458 0.080409482
46.906399 61.159698 929.29572 -0.21127473 0.68849111 -0.69378895 0.061545994
48.911274 61.436325 928.83105 -0.1163274 0.84741235 -0.51803499 0.014342239
50.246799 61.431999 928.75598 -0.053102955 0.9104017 -0.41030344 0.0098217996
67.5532 60.880001 929.71283 -0.50649488 -0.010395282 -0.86218029 0.048180148
68.947815 60.954052 929.46417 -0.41381869 -0.12362491 -0.90192634 0.056686722
70.861938 61.162319 928.53168 -0.23809484 -0.2023569 -0.94992763 0.015156413
72.740578 61.166035 928.56586 -0.30711523 -0.13530953 -0.94200402 0.028224394
41.456043 62.895962 928.95367 0.74950325 -0.12181167 -0.65069711 0.020805012
42.259701 63.375099 929.79553 0.52073103 -0.22189592 -0.82437944 0.031394068
48.155602 62.0331 929.74701 -0.054611985 0.56611168 -0.82251757 0.11354177
51.384201 62.047852 929.9425 0.020871 0.69069189 -0.72284794 0.047611631
54.569965 62.548138 929.37402 -0.04866318 0.97578031 -0.21327122 0.035245221
67.751732 62.944187 929.43652 -0.59511578 -0.16993077 -0.7854684 0.027656777
69.028984 62.80695 929.09351 -0.43362054 -0.21377738 -0.87536991 0.013245326
70.631012 62.957512 928.21832 -0.28129953 -0.28302541 -0.91693354 0.044600025
72.858986 62.705143 928.10797 -0.27596828 -0.20870629 -0.93823409 0.058099486
74.307899 63.543201 928.03198 -0.41004464 -0.17883274 -0.89436138 0.083364852
41.55946 64.734268 928.51221 0.70834625 -0.25143173 -0.65956616 0.0066081821
43.016392 65.084709 929.57269 0.42404732 -0.31326175 -0.84973586 0.044420209
44.873951 65.32029 929.77563 0.1969493 -0.29325223 -0.93552876 0.062208213
46.824898 65.800201 929.90747 0.16267149 -0.25046232 -0.95436192 0.005092409
67.518974 65.048912 928.9549 -0.61103964 -0.34612608 -0.711918 0.025387596
68.979332 64.743515 928.40466 -0.41906178 -0.34314197 -0.84061921 0.029089827
70.036003 64.087799 928.21002 -0.28999722 -0.29581577 -0.91016191 0
43.169006 66.923538 928.9054 0.45294687 -0.33779371 -0.82506639 0.012168377
45.008186 67.169365 929.44067 0.21067832 -0.27766758 -0.9372915 0.022540232
46.815033 67.126945 929.69824 0.1795166 -0.26799208 -0.94654846 0.041945133
48.292023 67.533073 929.73676 0.19682552 -0.2467007 -0.94889331 0
65.630241 67.501419 929.51349 -0.64382374 -0.477088 -0.59822899 0.023460813
66.861923 67.071075 928.74249 -0.62440336 -0.42904288 -0.65271938 0.019629238
43.674648 68.778473 928.46924 0.52245384 -0.44399014 -0.72795236 0.047322284
45.092632 69.09922 928.91193 0.29895222 -0.37227389 -0.87865794 0.029319318
47.057819 68.96682 929.17651 0.21169487 -0.29872826 -0.93056256 0.050974634
48.881535 69.045906 929.57166 0.22018617 -0.27032873 -0.93725151 0.030567827
50.582649 69.292801 929.92548 0.19632602 -0.2691848 -0.94286567 0.013990446
63.716202 69.2882 929.74402 -0.50691491 -0.59594107 -0.62280935 0.024025211
64.999748 69.120499 928.91974 -0.57626116 -0.57295132 -0.5827949 0.017355658
66.2799 68.362701 928.08197 -0.5619927 -0.47227317 -0.67905986 0.0007083356
45.546249 70.649445 928.39026 0.37145957 -0.49001321 -0.78860945 0.030843401
47.035095 70.80838 928.70697 0.28040981 -0.40569496 -0.86993212 0.037873335
48.932453 70.841721 929.13 0.22992936 -0.38221031 -0.89501274 0.046106879
51.100506 70.876358 929.56696 0.19051555 -0.34309018 -0.91977876 0.017971154
52.787575 71.093651 929.7627 0.16026795 -0.34070402 -0.92640972 0.014766576
54.782932 71.70636 929.85834 0.098232359 -0.43906257 -0.89307022 0.010450927
56.755051 71.713898 929.93848 0.05490163 -0.62079281 -0.78204995 0.064793393
61.193401 71.320412 929.43512 -0.36203629 -0.70887077 -0.60533631 0.026290476
62.88377 70.92144 928.87891 -0.43161821 -0.72168392 -0.54118198 0.021130309
64.179153 70.280746 928.6665 -0.50967562 -0.6922769 -0.51086551 0.024600029
47.279701 72.112595 928.237 0.32416192 -0.58885187 -0.74038678 0.023945807
48.86729 72.486519 928.43848 0.24667023 -0.57752854 -0.77821237 0.030832628
51.104301 72.896538 928.63806 0.23480472 -0.57573253 -0.78319782 0.040083181
53.036812 73.052589 929.13715 0.0842731 -0.54655045 -0.833175 0.0099772029
54.89518 72.809822 929.18451 -0.0031410907 -0.62488317 -0.78071195 0.021970626
56.977154 72.727898 929.17365 -0.021542585 -0.72271037 -0.69081515 0.017099228
59.293674 72.731071 929.19342 -0.18326452 -0.76078856 -0.62258726 0.020167125
60.5807 72.3013 928.25165 -0.36614478 -0.79895169 -0.47708943 0.036167156
52.725735 74.438805 928.23999 0.057346832 -0.80203682 -0.5945152 0.041640218
36.839199 80.673798 928.13098 -0.43313226 0.59137642 -0.68019885 0.037266523
38.732849 82.859406 928.58398 -0.37987807 0.77257091 -0.50875026 0.025746528
40.883472 83.680252 928.75153 -0.36183968 0.84411383 -0.39565632 0.0048242607
43.035824 84.905975 928.9425 -0.38205662 0.84002692 -0.38521105 0.0017852971
44.757923 85.405151 928.52319 -0.34454861 0.87388456 -0.34294602 0.0047145616
52.803749 -4.4671497 931.61304 -0.022048619 -0.94832927 -0.3165209 0.0026514356
54.9678 -4.4685297 931.86646 0.030470766 -0.95078957 -0.30833545 0.0020878164
56.313301 -4.4687901 931.89801 0.042136326 -0.93401456 -0.35474133 0
43.750198 -2.4965465 931.38104 -0.53388095 -0.61130941 -0.58418489 0.003468028
44.987324 -3.0327587 931.05011 -0.43031216 -0.74035358 -0.51643783 0.014001142
46.749371 -3.6971955 931.01569 -0.24092741 -0.86587673 -0.43841931 0.0070245634
49.013927 -3.9274025 931.05597 -0.07694757 -0.93101382 -0.35678056 0.0011577139
51.124847 -3.9247274 930.39124 -0.067160569 -0.93955868 -0.33573654 0.0030896666
52.733299 -3.9247599 930.37097 -0.034076024 -0.95361519 -0.29909346 0.0063887034
54.790066 -3.9248867 930.36932 0.039110318 -0.94356197 -0.32887867 0.0031433639
57.059052 -3.92733 930.91028 0.12336466 -0.90980941 -0.39626753 0.0057095587
59.119602 -3.5700467 930.95367 0.35863739 -0.81664205 -0.45218897 0.021005653
60.760864 -2.975059 931.41406 0.58178526 -0.64865232 -0.49068931 0.018023117
41.795223 -0.97534555 931.69177 -0.72954834 -0.35375533 -0.58533442 0.0043496806
43.014236 -1.0640277 930.95508 -0.66438395 -0.43531883 -0.60752892 0.0069616209
44.405499 -1.77812 930.10999 -0.61234212 -0.57310468 -0.54459912 0.029593071
61.253681 -1.4224143 930.7395 0.67760503 -0.46254754 -0.57175273 0.0073965937
62.326176 -0.57311624 931.39001 0.72840852 -0.41681162 -0.54377306 0.0059377356
41.56728 1.5487157 931.40167 -0.84896237 -0.25573358 -0.46245345 0.013528185
42.392059 1.0108902 930.64539 -0.73380989 -0.30426687 -0.60740823 0.0093707694
62.743538 1.1417518 930.71844 0.74409753 -0.35252091 -0.56749272 0.0056675104
41.431721 2.9429259 930.76953 -0.82775003 -0.2403319 -0.50702119 0.0073185326
63.664051 2.9178524 931.31146 0.79496491 -0.28157461 -0.53735137 0.0031599482
41.51812 4.5504637 930.29846 -0.82357246 -0.19221291 -0.53365034 0.017353658
63.748669 4.6593471 930.58795 0.81756824 -0.34110597 -0.46392766 0.0056143571
165.918 5.7347002 930.00299 0.34159541 -0.65550548 -0.67351699 0.11802535
167.23967 5.7430634 931.34796 0.28775671 -0.73619288 -0.61254889 0.11196554
168.875 5.7436466 931.42169 0.23832692 -0.77633178 -0.58353174 0.10048926
163.5475 7.3493299 930.33551 0.31990743 -0.62710416 -0.71021104 0.078882441
165.064 6.9691315 930.8374 0.2288543 -0.81702787 -0.52923644 0.096556842
166.77713 7.2037396 931.35333 0.21727267 -0.7690261 -0.60115844 0.071858153
168.88133 7.7134767 930.95782 0.20122847 -0.79957634 -0.56584883 0.044111341
170.48599 7.6272202 931.35803 0.34615475 -0.74211758 -0.57396716 0.035935812
169.79201 8.4271002 930.51703 0.28210783 -0.83671588 -0.46938443 0.040110983
170.99701 8.4334002 931.19299 0.3356044 -0.80678332 -0.48628226 0.0061032013
181.414 8.4414597 931.90399 -0.11664037 -0.35303602 -0.92831063 0.096081831
187.056 9.2483854 931.672 -0.15408322 -0.49731421 -0.85377806 0.066617653
111.3112 11.32558 931.06036 -0.60009074 -0.70999002 -0.36851773 0.0067033777
112.405 10.57025 930.75549 -0.64076865 -0.68436491 -0.3479372 0.0098576862
183.58701 11.4057 931.9325 -0.40472171 -0.22162792 -0.8871761 0
184.6348 11.134351 931.75391 -0.24425153 -0.29022473 -0.92526257 0.040554874
186.79311 10.966351 931.1701 -0.089364089 -0.24581732 -0.96518803 0.011727486
107.47359 13.58636 931.38757 -0.43472108 -0.82401234 -0.36334732 0.0078757368
108.87186 13.106514 931.10699 -0.44211009 -0.81739539 -0.36932844 0.0051097944
110.395 12.316525 930.82422 -0.53557217 -0.77230275 -0.34162989 0.0084105087
183.6362 13.179561 931.63019 -0.42006132 -0.17151257 -0.89114088 0.042409949
184.86801 12.959713 931.28894 -0.20575787 -0.19618292 -0.95873666 0.053208429
186.75946 13.091201 931.53906 0.1245169 -0.1547806 -0.98007065 0.10422599
105.19567 14.873401 931.23096 -0.42245239 -0.84198612 -0.33554927 0.0067749922
106.5965 14.46 930.54071 -0.44082335 -0.82815892 -0.34616119 0.0036461218
183.35176 15.023444 931.65063 -0.52218735 -0.037274446 -0.85201579 0.042390026
184.83122 15.236415 930.78809 -0.24873677 -0.11460959 -0.96176642 0.067722313
186.90692 15.22056 931.19061 0.094069384 -0.24990036 -0.96369123 0.07575988
183.312 17.332451 931.90399 -0.77016836 0.14851832 -0.62030888 0.082085267
184.90665 17.081615 930.7757 -0.34252244 -0.020268667 -0.939291 0.05972321
187.04091 16.990299 930.77625 0.016882434 -0.2001054 -0.97962892 0.10835955
188.28601 17.0333 930.15167 0.18853873 -0.19672123 -0.96216106 0.072743781
180.63966 19.211233 931.61835 -0.76037943 0.46900836 -0.4492819 0.057587236
183.5025 18.940701 931.49097 -0.34759301 0.096018843 -0.93271613 0.090036049
184.92999 18.933739 931.1062 -0.39388424 0.096525885 -0.91407764 0.067040831
187.09547 18.922441 930.50391 -0.093133621 -0.0050442764 -0.99564087 0.051779088
188.88924 19.317202 930.74969 0.19823739 -0.027876856 -0.97975749 0.012657442
181.68233 20.463999 931.40704 -0.39015171 0.52324325 -0.75762665 0.069499411
182.98257 20.665442 931.20099 -0.19750714 0.38945085 -0.89962155 0.083901957
185.12975 21.096352 931.4978 -0.40855229 0.29284984 -0.86447895 0.041061763
186.68825 21.074625 930.492 -0.33556879 0.12123309 -0.93418199 0.067662805
189.08202 21.026344 930.68683 0.20502615 -0.13589527 -0.96927643 0.042096075
190.69049 21.274817 931.31598 0.41384622 -0.2468209 -0.87624806 0.014744594
185.19402 22.809832 931.81567 -0.43462169 0.34890524 -0.83028251 0.020675791
186.79388 22.911636 931.35071 -0.557082 0.26903069 -0.78567308 0.055247966
189.31279 22.63002 930.2204 0.14408226 -0.1526413 -0.97772229 0.026147913
191.17255 22.922745 930.94037 0.44971892 -0.2195747 -0.86575967 0.017026309
192.89034 23.344833 931.46533 0.51167744 -0.22369143 -0.82954711 0.027729146
173.51801 25.6306 930.17603 0.63636357 0.52628255 -0.56397539 0.015826434
174.31367 25.104233 930.57831 0.73810703 0.37943995 -0.5578739 0.028544514
187.358 24.925787 931.11926 -0.59116149 0.37955129 -0.71166629 0.024259854
188.70374 25.244238 930.4115 -0.3091552 0.38339078 -0.87030715 0.044078972
190.95128 24.821938 930.57501 0.25862524 0.056982834 -0.96429557 0.015689747
192.77391 24.963516 931.55396 0.39875469 -0.13470067 -0.90711105 0.0092469733
171.88 27.7773 930.07397 0.51510274 0.63435733 -0.57641989 0
173.304 26.735125 931.19824 0.56257111 0.58548707 -0.58371109 0.035426833
174.7346 26.528641 931.4718 0.60867423 0.46741328 -0.64112443 0.070832051
187.61899 26.22225 931.7395 -0.57146645 0.50502121 -0.64682281 0.020452786
189.24683 26.794851 931.30255 -0.30153957 0.54286629 -0.78381771 0.023249703
190.90691 27.074062 930.99701 -0.071443155 0.36388189 -0.92870116 0.029727688
192.91145 27.016642 931.12012 0.17327002 0.010729018 -0.98481596 0.017516084
194.78227 27.382414 931.73627 0.36158469 -0.16237959 -0.91809005 0.036079615
165.72701 29.6644 930.38904 0.25845799 0.84726566 -0.46404788 0.056159165
167.01933 29.537642 931.06891 0.13904634 0.83638608 -0.53021175 0.078405194
169.0878 29.194361 930.7536 0.25178081 0.81644112 -0.51964438 0.044083208
170.89282 28.793068 931.06934 0.40936148 0.7951296 -0.44742841 0.014018503
172.192 28.366301 931.76001 0.46200788 0.7023769 -0.54149377 0.0024993664
191.12 28.377066 931.62305 -0.26083785 0.52807176 -0.80814844 0.027805438
193.00822 28.989847 931.27844 -0.091191523 0.36830342 -0.92522252 0.029394921
194.89981 29.11289 931.55231 0.19580759 0.16732444 -0.9662618 0.056089625
196.06 29.198551 931.91248 0.29250357 0.035349637 -0.95561081 0.011264929
167.69049 30.754398 930.78601 0.054943603 0.85640985 -0.51336473 0.1148397
168.631 30.7789 931.50549 0.23312688 0.90932757 -0.34463781 0.096545205
193.0695 30.0033 931.87152 -0.23112649 0.5465728 -0.80488431 0.0051662126
195.14368 30.363832 931.84863 0.063801229 0.43226019 -0.89948905 0.043347269
196.58899 30.275101 931.84375 0.23059975 0.22928816 -0.94564831 0.04563269
136.547 33.7271 931.87201 0.62397248 -0.71692759 -0.31092316 0.01821029
117.061 35.575172 931.31555 -0.62502992 0.52262449 -0.57982862 0.01882083
118.56467 35.811031 930.42938 -0.63264877 0.44491345 -0.633883 0.061756711
137.30225 34.890327 930.58173 0.59955639 -0.64801055 -0.46969619 0.0064114537
138.47499 35.329697 931.51733 0.63869184 -0.68465167 -0.35117644 0.011981885
117.666 36.402302 931.83301 -0.71266717 0.35830075 -0.6030972 0.0071043354
118.88122 37.13044 930.79578 -0.67152065 0.25778407 -0.69469947 0.028989552
138.86534 36.546299 930.5127 0.69447744 -0.55622864 -0.4564108 0.0086087668
140.142 37.9855 930.62701 0.75798804 -0.4793444 -0.44236088 0.030682132
118.92407 38.973892 931.12042 -0.70757198 0.060549881 -0.70404243 0.023236753
140.54199 38.982403 930.89203 0.6552912 -0.56011224 -0.50682133 0.050366361
117.596 40.143398 931.25403 -0.73172766 -0.050489746 -0.67972457 0.021965489
118.97778 40.484379 930.828 -0.66310579 0.029243397 -0.74795419 0.032013223
120.32133 40.812435 930.10736 -0.60247117 0.099661857 -0.7918939 0.039169867
142.22 40.6525 930.09802 0.53333628 -0.72259933 -0.43977571 0.027247086
120.8234 42.579498 930.37366 -0.58800983 0.13825648 -0.79695016 0.043780662
121.795 45.481701 930.37402 -0.75507933 0.27882475 -0.59339035 0.056169204
121.842 47.379799 930.71698 -0.68485844 0.25237015 -0.68357754 0.011272527
122.49667 47.445499 930.23505 -0.68936723 0.23422623 -0.6855005 0.0027625195
121.7405 48.736328 930.96027 -0.71590382 0.21213038 -0.66519356 0.044867676
122.75244 49.027786 930.80103 -0.75009334 0.15778619 -0.64223325 0.046165749
122.912 50.333401 930.64301 -0.83564293 0.031155508 -0.54838884 0.10026543
43.1092 59.683998 930.80505 0.18815412 0.2971839 -0.93609816 0.14631826
66.427101 59.928699 930.23199 -0.49633694 0.18097506 -0.84905702 0.040924117
43.099792 61.012592 930.58722 0.34522924 0.10204484 -0.93295419 0.12949894
44.993565 61.571262 930.90063 -0.03584573 0.15463752 -0.98732078 0.083849408
46.054501 61.5546 930.64099 -0.16737817 0.50028485 -0.84952903 0.13432094
61.6493 61.588699 931.02399 0.065482214 0.92205554 -0.38147837 0.023961
62.760666 61.625599 931.57062 0.03031107 0.72552872 -0.68752408 0.10998116
65.418602 60.793278 931.14954 -0.45700294 0.4666715 -0.75720936 0.087901145
66.575218 61.235016 931.04248 -0.61192274 0.11288257 -0.78282058 0.035392862
43.205482 62.800926 930.37012 0.31717452 -0.16622448 -0.93368614 0.034574237
44.976776 62.889935 930.54028 0.097603157 -0.088821851 -0.99125385 0.07422284
46.868351 62.908466 930.80017 0.09234155 0.047634199 -0.99458742 0.071777835
49.079395 62.976093 930.98608 0.12597361 0.13109285 -0.98333383 0.064263731
50.913364 63.00671 931.13422 0.13817307 0.22822016 -0.96375501 0.066559963
52.669361 62.99165 931.3186 0.10786623 0.33214405 -0.93704069 0.039555117
55.205933 63.019733 931.05371 0.19138037 0.50216413 -0.84332961 0.10887655
56.833427 62.546272 931.32153 0.33222285 0.56578517 -0.75466228 0.075381249
59.540401 62.166 931.64301 0.20718502 0.75821674 -0.61820859 0.041920271
60.063202 62.1511 931.414 0.14865156 0.91271716 -0.38059178 0.046564102
65.880928 63.134602 931.5882 -0.63416046 -0.11697479 -0.76430196 0.031288825
66.832047 62.835213 930.86078 -0.67370158 -0.099906802 -0.7322191 0.021283126
43.3489 64.204849 930.14746 0.28059849 -0.27714083 -0.9189437 0
45.09285 64.340256 930.15271 0.15386684 -0.28537548 -0.94598407 0.044425853
46.846157 64.91008 930.33807 0.16966361 -0.238887 -0.95611054 0.019760327
49.008789 65.047508 930.64276 0.18718277 -0.21467575 -0.95858067 0.027637817
51.180462 65.079689 931.08551 0.20296247 -0.17720117 -0.96301919 0.027752543
53.041355 65.190491 931.60767 0.18743408 -0.19464739 -0.96279842 0.010798749
54.815258 65.393257 931.69415 0.21763948 -0.22953801 -0.94865453 0.032784518
56.337399 65.951698 931.97198 0.21266419 -0.27516061 -0.93758237 0
65.282959 65.185158 931.36572 -0.57443637 -0.31590381 -0.75513417 0.015516444
66.621483 64.862869 930.39868 -0.70283103 -0.31202403 -0.63927263 0.027244141
47.645199 66.358902 930.20898 0.21593554 -0.29288596 -0.93144494 0.061609861
49.211472 67.032143 930.22577 0.19885266 -0.24419092 -0.94911975 0.0038008976
51.153183 67.192078 930.56677 0.20190801 -0.25020012 -0.9469071 0.032708887
53.054977 66.953629 930.97015 0.19431831 -0.27554998 -0.94144177 0.026322909
54.95657 66.981194 931.33734 0.21008006 -0.27668881 -0.93771511 0.014531684
56.935631 67.161446 931.68915 0.2332783 -0.27160203 -0.93370956 0.026952127
58.487099 67.5644 931.93402 0.16441607 -0.28836083 -0.94330031 0.016611496
63.375542 67.077675 931.66467 -0.44524348 -0.43676564 -0.78166109 0.042870484
64.922997 66.832626 930.83569 -0.56037462 -0.4067097 -0.72150356 0.011544764
66.442596 66.383598 930.38397 -0.68384606 -0.39034176 -0.61643159 0.022908971
49.782902 68.4944 930.02502 0.20316163 -0.25443959 -0.9455083 0
51.239979 68.989517 930.17413 0.18614884 -0.26680949 -0.94560105 0.016937196
53.030682 68.801598 930.52399 0.17361216 -0.26542342 -0.94837183 0.020852922
54.926788 68.824188 930.81299 0.21371971 -0.27239949 -0.93814844 0.018946789
57.111557 68.869667 931.40863 0.20762418 -0.33543143 -0.91890043 0.037309531
59.009571 68.96418 931.67792 0.042113073 -0.4226388 -0.90531921 0.043103792
60.954407 68.992027 931.47015 -0.18263148 -0.52334315 -0.83232063 0.041441046
62.883518 68.769821 931.04254 -0.40864813 -0.56915057 -0.71349448 0.050213337
64.572823 68.270828 930.50226 -0.57634079 -0.51430607 -0.63507521 0.028837336
53.410221 70.516068 930.10321 0.14827375 -0.30089545 -0.94205987 0
54.916912 70.746857 930.27448 0.15759574 -0.36587426 -0.91722387 0.020713301
57.102734 70.845207 930.61798 0.10405455 -0.49405199 -0.8631832 0.03655206
59.092133 71.032234 930.53668 -0.096388087 -0.59208626 -0.80008948 0.026794884
60.687126 70.490929 930.59283 -0.23198481 -0.61427528 -0.75422072 0.028151454
62.673599 70.260323 930.18701 -0.39223933 -0.65858936 -0.64219034 0.019515313
43.201702 85.5485 930.58063 -0.39605099 0.8578577 -0.32745039 0.006145502
40.822899 -18.4788 933.98602 -0.1822748 -0.27068564 -0.94525409 0.0021822685
52.380898 -18.4736 933.61749 0.03614635 -0.46479908 -0.88467807 0
41.296631 -16.966671 933.74609 -0.22244379 -0.030480379 -0.97446895 0.028935134
42.904465 -16.918577 933.71948 -0.061307892 -0.13010854 -0.98960257 0.043411884
44.725849 -16.907917 933.71393 -0.022946388 -0.240641 -0.97034287 0.014917943
47.023464 -16.809446 933.65942 0.0074615874 -0.39112151 -0.92030877 0.03958695
49.184589 -16.68 933.70105 0.049774058 -0.38449067 -0.92178607 0.026134215
50.9076 -16.456924 933.75751 0.027903706 -0.34638008 -0.93767911 0.061812669
52.875324 -16.43108 933.79803 0.05021226 -0.28499165 -0.95721394 0.0051476546
54.92672 -16.432941 933.88147 0.099081434 -0.31630918 -0.94346768 0.032134555
41.35614 -15.569059 933.87988 -0.33314583 0.35318336 -0.87422848 0.075739458
43.067535 -15.565081 933.62781 -0.15690105 0.2346006 -0.95934594 0.065737441
44.834507 -15.239169 933.43451 -0.158867 0.19190133 -0.96847063 0.057106093
46.975655 -14.96665 933.20142 -0.076167561 0.13499716 -0.98791409 0.041176226
