ply
format ascii 1.0
comment PCL generated
element vertex 677
property float x
property float y
property float z
property float nx
property float ny
property float nz
property float curvature
element camera 0
property float view_px
property float view_py
property float view_pz
property float x_axisx
property float x_axisy
property float x_axisz
property float y_axisx
property float y_axisy
property float y_axisz
property float z_axisx
property float z_axisy
property float z_axisz
property float focal
property float scalex
property float scaley
property float centerx
property float centery
property int viewportx
property int viewporty
property float k1
property float k2
end_header
192.783 55.022099 944.93103 0.23173709 -0.41864541 -0.87808543 0.027909229
191.617 55.5476 944.599 0.23991375 -0.41826802 -0.87606692 0.0704377
192.16299 55.547501 944.58197 0.22067484 -0.3659431 -0.90409529 0.02566937
192.74001 55.5564 944.71698 0.23792791 -0.34612089 -0.90751898 0
192.7 56.091 944.51398 0.2598961 -0.3237184 -0.90975845 0.044006005
193.328 56.114899 944.901 0.2260976 -0.3244493 -0.91848385 0
193.883 56.1175 944.92798 0.20510121 -0.31773412 -0.92573136 0
194.446 56.1222 944.992 0.2134299 -0.31501785 -0.92477643 0.014932859
193.28799 56.649601 944.698 0.31686404 -0.30950341 -0.89655161 0.066080555
193.88499 56.664501 944.93103 0.20250668 -0.27399531 -0.94016898 0
194.412 56.658798 944.82098 0.24290146 -0.27681449 -0.92971647 0.031374678
193.27299 57.191799 944.62299 0.39305303 -0.32611087 -0.85974473 0.14570594
193.84599 57.199501 944.73401 0.24848956 -0.24552727 -0.93700016 0.04023385
194.40199 57.2024 944.76599 0.31767112 -0.31471267 -0.89445019 0.12572192
194.948 57.202202 944.74799 0.19722106 -0.26173657 -0.94477397 0.01813082
195.547 57.217602 944.98602 0.15641178 -0.26497084 -0.95148605 0
193.84599 57.745998 944.73102 0.22614226 -0.20380645 -0.95253485 0.038534526
194.375 57.741001 944.63202 0.15875681 -0.20122524 -0.9665944 0
194.907 57.736698 944.547 0.17344202 -0.20976862 -0.96224487 0
195.506 57.752201 944.78497 0.15416223 -0.22769868 -0.96145064 0
196.091 57.7635 944.95398 0.17547993 -0.2321658 -0.95671618 0
193.80701 58.2808 944.53497 0.20384327 -0.1595028 -0.96592277 0
195.465 58.286598 944.58301 0.19754744 -0.19558144 -0.9605847 0.016856652
196.093 58.310902 944.96002 0.18307583 -0.19870894 -0.96280736 0.0029706405
195.46899 58.834202 944.59601 0.20426655 -0.17306942 -0.96349478 0.057473097
196.05299 58.8456 944.763 0.18074219 -0.16559814 -0.96948934 0.037133373
196.61099 58.848801 944.79999 0.18735085 -0.1561428 -0.96980363 0.0098856539
197.183 58.8564 944.90601 0.16784456 -0.15972674 -0.97278756 0
197.74899 58.862301 944.98499 0.15561366 -0.13760878 -0.97818619 0
198.289 58.860298 944.93597 0.1534441 -0.1333245 -0.9791218 0
196.013 59.379902 944.56403 0.13597576 -0.13516538 -0.98144841 0
196.599 59.3918 944.737 0.16078533 -0.12613019 -0.97889698 0
197.151 59.393398 944.74701 0.14744939 -0.12589023 -0.98102516 0
197.748 59.408699 944.974 0.16547604 -0.12819196 -0.97784686 0
198.255 59.396599 944.76703 0.13635856 -0.11436516 -0.98403603 0
198.84599 59.41 944.96399 0.13446563 -0.11922915 -0.98371923 0
195.47301 59.928398 944.60699 0.18200809 -0.069470465 -0.98083991 0.021447862
196.073 59.944599 944.84802 0.22117187 -0.072126091 -0.97256404 0.064974099
196.586 59.934299 944.66901 0.21938686 -0.089661382 -0.97150928 0.052093264
197.13699 59.935699 944.67499 0.16824636 -0.095849752 -0.98107392 0.035171885
197.718 59.9464 944.828 0.1797954 -0.11270055 -0.97722679 0.018465247
198.291 59.954201 944.935 0.20703375 -0.10773682 -0.97238362 0.053379159
195.461 60.471199 944.54498 0.15084204 -0.028778002 -0.98813897 0
196.03999 60.480999 944.68298 0.19062833 -0.029514585 -0.98121852 0.059305184
197.183 60.4963 944.89099 0.09936773 -0.071571514 -0.99247348 0
198.263 60.492298 944.79498 0.15840781 -0.075126693 -0.98451155 0
195.465 61.018799 944.55902 0.14504871 0.0018724797 -0.98942274 0
196.02 61.021198 944.58099 0.2101257 0.0064818258 -0.97765291 0.06898582
197.17799 61.041401 944.86102 0.12868962 -0.027542841 -0.99130237 0
198.229 61.028599 944.63098 0.15376915 -0.045582462 -0.98705488 0
198.856 61.053299 944.99799 0.17445254 -0.032749861 -0.98412085 0
201.599 61.056198 944.96301 0.09099292 -0.035603549 -0.99521494 0
195.48 61.569801 944.62402 0.13528799 0.036659438 -0.99012792 0
197.142 61.5769 944.68597 0.12191843 0.0056591472 -0.99252403 0
197.757 61.598202 944.99597 0.13932261 0.0030270454 -0.99024242 0
198.299 61.596699 944.95801 0.12508817 -0.008162939 -0.9921121 0
198.815 61.587299 944.79797 0.14614016 -0.018134147 -0.98909771 0
199.349 61.583401 944.72101 0.14682348 -0.013044044 -0.98907667 0
195.474 62.114498 944.591 0.12845193 0.080907002 -0.98840994 0
196.011 62.111401 944.52802 0.097389311 0.05929397 -0.99347854 0
196.558 62.111698 944.51801 0.11087866 0.044935223 -0.99281764 0
197.19501 62.140301 944.93701 0.1180163 0.043816321 -0.99204451 0
197.73 62.1366 944.86401 0.10785041 0.033502672 -0.99360245 0
198.274 62.135799 944.83698 0.15270552 0.034782629 -0.98765945 0
198.77901 62.1227 944.62201 0.19724648 0.023130704 -0.98008102 0.0088112969
199.38 62.139801 944.86499 0.12295776 0.039719276 -0.99161679 0
199.959 62.149601 944.99902 0.088032022 0.027309079 -0.99574327 0
194.92999 62.6618 944.61499 0.096030898 0.11974811 -0.98814905 0
195.495 62.667702 944.68799 0.11904924 0.10895668 -0.98689198 0
196.05499 62.671902 944.73602 0.095540009 0.093739688 -0.99100202 0
196.593 62.669201 944.67999 0.081043996 0.096951023 -0.99198407 0
197.179 62.681801 944.854 0.1412577 0.092528418 -0.98563927 0
197.69099 62.671001 944.67401 0.11925629 0.07583604 -0.98996305 0
198.259 62.6777 944.76001 0.13795911 0.090680137 -0.98627806 0
198.799 62.6754 944.71002 0.14619938 0.065614618 -0.9870767 0
199.388 62.6889 944.89697 0.11932242 0.054078214 -0.99138176 0
193.812 63.2001 944.51898 0.092668541 0.18104719 -0.9790988 0
194.37801 63.206299 944.59601 0.10105291 0.18627524 -0.97728699 0.034693681
194.92999 63.208302 944.61102 0.12752053 0.16823001 -0.97746468 0.019114211
195.496 63.2145 944.68701 0.11119351 0.16037387 -0.98077333 0
196.03799 63.212898 944.64801 0.088298447 0.15275227 -0.98431206 0
196.60899 63.2211 944.75403 0.11837028 0.16812298 -0.97863334 0.062907346
197.14 63.2159 944.66101 0.14308192 0.14647099 -0.97881252 0.049737971
197.666 63.209499 944.54901 0.13724168 0.15038376 -0.9790554 0.065512344
198.29601 63.236099 944.92999 0.12636973 0.12979914 -0.98345459 0
199.409 63.242401 944.99298 0.10908977 0.12432577 -0.98622638 0
193.81799 63.748299 944.53998 0.10293194 0.22157466 -0.96969569 0
194.38499 63.755001 944.62402 0.093893737 0.21988656 -0.97099638 0.015988734
195.483 63.756699 944.61798 0.067464769 0.19890285 -0.97769433 0
196.03799 63.759399 944.64301 0.073797435 0.20569776 -0.97582906 0
196.63499 63.7761 944.87299 0.11356672 0.23342271 -0.96572071 0.03672041
197.731 63.776901 944.854 0.10173166 0.18857203 -0.976776 0
198.274 63.7756 944.81897 0.094568484 0.18537839 -0.97810614 0
192.756 64.305 944.71802 0.15283258 0.36194032 -0.91958767 0.076894827
193.314 64.3088 944.758 0.094800405 0.29646495 -0.95032704 0.0096844472
193.87801 64.314796 944.83002 0.053558022 0.29275435 -0.95468658 0
194.394 64.304703 944.66602 0.086841196 0.28541961 -0.9544602 0.014205134
194.94701 64.3069 944.68298 0.10675798 0.34217015 -0.9335537 0.078643091
195.55901 64.3284 944.98297 0.064037479 0.27302754 -0.95987254 0.0058834134
196.073 64.317703 944.81 0.067711927 0.26373726 -0.96221501 0
197.743 64.327499 944.90601 0.10094002 0.24851869 -0.96335328 0
198.29401 64.328796 944.91101 0.093840651 0.25345874 -0.96278381 0.022545669
188.869 64.830399 944.513 0.085558146 0.46722454 -0.87998927 0
189.444 64.840103 944.638 0.11486655 0.49048984 -0.86384338 0.031883806
189.992 64.840797 944.63397 0.097378969 0.51133633 -0.85384578 0.055634096
191.618 64.836304 944.52197 0.088538758 0.37405452 -0.92317069 0
192.254 64.866402 944.94501 0.085557714 0.3857913 -0.91861033 0.012322339
192.771 64.856697 944.78699 0.086739898 0.37527362 -0.92284667 0.030699423
196.097 64.8722 944.92102 0.09208826 0.35969687 -0.92851382 0.047949597
179.009 65.366501 944.63098 0.044447664 0.70377326 -0.70903283 0.0096215336
179.59399 65.3806 944.82001 0.020605357 0.69879305 -0.71502715 0
183.94 65.372002 944.57599 0.075494908 0.64499795 -0.76044607 0.034471646
184.51401 65.381798 944.703 0.050492615 0.58950472 -0.80618519 0
186.16701 65.3871 944.73297 0.07446412 0.55695391 -0.82719857 0
186.69 65.378799 944.599 0.091212004 0.57599634 -0.81234765 0.026620891
187.237 65.378899 944.58502 0.078376457 0.53041255 -0.84410882 0
187.826 65.393898 944.78601 0.090970173 0.59174961 -0.80097246 0.038859885
188.403 65.404503 944.92499 0.045835003 0.53759837 -0.84195441 0
188.905 65.389099 944.68701 0.050491262 0.53611934 -0.84263086 0.011183335
189.496 65.404602 944.89398 0.061661076 0.53387254 -0.84331375 0.015161807
190.00101 65.390198 944.67102 0.091093197 0.55901104 -0.8241412 0.061401386
190.53101 65.384697 944.57599 0.069172651 0.53429824 -0.84246099 0.059505258
191.71201 65.414597 944.97803 0.068516552 0.52469349 -0.84852952 0.059723295
192.802 65.413696 944.93298 0.10102713 0.41732946 -0.90312219 0
193.355 65.415802 944.948 0.097081535 0.4091706 -0.90727872 0
174.64 65.913002 944.74597 0.081408292 0.74290687 -0.66442615 0.0074746176
175.22501 65.927696 944.94202 0.0082586883 0.77921522 -0.62670201 0.018880658
175.72 65.908401 944.651 -0.0035206401 0.75166297 -0.65953809 0.016153347
176.321 65.928703 944.92798 0.0088513838 0.74604887 -0.6658324 0.0088441828
176.802 65.904602 944.56799 0.036499403 0.73786008 -0.67396605 0.017181097
177.36501 65.910599 944.638 0.05552588 0.75894898 -0.64877832 0.016813874
178.493 65.923897 944.79999 0.053884227 0.72733516 -0.68416381 0.0043419367
180.16299 65.935204 944.91803 -0.02167383 0.81062251 -0.58516788 0.042441107
180.655 65.915703 944.62299 -0.037261557 0.76608992 -0.64165246 0.036287259
181.26601 65.939003 944.94202 -0.05191512 0.71460199 -0.69760221 0.01140193
181.737 65.911903 944.539 -0.00093536911 0.74946392 -0.66204464 0.045618951
182.36501 65.941299 944.94598 -0.0021348423 0.67020565 -0.74217236 0
182.899 65.936996 944.86798 0.021468919 0.64431584 -0.76445812 0
183.429 65.931 944.76801 0.049172718 0.65984261 -0.74979317 0.011936533
184.021 65.947304 944.98602 0.031875875 0.63916451 -0.76840925 0
185.05499 65.926598 944.65997 0.058976326 0.65116251 -0.75664341 0.02474295
185.65601 65.945999 944.92297 0.016455876 0.61784011 -0.78613162 0
186.146 65.925797 944.617 0.045093242 0.59831852 -0.79998851 0
186.754 65.947701 944.91699 0.047796164 0.60443872 -0.79521662 0
187.23399 65.924103 944.56299 0.075244047 0.57519752 -0.81454659 0
187.868 65.954903 944.98999 0.077168383 0.6347031 -0.76889336 0.034169063
189.51601 65.957901 944.98602 0.043367568 0.56729525 -0.82237184 0
159.26601 66.424599 944.63702 -0.01736293 0.807612 -0.5894587 0.01399431
170.791 66.449097 944.69702 0.19153349 0.70848143 -0.67924154 0
172.979 66.4505 944.659 0.11645801 0.71878916 -0.68540484 0
173.578 66.470703 944.93201 0.10184319 0.73172492 -0.67394853 0.00041219671
175.784 66.4786 944.987 -0.021582257 0.72002077 -0.69361693 0
177.37 66.4589 944.66302 0.061791293 0.83170611 -0.55176705 0.036007993
177.938 66.466904 944.763 0.068893671 0.82779348 -0.55678684 0.041940831
183.465 66.490501 944.94897 0.038906779 0.68857294 -0.72412264 0
159.83099 66.978897 944.73602 -0.08415167 0.90340501 -0.42044967 0.018296344
166.922 66.976303 944.52197 -0.054841131 0.87250072 -0.48552558 0.0098268306
166.45 67.006302 944.95898 -0.038854454 0.86266917 -0.50427395 0.021304846
168.07899 67.548698 944.85797 0.046660431 0.86567867 -0.4984208 0.015795086
146.746 42.9599 945.35101 0.0032947985 -0.80387592 -0.59478801 0.098882705
147.27 42.953602 945.20203 -0.015546696 -0.746131 -0.66561759 0.069075853
152.207 43.506401 945.23297 -0.033573098 -0.79083973 -0.61110187 0.014219126
153.34399 43.519001 945.48297 -0.057638492 -0.85084963 -0.52223819 0.0037994911
161.567 44.6199 945.45898 0.17111029 -0.90943837 -0.37900281 0.0038614671
162.634 44.612801 945.28198 0.16556102 -0.9079203 -0.38505882 0.0060378029
167.009 45.706799 945.198 0.17278565 -0.90949535 -0.37810495 0.0028208294
167.606 45.720798 945.47302 0.17522253 -0.9063037 -0.38459167 0.0017723984
168.144 45.7183 945.40802 0.22425085 -0.9111678 -0.34566593 0.0073327553
168.64 45.7047 945.11401 0.28835469 -0.88872099 -0.35640794 0.01142313
172.52299 47.9063 945.328 0.43857077 -0.77070934 -0.46223685 0.012417684
173.047 48.446301 945.18402 0.37269577 -0.73576671 -0.56546026 0
174.14799 48.994999 945.19598 0.25911438 -0.72111052 -0.64254141 0
174.674 48.9893 945.07202 0.23723421 -0.73504108 -0.63516492 0
175.25999 49.000401 945.27197 0.22115569 -0.80087394 -0.55649906 0.024871802
175.78 49.5396 945.11499 0.20517446 -0.7493788 -0.62955135 0.0065353205
176.93401 49.556702 945.41302 0.17781469 -0.78018886 -0.59973943 0.028144754
177.49001 49.559399 945.45001 0.14693204 -0.72373641 -0.67425269 0
177.985 49.544998 945.15997 0.14755946 -0.72533566 -0.67239451 0
178.515 50.0868 945.05499 0.16859183 -0.70443511 -0.68945485 0.0088119609
179.112 50.100899 945.30499 0.16132729 -0.71512675 -0.68012303 0.016123271
180.23199 50.108398 945.41901 0.16575579 -0.73843497 -0.65363508 0.027288316
180.791 50.112 945.47198 0.18828167 -0.73395193 -0.652583 0.030841412
180.157 50.634102 945.02502 0.14921303 -0.64713603 -0.74762994 0
181.29201 50.645802 945.21198 0.19438785 -0.69091684 -0.6963098 0.014923785
181.80499 50.636501 945.02502 0.20260789 -0.65149546 -0.73109764 0
182.37 50.641701 945.10699 0.19078456 -0.65533298 -0.73084873 0
182.968 51.202702 945.35498 0.2001026 -0.65002269 -0.73309588 0.02385479
183.53101 51.2071 945.422 0.18872015 -0.62759382 -0.75532168 0.0026345374
184.06799 51.204601 945.36102 0.20579995 -0.64080817 -0.73960209 0.0085875755
184.59801 51.7463 945.25201 0.21280998 -0.62535298 -0.7507633 0.012988627
185.74001 51.760101 945.474 0.17273149 -0.66388696 -0.72761118 0.034292188
186.789 52.2943 945.21301 0.19712208 -0.56899297 -0.79836702 0
187.302 52.284901 945.02802 0.19138542 -0.54435003 -0.81673414 0
189.041 52.3125 945.48102 0.24354102 -0.56342649 -0.78945446 0.01440309
187.89 52.8433 945.21997 0.20146158 -0.51530117 -0.83299339 0
188.43201 52.841801 945.17902 0.21290086 -0.50816238 -0.83453232 0
189.00101 52.848099 945.276 0.22279619 -0.50687093 -0.83273268 0
190.14 52.860802 945.47198 0.24256031 -0.51188159 -0.82410055 0.0019900324
188.95 53.380402 945.01703 0.22827584 -0.4753136 -0.8496865 0.021720769
189.53799 53.3922 945.211 0.25934106 -0.49404305 -0.82985765 0.019026697
190.10001 53.3964 945.26801 0.27556533 -0.56033975 -0.78107816 0.063720711
190.047 53.928001 945 0.24229814 -0.49304917 -0.83558011 0.050950699
190.67101 53.9501 945.37201 0.20460173 -0.47055298 -0.8583228 0
191.174 53.937599 945.13702 0.21658526 -0.47933707 -0.85048616 0.019967994
191.776 53.9533 945.39697 0.22518483 -0.50793374 -0.83144164 0.033987284
191.728 54.4865 945.15601 0.21432081 -0.45607722 -0.86374784 0.014309682
192.325 54.500801 945.38898 0.18842551 -0.4568471 -0.86935985 0
193.409 55.044899 945.30603 0.22412482 -0.38902673 -0.89354706 0
193.938 55.0396 945.20099 0.24071021 -0.42215219 -0.87398297 0.046952564
194.528 55.051899 945.396 0.18905203 -0.37497115 -0.90755498 0
193.37199 55.580898 945.11902 0.30554342 -0.40148625 -0.86339563 0.071244612
193.924 55.5825 945.13 0.31965211 -0.46815488 -0.82380438 0.11235294
194.487 55.5872 945.19397 0.20415318 -0.35992396 -0.91037148 0.019294471
195.071 55.597801 945.35901 0.19696887 -0.39237306 -0.89846915 0.052154314
195.047 56.137699 945.23798 0.18187374 -0.3300373 -0.92628145 0.015351227
195.64 56.1511 945.44702 0.19420908 -0.31784704 -0.92803884 0
196.75101 56.1558 945.495 0.15921827 -0.32879505 -0.93088311 0
195.006 56.672699 945.03601 0.18102244 -0.29106879 -0.93941998 0
195.60001 56.686199 945.24597 0.20504117 -0.31701308 -0.92599183 0.041456964
196.173 56.693802 945.35602 0.22065981 -0.3194364 -0.92155832 0.047329698
196.71001 56.691002 945.29401 0.15359074 -0.30018434 -0.94143468 0
197.283 56.6987 945.40601 0.12878078 -0.28589416 -0.94956839 0
198.93201 56.701 945.39697 0.13453999 -0.29059088 -0.9473415 0
196.132 57.228802 945.15503 0.14480621 -0.27566275 -0.95028484 0
196.72 57.240799 945.33801 0.14817674 -0.26467162 -0.95288646 0
197.242 57.2337 945.20599 0.14610414 -0.26017335 -0.95444405 0
197.83 57.245499 945.38501 0.18678658 -0.29524481 -0.93698525 0.065005377
198.394 57.250401 945.44897 0.20184971 -0.2996248 -0.93246001 0.07161852
196.689 57.778702 945.18701 0.19313484 -0.24351278 -0.95047385 0.047566473
197.231 57.777302 945.14801 0.16793261 -0.20537221 -0.96416855 0
197.789 57.780499 945.18402 0.14872946 -0.2152683 -0.96516275 0
198.353 57.7854 945.24902 0.12977947 -0.23008859 -0.96447736 0.03400667
199.492 57.798599 945.43201 0.12740004 -0.21714972 -0.96778888 0
200.047 57.8008 945.453 0.17970704 -0.22831964 -0.95685709 0.029121401
200.606 57.804501 945.49701 0.16615751 -0.21778117 -0.96175003 0.0052581769
196.65199 58.314301 945.00098 0.16404466 -0.18431854 -0.96907997 0
197.20399 58.316101 945.013 0.1944626 -0.19006832 -0.96231925 0.01602116
197.752 58.316299 945.00098 0.13765159 -0.1827942 -0.97346717 0
198.312 58.320202 945.04901 0.12383328 -0.1693067 -0.9777528 0
198.91901 58.338001 945.32202 0.11341794 -0.16845959 -0.9791618 0
199.461 58.336601 945.28302 0.16511089 -0.18247893 -0.9692471 0.051170509
200.005 58.3358 945.25403 0.12841164 -0.1716041 -0.97676128 0
200.56799 58.340401 945.31097 0.14131492 -0.18521746 -0.97248375 0
198.87801 58.872898 945.12201 0.12474582 -0.13606678 -0.98281449 0.010236713
199.502 58.8955 945.47101 0.12698127 -0.13977189 -0.98200792 0
200.039 58.8927 945.409 0.12862691 -0.16217053 -0.97834343 0.0064909416
200.577 58.889801 945.34698 0.12357452 -0.15459254 -0.98021966 0
201.134 58.892799 945.37903 0.13819878 -0.16388008 -0.97675198 0.017509189
201.67999 58.8927 945.36102 0.14306974 -0.15615851 -0.97731555 0
199.461 59.430302 945.271 0.13012932 -0.1194202 -0.98427904 0
199.998 59.427399 945.20898 0.12454037 -0.11927192 -0.98501974 0
200.60201 59.444199 945.461 0.15455744 -0.12225565 -0.98039055 0
201.13499 59.4403 945.383 0.096680701 -0.13298357 -0.98639154 0
201.647 59.429901 945.20203 0.12407575 -0.11016388 -0.98613852 0
198.896 59.971901 945.198 0.12547298 -0.089574188 -0.98804504 0
199.451 59.9743 945.22101 0.079461865 -0.098986492 -0.99191105 0
200.01401 59.979099 945.27899 0.12566973 -0.083414346 -0.98855919 0
200.59399 59.989101 945.422 0.071187221 -0.092520967 -0.99316275 0
201.095 59.9753 945.18903 0.08744172 -0.084937304 -0.99254203 0
201.63901 59.9744 945.159 0.093252219 -0.097221047 -0.99088454 0
202.80901 59.996899 945.48102 0.14174062 -0.11098115 -0.98366296 0.061558343
197.755 60.504299 945 0.166463 -0.0768608 -0.98304754 0
198.866 60.509499 945.04901 0.15385799 -0.057857286 -0.98639762 0
199.431 60.515099 945.12097 0.12233897 -0.059753034 -0.99068803 0
200.058 60.539299 945.48199 0.14797971 -0.061741121 -0.98706132 0
201.125 60.531101 945.323 0.095057465 -0.064025506 -0.99341071 0
201.61099 60.512901 945.02197 0.074239552 -0.069223888 -0.99483496 0
202.799 60.5411 945.43103 0.13043886 -0.067200854 -0.98917633 0.030109718
197.758 61.0518 945.00598 0.16972131 -0.031728696 -0.98498124 0.027186733
199.46201 61.071499 945.26398 0.12059279 -0.02632503 -0.99235296 0
200.041 61.0812 945.39801 0.089931339 -0.026100108 -0.99560595 0
200.59599 61.083698 945.42102 0.082480811 -0.03110764 -0.99610704 0.0095383991
201.093 61.068401 945.16803 0.092050485 -0.031894453 -0.99524343 0
202.24001 61.084499 945.38501 0.089847431 -0.031065805 -0.99547094 0.0095228124
202.802 61.0891 945.44 0.10330204 -0.038396999 -0.99390864 0
203.355 61.091 945.453 0.12029652 -0.036038324 -0.99208367 0.0055372859
199.97501 61.608002 945.08398 0.10485245 -0.0028971429 -0.99448359 0
200.55499 61.618099 945.22101 0.11250039 -0.0077465065 -0.99362147 0
201.07401 61.609501 945.07397 0.10096721 -0.0018764301 -0.99488801 0
201.69099 61.630901 945.38702 0.11404061 -0.013788618 -0.99338043 0
202.229 61.628101 945.328 0.11858688 -0.01472512 -0.99283451 0
202.789 61.632099 945.37299 0.10670789 -0.0096299388 -0.9942438 0
203.342 61.633999 945.38599 0.080693334 -0.016595865 -0.99660081 0
205.56799 61.6455 945.49701 0.19158281 -0.0055253129 -0.98146093 0
200.563 62.167599 945.25598 0.11552837 0.039892059 -0.99250287 0
201.125 62.1721 945.30902 0.1040026 0.026582219 -0.99422175 0
201.69501 62.179298 945.40198 0.10592715 0.033774305 -0.99380016 0.022357114
202.214 62.1707 945.255 0.12023818 0.020110812 -0.99254137 0
202.80701 62.184799 945.453 0.093114316 0.026955118 -0.99529052 0
203.35201 62.1842 945.42902 0.15244851 0.041799527 -0.98742712 0.065356232
200.01199 62.713001 945.245 0.088504277 0.082360543 -0.99266499 0
200.564 62.714802 945.255 0.10186683 0.072323255 -0.99216557 0
201.12 62.717701 945.284 0.096951321 0.075516574 -0.99242014 0
201.701 62.7281 945.42297 0.098501235 0.075460486 -0.99227178 0
202.244 62.726799 945.388 0.10128248 0.080917649 -0.99156147 0
202.77499 62.722 945.29999 0.1153003 0.091957279 -0.98906511 0.016759692
203.899 62.731098 945.40503 0.1060736 0.057975881 -0.99266672 0
198.866 63.2435 945.026 0.12515974 0.12219223 -0.9845832 0.027392492
200.005 63.257801 945.20697 0.13046212 0.14196752 -0.9812364 0.048342071
200.56 63.260601 945.23297 0.11218602 0.14284237 -0.98336685 0.051341221
201.12601 63.266399 945.30402 0.098689109 0.12331764 -0.98744786 0
202.24699 63.274899 945.39899 0.094661005 0.13554677 -0.98623854 0
202.767 63.266499 945.25702 0.12263386 0.13619204 -0.98306292 0
197.217 63.7873 945.02399 0.10626603 0.24715526 -0.96313131 0.060703818
198.925 63.809101 945.29901 0.12417511 0.18616301 -0.97464043 0.0031828883
199.493 63.8158 945.383 0.12209646 0.18012126 -0.97603732 0
200.007 63.805401 945.21198 0.087824941 0.16663559 -0.98209947 0
200.58099 63.814201 945.32599 0.13559069 0.20200025 -0.96995419 0.011972552
201.14799 63.820301 945.401 0.095690481 0.17544131 -0.97982842 0
202.23399 63.818001 945.33502 0.10669638 0.18221591 -0.97745246 0
202.814 63.8283 945.47101 0.11623249 0.18822774 -0.9752233 0
196.67799 64.3367 945.073 0.1144813 0.28949252 -0.95030946 0.038952325
197.224 64.336403 945.05298 0.083263144 0.25214836 -0.96409982 0
198.895 64.346397 945.15302 0.10890635 0.248752 -0.96242499 0
199.455 64.3508 945.20099 0.11528559 0.24353863 -0.96301514 0
199.981 64.344002 945.086 0.13273177 0.25044093 -0.95898992 0.01883701
200.616 64.372101 945.48199 0.0987835 0.23616998 -0.96667761 0
193.37399 64.875504 945.04602 0.083523892 0.36524993 -0.92715496 0
193.92 64.875198 945.026 0.081197917 0.36480746 -0.92753571 0
194.485 64.8815 945.10303 0.11284556 0.36284137 -0.92499298 0
195.036 64.882797 945.10602 0.082407877 0.36079475 -0.9289974 0.020869456
195.599 64.888298 945.16998 0.046370421 0.3470867 -0.93668598 0
196.685 64.885696 945.10101 0.095790699 0.31983471 -0.94261867 0.00090424943
197.267 64.897301 945.255 0.079285398 0.31855914 -0.94458133 0
197.793 64.890503 945.13898 0.071757652 0.31043354 -0.94788283 0
198.39301 64.907898 945.37701 0.086366273 0.32330969 -0.94234377 0
191.17799 65.419098 945.05798 0.043993287 0.47903112 -0.8766948 0
192.31799 65.434998 945.25702 0.11534969 0.52888912 -0.8408156 0.060608901
193.925 65.423599 945.04602 0.1027142 0.43441904 -0.89483511 0.021577589
194.485 65.428299 945.09802 0.10660446 0.42167455 -0.90045881 0.022627404
195.017 65.423302 945.01001 0.088354506 0.43709588 -0.89506465 0.040158812
195.571 65.425598 945.02698 0.084038399 0.47843039 -0.87409496 0.07107769
196.75101 65.454498 945.41302 0.059258357 0.39785832 -0.91553116 0.00078793813
197.289 65.451698 945.35699 0.077632613 0.37915987 -0.92206889 0
197.82899 65.449303 945.30603 0.078299545 0.39576426 -0.91500813 0.018567195
198.964 65.462898 945.47101 0.080136739 0.36317635 -0.92826778 0
179.142 65.9617 945.32599 0.015818398 0.78436649 -0.62009603 0.023471972
179.702 65.966904 945.38702 -0.001568422 0.76569557 -0.64320123 0.014358616
184.57401 65.949799 945.00702 0.036778562 0.67989683 -0.73238492 0.034041747
188.504 65.986504 945.427 0.06039511 0.61386526 -0.78709716 0.011840252
189.01801 65.974998 945.24701 0.032551724 0.5740667 -0.81816125 0
190.117 65.976997 945.24402 0.015269609 0.58602536 -0.81014889 0.022321759
190.645 65.970497 945.13599 0.043658152 0.60549474 -0.79465097 0.053949505
191.175 65.964699 945.03699 0.046670005 0.52622205 -0.84906554 0.014177037
191.776 65.983498 945.29102 0.068490952 0.53470337 -0.84225971 0.010333755
192.334 65.987 945.32703 0.074053712 0.52589494 -0.84731966 0.0055013131
192.881 65.987297 945.31403 0.053742569 0.51451522 -0.85579544 0.0047763344
194.00301 65.997002 945.42297 0.083174974 0.47883323 -0.87395692 0.0034434563
194.534 65.991501 945.328 0.038316879 0.46221092 -0.88594186 0
174.159 66.4841 945.10901 0.10391537 0.69648749 -0.71000487 0
176.37801 66.496696 945.22998 0.014431856 0.76976228 -0.6381675 0.0033867508
176.91499 66.493301 945.16602 0.030206779 0.782601 -0.62179035 0.014991042
180.744 66.4944 945.08002 -0.080417767 0.75221062 -0.65399706 0.010134674
182.392 66.497803 945.08301 0.0056131124 0.71650618 -0.69755816 0.0080526546
174.765 66.5065 945.41302 0.057211157 0.75424957 -0.65409052 0.0053983186
175.29601 66.500603 945.31403 0.018451329 0.83219677 -0.55417335 0.037323631
181.34399 66.514297 945.34698 -0.079542175 0.75677401 -0.64881909 0.010983599
181.87199 66.5075 945.23602 -0.03462993 0.80196577 -0.59636545 0.036660876
182.981 66.5131 945.28497 0.01517096 0.74732178 -0.66428918 0.018072177
184.121 66.530098 945.49701 0.021692868 0.70271605 -0.71113962 0
184.603 66.506699 945.14899 0.026972136 0.73739988 -0.6749177 0.030743064
185.205 66.526604 945.41699 0.020827437 0.71879154 -0.69491363 0.016401336
185.743 66.523697 945.35999 0.046087038 0.66101658 -0.74895465 0
186.82401 66.519096 945.26398 0.039510943 0.6635282 -0.74710733 0.0067960275
187.38499 66.5242 945.32202 0.057910491 0.70598668 -0.70585358 0.036364418
188.513 66.5364 945.46399 0.034635469 0.62854916 -0.77699828 0
170.93201 67.050598 945.47101 0.14760292 0.73289299 -0.66413951 0
171.98 67.032997 945.19501 0.14818503 0.65195048 -0.74364096 0
147.924 42.984901 945.87701 0.072084963 -0.76283389 -0.64256376 0.029794026
148.464 42.9832 945.828 0.073590003 -0.85706156 -0.50993145 0.059783913
151.744 43.530102 945.76001 -0.010582436 -0.76586223 -0.64291769 0.0086425617
152.821 43.525799 945.64203 -0.038492512 -0.8364293 -0.54672158 0.019522041
153.90601 43.523499 945.56702 -0.031680875 -0.897609 -0.43965259 0.0068835313
154.496 43.5359 945.823 -0.010643191 -0.90177977 -0.43206477 0
155.05701 43.539902 945.89801 0.059497692 -0.96010238 -0.27324614 0.0076822373
155.547 43.5243 945.54498 0.0097867306 -0.91797525 -0.39651695 0
161.028 44.622002 945.51703 0.16228504 -0.93734628 -0.30829453 0.011693451
164.87601 45.174702 945.55298 0.17867486 -0.90576255 -0.38427797 0.00030407144
169.869 46.288101 945.841 0.3951641 -0.87836754 -0.26891604 0.011392284
173.11501 47.918999 945.56403 0.40458688 -0.8082478 -0.42783749 0.019956134
173.67799 48.470001 945.633 0.3113136 -0.80190951 -0.5099265 0.0054173628
174.263 48.480801 945.82898 0.26838654 -0.83970284 -0.47208869 0.015635187
175.92 49.032299 945.87201 0.19350262 -0.84406525 -0.50011057 0.02190643
176.414 49.017502 945.573 0.16609563 -0.71567732 -0.67839396 0
177.01801 49.033401 945.86603 0.1567869 -0.78808272 -0.59526759 0.0020299677
178.05901 49.018799 945.55603 0.1484077 -0.75219333 -0.64201283 0
178.66701 49.582699 945.86499 0.14219159 -0.67445338 -0.72449589 0
179.21899 49.5839 945.87402 0.1423194 -0.72689599 -0.67183882 0
179.729 49.573799 945.66602 0.15768377 -0.73050004 -0.66445887 0
180.317 49.585201 945.86798 0.15854344 -0.77015716 -0.61783648 0.013652439
181.39 50.1264 945.72803 0.19809048 -0.72917396 -0.65503097 0.020462692
181.938 50.126701 945.71899 0.2004917 -0.74281299 -0.6387738 0.02562858
182.47099 50.123001 945.63501 0.19243146 -0.70002884 -0.68769896 0
183.088 50.689201 945.97803 0.19942147 -0.69688898 -0.68889546 0.01593345
184.157 50.682201 945.81799 0.20326672 -0.67236686 -0.71176225 0
184.72 50.686699 945.88702 0.16527821 -0.68165123 -0.71276557 0
184.649 51.213902 945.51801 0.18425179 -0.63976192 -0.74616081 0
185.825 51.236599 945.90802 0.16721892 -0.71086013 -0.68316603 0.031345449
186.381 51.239201 945.94098 0.17549734 -0.6867069 -0.70543206 0.011951311
186.929 51.239399 945.92902 0.20991027 -0.71421057 -0.66771328 0.027060403
187.467 51.237 945.87 0.19344018 -0.68513483 -0.70226157 0.0073280474
186.30299 51.7645 945.53802 0.15194856 -0.62460929 -0.76601237 0
186.854 51.7659 945.54901 0.19225292 -0.63211262 -0.75064808 0.01544857
187.405 51.766998 945.55402 0.17980319 -0.6131472 -0.7692343 0.0014472349
188.034 51.7896 945.95099 0.21362318 -0.652031 -0.72747558 0.01779991
188.58299 51.7901 945.94501 0.22041221 -0.64824831 -0.72882968 0.024051463
187.94901 52.312901 945.51898 0.22506306 -0.63654232 -0.73767239 0.043617412
188.496 52.313099 945.50598 0.23241001 -0.57372826 -0.78537977 0.017370425
189.645 52.328201 945.75 0.24220672 -0.56614935 -0.78791547 0.010539604
190.17999 52.3251 945.677 0.23497827 -0.57850879 -0.78109717 0.01920891
189.59599 52.861599 945.50098 0.22992192 -0.53394943 -0.81365466 0.028201926
190.783 52.8876 945.93597 0.20415024 -0.53562033 -0.81941056 0
191.32001 52.884701 945.86902 0.23642972 -0.568784 -0.78777266 0.021101806
190.718 53.4165 945.60999 0.22220069 -0.53368878 -0.81596768 0.021632902
191.27 53.417702 945.61603 0.30457208 -0.65219879 -0.69417042 0.098226056
191.853 53.427799 945.78003 0.29846805 -0.66227794 -0.68724436 0.095973365
192.442 53.439499 945.97101 0.27119356 -0.60866451 -0.74564171 0.062157262
192.39 53.972 945.71002 0.22092021 -0.55089658 -0.80480266 0.04924421
192.95799 53.978001 945.79901 0.22042987 -0.54682511 -0.8077085 0.051685825
193.522 53.9827 945.86603 0.22518203 -0.49396792 -0.83981472 0.017218865
194.071 53.983101 945.85797 0.19533907 -0.46778265 -0.86198729 0
192.91499 54.512798 945.58197 0.20845561 -0.45461577 -0.86595076 0.01625362
193.453 54.510399 945.52399 0.23029345 -0.46527484 -0.8546837 0.036754493
194.005 54.511902 945.53497 0.21383479 -0.41339585 -0.88508677 0
194.60001 54.525299 945.75201 0.19515221 -0.42263827 -0.88503814 0
195.196 54.538898 945.97302 0.20199575 -0.44047672 -0.87474453 0.011654797
195.75101 54.5411 945.995 0.20374109 -0.43649566 -0.87633395 0.0205754
195.134 55.068802 945.66998 0.19568308 -0.3976911 -0.89640951 0
195.735 55.083801 945.91302 0.18604662 -0.40287772 -0.89614516 0.019223796
196.297 55.087898 945.96802 0.16135436 -0.4031252 -0.90080792 0
196.83299 55.084801 945.89801 0.15070221 -0.39579326 -0.90588993 0
195.681 55.615799 945.64899 0.16856648 -0.35679168 -0.91884989 0
196.256 55.6236 945.76599 0.1442942 -0.36047107 -0.92154211 0
196.79201 55.620399 945.69598 0.16285504 -0.35876271 -0.91911238 0.01339042
197.362 55.626999 945.79401 0.14436507 -0.38555869 -0.91131955 0.035553761
197.942 55.6362 945.93298 0.12730598 -0.35912827 -0.92456484 0
198.48801 55.635799 945.90997 0.15540212 -0.35705081 -0.9210673 0
199.015 55.6301 945.797 0.17735757 -0.36736318 -0.91301078 0
196.215 56.159 945.565 0.19292299 -0.32988065 -0.92409927 0.021437634
197.321 56.162498 945.59302 0.14270341 -0.32188973 -0.93596089 0
197.88 56.165798 945.63098 0.14862725 -0.33006155 -0.93218529 0
198.42999 56.166698 945.63098 0.14240955 -0.3248989 -0.93496537 0.008823608
198.97301 56.1656 945.59698 0.12828639 -0.32711929 -0.93623483 0
197.86 56.707199 945.53198 0.12879309 -0.29850206 -0.94567907 0
198.40601 56.706799 945.51001 0.16702046 -0.31503347 -0.93426877 0.054171972
199.57401 56.728001 945.83197 0.15367772 -0.31744498 -0.93574136 0.021983542
200.146 56.735001 945.93402 0.14783648 -0.31522644 -0.93743086 0
200.67799 56.730701 945.84497 0.16042277 -0.31674594 -0.93484575 0
201.258 56.739799 945.98102 0.1664001 -0.31342375 -0.93492067 0
198.97701 57.2607 945.604 0.12968263 -0.25533849 -0.95811522 0
199.51601 57.258499 945.55103 0.16307323 -0.27314121 -0.94805121 0.021533985
200.088 57.265598 945.65302 0.13613187 -0.26788631 -0.95378458 0.010216465
200.642 57.267601 945.66901 0.19174983 -0.27147701 -0.94315022 0.014015758
201.22301 57.277302 945.81403 0.16536921 -0.27933523 -0.94584614 0
201.797 57.284901 945.92297 0.15404378 -0.28473514 -0.94614822 0
198.95799 57.802399 945.51202 0.15548174 -0.25963423 -0.95310837 0.088340953
201.19099 57.815399 945.65997 0.19399801 -0.26059905 -0.94575524 0.069174007
201.756 57.820301 945.724 0.14478514 -0.24946748 -0.95749843 0.014962157
202.33299 57.828999 945.84998 0.12888822 -0.25345126 -0.95872325 0
201.17 58.3564 945.55499 0.17152157 -0.20924099 -0.96270376 0.057682682
201.72099 58.357399 945.55499 0.15681423 -0.21659161 -0.96358567 0.032135043
202.295 58.3652 945.66498 0.18285494 -0.21667628 -0.95896584 0.027101964
202.884 58.3773 945.84601 0.18640801 -0.21232578 -0.95925486 0
203.433 58.3778 945.83698 0.20501341 -0.22596209 -0.95231855 0.052620579
203.99699 58.382702 945.901 0.17464562 -0.24816792 -0.95284396 0.066901147
204.567 58.388901 945.98602 0.14376067 -0.23429777 -0.96147668 0
202.28 58.908001 945.591 0.14296676 -0.16087247 -0.97656566 0
202.866 58.919201 945.755 0.15791199 -0.18360737 -0.97023302 0
203.407 58.917599 945.71301 0.19138744 -0.18686081 -0.96356314 0.017780963
203.97099 58.922298 945.77197 0.16315655 -0.18619759 -0.96887064 0
204.52499 58.924301 945.78802 0.1547122 -0.20369186 -0.96673357 0
205.101 58.932598 945.90399 0.14163741 -0.22256066 -0.96457535 0
202.297 59.4603 945.66699 0.141179 -0.12301524 -0.98231149 0
202.825 59.454601 945.56201 0.14216663 -0.13532476 -0.98054874 0
203.379 59.456699 945.578 0.18582907 -0.15861417 -0.96969539 0.063199647
203.964 59.467602 945.73602 0.15986808 -0.15046857 -0.9756031 0.0029724839
204.49699 59.463402 945.65302 0.15429375 -0.16538607 -0.97408462 0
205.05901 59.4678 945.70697 0.18516599 -0.18241538 -0.96562839 0.050581541
205.65401 59.481701 945.91199 0.19065693 -0.18176243 -0.96468252 0.0092522884
202.27699 60.001499 945.56799 0.10200857 -0.09996362 -0.98974824 0
203.375 60.002602 945.55402 0.15650937 -0.11712283 -0.98070741 0.034347299
204.011 60.028801 945.95001 0.13984244 -0.13380979 -0.98109072 0
204.526 60.019199 945.78302 0.13441236 -0.12335407 -0.98321772 0
205.08299 60.022202 945.815 0.14027877 -0.14340591 -0.97967172 0
205.617 60.018299 945.73602 0.16141924 -0.14250486 -0.97654301 0
206.216 60.033199 945.95599 0.20339863 -0.14198096 -0.96874684 0
200.616 60.542801 945.521 0.13584146 -0.07459873 -0.98791808 0.066578723
202.269 60.5462 945.52502 0.097701028 -0.060881417 -0.99335188 0.020038674
203.369 60.547901 945.52002 0.095619999 -0.079392381 -0.99224681 0
203.97 60.564098 945.75702 0.13065891 -0.08243715 -0.98799413 0.0019438481
204.519 60.564301 945.745 0.13717808 -0.096011668 -0.98588234 0.027587326
205.075 60.567001 945.77002 0.2003672 -0.094425917 -0.97515988 0.055089645
205.59599 60.559399 945.63501 0.18356286 -0.092431948 -0.97865272 0
206.174 60.568401 945.75897 0.23359048 -0.092919216 -0.96788508 0
206.774 60.583801 945.98297 0.22796427 -0.093452632 -0.96917439 0
203.965 61.1096 945.72498 0.12914938 -0.053759035 -0.99016684 0.030958166
204.55701 61.123001 945.91699 0.1415772 -0.060436722 -0.98808068 0.042223953
205.06 61.109901 945.69702 0.18853484 -0.034991141 -0.98144293 0.04871719
205.586 61.1035 945.58197 0.18053862 -0.04162363 -0.98268676 0
206.173 61.1152 945.74701 0.23316017 -0.042486638 -0.97150975 0.014766401
206.74001 61.1213 945.82501 0.2513583 -0.057169046 -0.96620429 0.023871226
203.92599 61.645401 945.54401 0.10536905 -0.0097091161 -0.99438578 0
204.51801 61.658699 945.73199 0.13845794 -0.0040798979 -0.99035996 0.031363003
205.049 61.653999 945.64301 0.12436257 -0.011937574 -0.99216509 0
206.149 61.655499 945.63397 0.21618323 0.0029186336 -0.97634846 0
206.746 61.670502 945.84802 0.26332015 -0.0090381745 -0.96466619 0.050674908
203.94 62.196701 945.60199 0.11526401 0.048243772 -0.99216264 0
204.491 62.197899 945.604 0.12407275 0.031392228 -0.99177647 0.0059310482
205.10001 62.216499 945.87097 0.17971891 0.029689841 -0.98326987 0
205.586 62.197899 945.57098 0.1547727 0.033892855 -0.98736858 0
206.147 62.202202 945.62097 0.25322863 0.043500662 -0.96642798 0.048500169
206.731 62.2132 945.77301 0.20228001 0.020593006 -0.97911119 0
203.37199 62.737499 945.51801 0.11186851 0.086732566 -0.98993075 0
204.511 62.750999 945.68903 0.13724032 0.096518025 -0.98582423 0.039239921
205.069 62.754501 945.724 0.13561389 0.077232882 -0.98774689 0
205.601 62.749802 945.638 0.23646472 0.097891316 -0.96669632 0.076720648
206.17 62.756302 945.71899 0.28869972 0.092824504 -0.95290929 0.10358795
201.73399 63.2855 945.573 0.11809168 0.14771409 -0.98195463 0
203.388 63.2896 945.586 0.10550668 0.13567445 -0.9851197 0
203.97701 63.302399 945.76202 0.12723538 0.13876644 -0.98211765 0
204.49001 63.292 945.59003 0.12469047 0.13691376 -0.98270392 0.037983038
205.065 63.3004 945.69897 0.13971233 0.12170535 -0.98268425 0
205.614 63.301201 945.69397 0.21088478 0.1121102 -0.97106069 0
201.75 63.837799 945.64502 0.083296224 0.19117428 -0.97801542 0
203.37399 63.832199 945.51398 0.084023394 0.17247075 -0.98142445 0
203.95399 63.842701 945.65198 0.16097467 0.23537531 -0.95848095 0.10997339
204.537 63.853699 945.79901 0.13317537 0.18158124 -0.97431648 0
205.10001 63.8587 945.85699 0.13102201 0.17589475 -0.97565073 0
205.636 63.855202 945.789 0.20129034 0.18265308 -0.96235132 0.047557637
206.22501 63.868099 945.96301 0.17808135 0.16602597 -0.96990848 0
201.181 64.377998 945.55298 0.077973135 0.24496084 -0.96639252 0
201.726 64.377403 945.52899 0.069576591 0.24563654 -0.96686184 0
202.295 64.384499 945.61499 0.070771135 0.2307761 -0.97042972 0
202.825 64.378799 945.51599 0.080574043 0.23758423 -0.96801943 0
203.435 64.398903 945.79498 0.083319619 0.22538321 -0.97070092 0
203.98599 64.400002 945.79498 0.10837302 0.24763551 -0.96277303 0.037991855
205.627 64.399597 945.74103 0.13201375 0.25551051 -0.95775092 0.045699615
206.19299 64.405502 945.81 0.16263796 0.23174413 -0.95908475 0.046482094
198.989 64.923897 945.59302 0.082538307 0.31274238 -0.94624507 0
199.573 64.936096 945.75598 0.10290113 0.31436414 -0.94370896 0
200.08299 64.923798 945.56097 0.092427649 0.29841959 -0.94994891 0
200.632 64.9244 945.55298 0.059191067 0.29211277 -0.9545505 0
201.248 64.9468 945.86298 0.097474463 0.296523 -0.95003837 0
201.784 64.943199 945.79498 0.10544127 0.30386248 -0.94686311 0.0056974133
202.311 64.936699 945.68402 0.090956889 0.29114595 -0.95234495 0
202.86 64.937103 945.67499 0.073568486 0.28176036 -0.95666021 0
205.67101 64.9608 945.93799 0.20902841 0.30320376 -0.92971748 0.04800475
196.22099 65.460098 945.51001 0.074879199 0.49293867 -0.86683601 0.069127366
198.44299 65.471397 945.60999 0.11060628 0.44140044 -0.89046729 0.044195503
199.60699 65.4944 945.91101 0.086950094 0.36875144 -0.92545235 0
200.12399 65.484398 945.75 0.11086716 0.35739866 -0.9273482 0
200.668 65.483299 945.71802 0.12149968 0.35719135 -0.92609513 0.027836574
201.82201 65.502701 945.96698 0.095084324 0.34326914 -0.93441176 0
193.483 66.006203 945.57001 0.068713352 0.534558 -0.84233379 0.022944544
195.12399 66.006104 945.52197 0.062367748 0.5122925 -0.85654348 0.022557579
195.698 66.015297 945.638 0.037360817 0.49397761 -0.8686716 0.001612898
196.26601 66.022301 945.72198 0.042379718 0.51274467 -0.85749459 0.025745476
197.396 66.034302 945.862 0.076197766 0.47364327 -0.87741441 0
197.92599 66.028503 945.763 0.057628516 0.43104184 -0.90048981 0
198.489 66.033699 945.82202 0.10297883 0.48844567 -0.8664965 0.059435342
199.036 66.033798 945.80798 0.11180843 0.45813423 -0.88182306 0.030262109
199.60699 66.041603 945.90302 0.075549833 0.4142603 -0.90701741 0
200.17101 66.047302 945.96802 0.092170522 0.40489784 -0.90970457 0
180.29201 66.529404 945.591 -0.086740136 0.77394199 -0.62728781 0.010819687
186.342 66.542198 945.60797 0.049678873 0.66512185 -0.74508053 0
188 66.5485 945.65198 0.032550678 0.65254062 -0.75705433 0
189.16299 66.572899 945.96802 0.020932423 0.65838784 -0.75238776 0.015888425
189.67101 66.558998 945.755 0.0058317692 0.62065512 -0.78406203 0
190.231 66.563599 945.80499 0.012915323 0.61662418 -0.78715169 0
190.743 66.5513 945.61603 0.018186109 0.63656342 -0.77100992 0.028733714
191.27499 66.546204 945.52698 0.05356513 0.63589531 -0.76991427 0.040250164
191.84 66.552498 945.60101 0.055266678 0.59285569 -0.80341011 0.018636392
192.43401 66.568802 945.81702 0.041530114 0.57413149 -0.81770921 0
193.528 66.568497 945.78101 0.05859372 0.58752441 -0.80708236 0.028442586
195.672 66.553703 945.508 0.037176557 0.60072738 -0.79858911 0.057035573
196.26601 66.569397 945.716 0.038610835 0.52805376 -0.84833276 0.0029608896
196.856 66.584 945.90698 0.044140503 0.52140623 -0.85216618 0
197.42101 66.589897 945.97498 0.05443199 0.51628894 -0.85468292 0
199.05701 66.587997 945.90002 0.0782573 0.46914911 -0.87964475 0
171.498 67.058296 945.565 0.13392329 0.68447632 -0.71662873 0
172.605 67.0634 945.60901 0.1231635 0.78105569 -0.61219507 0.0064400695
173.767 67.089897 945.953 0.10445049 0.82804978 -0.55083913 0.022677924
180.341 67.094299 945.841 -0.087551199 0.78887737 -0.60828227 0.0037495489
181.424 67.0905 945.758 -0.077329166 0.8474983 -0.5251351 0.030151546
183.076 67.094803 945.77399 0.022940073 0.8014912 -0.59756649 0.017139351
184.74699 67.105797 945.883 -0.0027638737 0.74283844 -0.66946507 0.0067168986
185.821 67.098602 945.75201 0.0092699602 0.73088533 -0.68243742 0.01321674
186.929 67.103401 945.789 0.034415193 0.69751859 -0.71573985 0.0041992362
191.91 67.123802 945.93799 0.060585275 0.64544356 -0.76140136 0.012816817
192.44099 67.118301 945.84399 0.062420096 0.65751404 -0.75085223 0.026861772
167.13699 67.609596 945.737 -0.10388696 0.87495953 -0.47291994 0.010631572
168.778 67.610001 945.70099 0.16337457 0.72094965 -0.67345405 0
169.33701 67.614899 945.75598 0.15625399 0.79277676 -0.58914322 0.0078426469
146.905 42.459801 946.38 0.086376004 -0.85426497 -0.51261151 0.024066774
147.468 42.464699 946.47601 0.12228258 -0.86953491 -0.47849354 0.010295312
146.34 43.000999 946.26801 0.032821734 -0.78673863 -0.61641312 0.037979666
149.62199 43.0019 946.21503 0.076061785 -0.83245313 -0.54885012 0.032234754
151.854 43.014999 946.453 0.036122207 -0.87956172 -0.47441164 0.0032772394
165.50999 45.1987 946.04102 0.17462514 -0.93404001 -0.31156909 0.0061105345
169.382 45.757801 946.19598 0.3644045 -0.87747657 -0.31184018 0.010370336
170.536 46.3209 946.49701 0.45601425 -0.83307165 -0.31311765 0.004471004
170.99699 46.844501 946.005 0.47232455 -0.81128865 -0.34455809 0.0073863836
173.77499 47.950199 946.16602 0.31328633 -0.84118402 -0.4407506 0.015931003
174.849 48.491501 946.02301 0.23888136 -0.82975554 -0.50442201 0.004853935
175.465 48.5107 946.383 0.19256093 -0.83430177 -0.51658577 0.0019820558
176.036 48.517399 946.49902 0.15993804 -0.83865345 -0.52065367 0.00068747334
176.57899 48.5163 946.46301 0.16702166 -0.8564868 -0.48839965 0.010659179
177.61 49.045799 946.091 0.1335872 -0.79227501 -0.59536111 8.8376575e-05
178.70599 49.046501 946.07501 0.12252953 -0.66713822 -0.73478788 0
179.79601 49.045399 946.02399 0.15148237 -0.69205022 -0.70577592 0
180.94901 49.608501 946.29797 0.18917286 -0.78962439 -0.58370107 0.021241814
181.47501 49.602901 946.177 0.18338169 -0.77788532 -0.60105377 0.016445076
181.996 49.595798 946.02698 0.18706284 -0.74906403 -0.63553959 0.0032140797
182.627 49.618401 946.44397 0.18146794 -0.66669059 -0.72290599 0
183.186 49.621799 946.49402 0.19634484 -0.75544935 -0.62509596 0
183.147 50.158298 946.28601 0.19669585 -0.72353405 -0.66167152 0
184.261 50.163601 946.35699 0.20783772 -0.73230815 -0.64848155 0.013225579
184.836 50.1712 946.48602 0.17579721 -0.69856501 -0.69361544 0
183.66701 50.698101 946.12903 0.23589928 -0.71450239 -0.65866369 0.026994094
185.37399 50.716 946.41998 0.16627406 -0.71750063 -0.67642128 0.007028474
185.89101 50.707699 946.25 0.16925365 -0.79058087 -0.58850247 0.042137112
186.459 50.713402 946.341 0.17616038 -0.75694257 -0.62928969 0.030416779
187.53799 50.709301 946.23401 0.22299984 -0.76897079 -0.5991286 0.032638818
185.31 51.245701 946.09003 0.18434717 -0.72487485 -0.66375649 0.042292133
188.07899 51.2547 946.17999 0.18125384 -0.70847601 -0.68206227 0.01645463
188.644 51.259701 946.25702 0.16999114 -0.67553294 -0.71746653 0
189.19299 51.8074 946.24597 0.21383098 -0.61931604 -0.75546277 0
189.76401 51.813801 946.34802 0.26775321 -0.66358662 -0.69854212 0.029842293
190.269 51.8022 946.12201 0.26445171 -0.69817418 -0.6652956 0.05553462
190.892 51.822701 946.48102 0.21321644 -0.63215572 -0.74492812 0.0025223233
190.847 52.358002 946.25702 0.24552317 -0.63136148 -0.7355957 0.032325059
191.423 52.365799 946.383 0.24638961 -0.59664708 -0.7637437 0
191.94 52.9048 946.21399 0.24892473 -0.60482001 -0.7564584 0.034356691
192.495 52.906898 946.23602 0.27368858 -0.67298168 -0.68716097 0.066379733
193.07401 52.915699 946.37799 0.24172439 -0.66126859 -0.71013612 0.059924729
193.632 52.918499 946.41101 0.17886136 -0.57647324 -0.79729998 0.0017449518
192.99899 53.442299 946.00403 0.27396801 -0.67210746 -0.68790495 0.091520444
193.59 53.454498 946.20502 0.18097962 -0.53577733 -0.82473576 0.0058296085
194.142 53.455601 946.21002 0.20389955 -0.56378371 -0.800358 0.033691518
194.731 53.467201 946.39899 0.1921365 -0.58880991 -0.7851029 0.051838748
194.653 53.992802 946.013 0.20759614 -0.50077009 -0.84031737 0.040500052
195.246 54.0056 946.21997 0.20600784 -0.48912412 -0.84753668 0.023095138
195.79201 54.0051 946.19702 0.18407354 -0.51944667 -0.83444124 0.044678837
196.379 54.015999 946.37097 0.1391806 -0.48204669 -0.8650201 0
196.933 54.018002 946.39099 0.13251543 -0.46638703 -0.87459868 0
196.338 54.552101 946.16901 0.1844645 -0.42693508 -0.88526797 0
196.87399 54.548901 946.099 0.16603298 -0.43379667 -0.8855809 0.0023846824
197.46001 54.559601 946.26898 0.17433348 -0.47054553 -0.86498255 0.036062114
198.575 54.5653 946.33502 0.18792076 -0.48728088 -0.85278559 0.043786213
199.14101 54.5704 946.40802 0.1696299 -0.46147466 -0.87078518 0
197.408 55.092499 946.01501 0.12055195 -0.3931042 -0.91155708 0
198.013 55.1087 946.27698 0.11602768 -0.40195256 -0.90827948 0
198.52901 55.099899 946.11102 0.14928046 -0.4057419 -0.90171444 0
199.10001 55.106499 946.20801 0.17403902 -0.415676 -0.89270592 0.013009785
199.675 55.661598 946.31799 0.14809923 -0.39010698 -0.90878117 0
200.233 55.6646 946.35303 0.13347392 -0.39908898 -0.90714538 0
200.76601 55.6605 946.26703 0.15759905 -0.39460388 -0.90523499 0.0065480098
201.341 55.667999 946.38 0.18689865 -0.42655864 -0.88493878 0.036688082
199.61501 56.192402 946.03101 0.17915386 -0.37542981 -0.90937144 0.043202221
200.188 56.199299 946.133 0.1606776 -0.35111368 -0.92244345 0
200.72501 56.1964 946.06799 0.19927278 -0.34906831 -0.91566461 0
201.299 56.203999 946.17999 0.17686717 -0.35488224 -0.91802865 0
201.886 56.215099 946.34998 0.1446166 -0.37189028 -0.9169426 0.009952656
202.44701 56.218601 946.39398 0.18408842 -0.41585916 -0.89060241 0.051795725
203.005 56.221699 946.42902 0.19710322 -0.4374907 -0.87735528 0.064483173
201.83 56.746899 946.08301 0.17699118 -0.32944295 -0.92743814 0.015649606
202.405 56.754601 946.19598 0.18027054 -0.35274786 -0.91818923 0.023376472
202.964 56.757702 946.23102 0.17229487 -0.33760604 -0.92538464 0.0020052313
203.552 56.7691 946.40601 0.17245328 -0.35188097 -0.92002159 0
204.07201 56.761299 946.26001 0.16923681 -0.35691068 -0.91868037 0
202.369 57.291801 946.021 0.17967087 -0.31237122 -0.93281436 0.019218516
202.95399 57.302601 946.18402 0.18874535 -0.30412588 -0.93374658 0
203.51601 57.306599 946.23401 0.1646885 -0.32107574 -0.93262428 0
204.075 57.3097 946.27002 0.21882387 -0.35343882 -0.90950382 0.059466619
204.653 57.318401 946.396 0.19459495 -0.32241389 -0.92638123 0.014201742
205.22 57.323601 946.466 0.22268604 -0.32618335 -0.91870314 0
205.769 57.3241 946.45697 0.2633352 -0.37545818 -0.88864267 0.053197615
