ply
format ascii 1.0
comment Created by CloudCompare v2.11 beta (Anoia)
comment Created 2020/4/24 下午4:19
obj_info Generated by CloudCompare!
element vertex 1860
property float x
property float y
property float z
end_header
133.588 -62.6575 948.907 
134.161 -62.6693 949.072 
134.696 -62.6637 948.975 
135.288 -62.6842 949.272 
135.837 -62.6842 949.26 
136.368 -62.6766 949.132 
136.893 -62.6663 948.962 
137.477 -62.6828 949.2 
138.062 -62.6995 949.44 
138.619 -62.7033 949.484 
139.219 -62.7267 949.826 
139.761 -62.724 949.771 
140.419 -62.7729 950.498 
140.924 -62.7536 950.192 
141.523 -62.7758 950.516 
142.091 -62.7845 950.635 
142.731 -62.8246 951.227 
143.333 -62.8475 951.561 
143.979 -62.89 952.191 
144.482 -62.8696 951.868 
145.157 -62.924 952.679 
145.772 -62.9518 953.085 
146.386 -62.9795 953.491 
147.003 -63.0077 953.905 
147.703 -63.0717 954.859 
148.317 -63.0983 955.248 
148.972 -63.1421 955.897 
149.62 -63.1824 956.494 
150.308 -63.2396 957.344 
150.988 -63.2932 958.142 
151.749 -63.3798 959.439 
152.324 -63.3884 959.555 
152.992 -63.4357 960.257 
153.703 -63.5004 961.222 
154.338 -63.5332 961.703 
154.917 -63.5431 961.84 
155.524 -63.564 962.141 
156.106 -63.5748 962.29 
156.685 -63.5842 962.418 
157.222 -63.5766 962.287 
157.811 -63.5901 962.477 
158.369 -63.5907 962.472 
158.964 -63.6067 962.699 
159.514 -63.6043 962.647 
160.084 -63.6097 962.715 
160.669 -63.6213 962.875 
161.271 -63.6392 963.131 
161.754 -63.6106 962.683 
162.325 -63.6164 962.755 
162.929 -63.635 963.022 
163.464 -63.627 962.885 
164.072 -63.6471 963.175 
164.7 -63.6748 963.579 
165.181 -63.6454 963.118 
165.775 -63.6599 963.323 
166.371 -63.6753 963.54 
166.942 -63.6809 963.608 
167.461 -63.6664 963.374 
168.065 -63.6844 963.632 
168.664 -63.7004 963.858 
169.262 -63.7159 964.077 
169.844 -63.7252 964.202 
170.342 -63.7033 963.854 
170.98 -63.7334 964.294 
171.536 -63.733 964.272 
172.11 -63.7395 964.355 
172.709 -63.7547 964.569 
173.266 -63.7549 964.555 
173.857 -63.7671 964.724 
174.476 -63.7898 965.051 
175 -63.7774 964.847 
175.603 -63.7939 965.081 
176.144 -63.7881 964.977 
176.697 -63.7864 964.936 
177.344 -63.8185 965.405 
177.879 -63.8104 965.266 
178.405 -63.7989 965.076 
179.039 -63.8263 965.474 
179.611 -63.8314 965.534 
180.15 -63.8246 965.415 
180.728 -63.8319 965.508 
181.273 -63.8272 965.421 
182.057 -63.9067 966.606 
182.747 -63.9527 967.285 
183.468 -64.0091 968.122 
184.051 -64.0173 968.228 
184.606 -64.0156 968.187 
185.175 -64.019 968.22 
185.759 -64.0275 968.333 
186.319 -64.0276 968.317 
186.871 -64.025 968.261 
187.507 -64.0511 968.638 
188.079 -64.0552 968.683 
188.663 -64.0636 968.793 
189.211 -64.0596 968.715 
189.826 -64.078 968.976 
190.431 -64.0933 969.19 
190.965 -64.0846 969.041 
191.56 -64.0963 969.201 
192.177 -64.1149 969.466 
192.733 -64.1137 969.429 
193.385 -64.1439 969.868 
193.917 -64.1346 969.711 
194.518 -64.1478 969.893 
195.073 -64.146 969.848 
195.661 -64.155 969.966 
196.3 -64.1806 970.335 
196.855 -64.1786 970.287 
197.421 -64.1804 970.296 
198.064 -64.2072 970.684 
198.614 -64.2036 970.611 
199.152 -64.1959 970.478 
199.874 -64.2477 971.242 
200.382 -64.2306 970.966 
201.02 -64.2549 971.316 
201.566 -64.25 971.223 
202.149 -64.2571 971.312 
202.751 -64.2697 971.484 
203.313 -64.2698 971.469 
203.966 -64.2989 971.889 
204.549 -64.3054 971.97 
205.156 -64.3193 972.162 
205.697 -64.3128 972.045 
206.267 -64.3152 972.063 
206.917 -64.3426 972.459 
207.476 -64.3418 972.428 
208.115 -64.3654 972.767 
208.732 -64.3823 973.003 
209.286 -64.3795 972.942 
209.878 -64.3886 973.061 
210.475 -64.3992 973.203 
211.129 -64.4271 973.605 
211.631 -64.4083 973.303 
212.305 -64.442 973.794 
212.927 -64.4598 974.044 
213.564 -64.4822 974.363 
213.955 -64.4301 973.558 
214.613 -64.4589 973.973 
215.115 -64.4403 973.673 
215.895 -64.5052 974.634 
216.482 -64.5122 974.722 
217.077 -64.5216 974.844 
217.597 -64.5084 974.626 
218.231 -64.5294 974.923 
218.866 -64.5502 975.22 
219.474 -64.5631 975.395 
220.128 -64.5896 975.777 
220.66 -64.58 975.612 
221.387 -64.6275 976.311 
221.914 -64.6166 976.126 
222.521 -64.6289 976.293 
223.103 -64.6338 976.347 
223.619 -64.6197 976.114 
224.27 -64.6447 976.472 
224.848 -64.6485 976.511 
225.53 -64.6819 976.995 
226.182 -64.7068 977.353 
226.686 -64.6894 977.07 
111.698 -63.0493 963.779 
112.196 -63.0167 963.27 
112.643 -62.9557 962.328 
113.037 -62.8662 960.948 
113.523 -62.8284 960.36 
113.976 -62.7723 959.491 
114.44 -62.7232 958.729 
114.901 -62.6732 957.954 
115.368 -62.6265 957.23 
115.842 -62.5839 956.568 
116.367 -62.5698 956.341 
116.806 -62.509 955.4 
117.302 -62.4798 954.943 
117.804 -62.4539 954.536 
118.325 -62.4381 954.283 
118.809 -62.4032 953.739 
119.275 -62.3587 953.047 
119.82 -62.3561 952.995 
120.341 -62.3414 952.76 
120.824 -62.3066 952.216 
121.328 -62.2834 951.85 
121.8 -62.2442 951.239 
122.341 -62.2401 951.165 
122.86 -62.225 950.922 
123.369 -62.2044 950.597 
123.956 -62.2239 950.883 
124.429 -62.1861 950.293 
124.98 -62.1871 950.297 
125.512 -62.179 950.161 
126.03 -62.164 949.919 
126.535 -62.1429 949.585 
127.071 -62.137 949.482 
127.63 -62.1422 949.55 
128.151 -62.1292 949.34 
128.687 -62.1234 949.239 
129.236 -62.124 949.235 
129.736 -62.1011 948.874 
130.31 -62.1137 949.053 
130.891 -62.1292 949.278 
131.397 -62.1098 948.969 
131.954 -62.1138 949.017 
132.544 -62.1336 949.307 
133.025 -62.1024 948.819 
133.562 -62.0974 948.728 
134.165 -62.1231 949.11 
134.705 -62.1194 949.04 
135.255 -62.1205 949.044 
135.813 -62.1251 949.101 
136.334 -62.1129 948.902 
136.913 -62.1271 949.106 
137.508 -62.1482 949.415 
138.049 -62.1451 949.355 
138.609 -62.1505 949.423 
139.236 -62.1856 949.947 
139.807 -62.1956 950.086 
140.4 -62.2154 950.376 
140.943 -62.2128 950.323 
141.492 -62.2134 950.318 
142.168 -62.2688 951.152 
142.727 -62.2731 951.204 
143.297 -62.2823 951.331 
143.948 -62.3261 951.987 
144.561 -62.3536 952.393 
145.165 -62.377 952.736 
145.763 -62.3974 953.034 
146.399 -62.4339 953.578 
147.025 -62.466 954.055 
147.713 -62.524 954.927 
148.363 -62.5655 955.546 
149.012 -62.6064 956.158 
149.65 -62.6426 956.696 
150.296 -62.6817 957.279 
151.091 -62.7823 958.801 
151.76 -62.8301 959.517 
152.296 -62.8225 959.386 
153.119 -62.9332 961.063 
153.736 -62.9586 961.435 
154.405 -63.0048 962.127 
154.983 -63.0141 962.254 
155.586 -63.0332 962.532 
156.127 -63.0271 962.424 
156.688 -63.0294 962.444 
157.29 -63.0476 962.708 
157.855 -63.0513 962.749 
158.388 -63.0421 962.594 
158.965 -63.0506 962.708 
159.553 -63.0633 962.888 
160.083 -63.0529 962.715 
160.694 -63.0746 963.031 
161.248 -63.0735 962.999 
161.82 -63.0799 963.081 
162.377 -63.08 963.068 
162.947 -63.0856 963.138 
163.455 -63.0669 962.837 
164.13 -63.1126 963.52 
164.69 -63.1138 963.522 
165.24 -63.1114 963.47 
165.78 -63.1051 963.359 
166.383 -63.1227 963.612 
166.934 -63.1205 963.563 
167.445 -63.1035 963.288 
168.061 -63.1258 963.614 
168.664 -63.1431 963.861 
169.271 -63.1619 964.133 
169.825 -63.1608 964.101 
170.354 -63.1505 963.927 
170.963 -63.1696 964.203 
171.496 -63.1611 964.057 
172.117 -63.1845 964.398 
172.707 -63.1963 964.563 
173.25 -63.1913 964.471 
173.833 -63.2007 964.598 
174.435 -63.2169 964.829 
174.983 -63.2135 964.761 
175.62 -63.2422 965.183 
176.152 -63.233 965.027 
176.71 -63.2332 965.013 
177.353 -63.2635 965.46 
177.883 -63.2536 965.292 
178.39 -63.2357 965.002 
179.011 -63.2582 965.329 
179.577 -63.261 965.356 
180.115 -63.2541 965.234 
180.705 -63.2653 965.388 
181.284 -63.2729 965.487 
182.016 -63.3335 966.395 
182.715 -63.3822 967.122 
183.43 -63.4361 967.928 
184.058 -63.4598 968.273 
184.598 -63.4529 968.15 
185.132 -63.4443 968.002 
185.725 -63.4559 968.162 
186.306 -63.4632 968.256 
186.828 -63.4504 968.044 
187.471 -63.4786 968.457 
188.036 -63.4803 968.466 
188.639 -63.4949 968.671 
189.181 -63.489 968.564 
189.793 -63.5066 968.816 
190.394 -63.5203 969.008 
190.922 -63.5096 968.826 
191.549 -63.532 969.15 
192.133 -63.5397 969.251 
192.689 -63.5384 969.214 
193.341 -63.5684 969.654 
193.896 -63.5667 969.61 
194.485 -63.576 969.735 
195.043 -63.5751 969.704 
195.617 -63.5795 969.752 
196.256 -63.6049 970.122 
196.81 -63.6029 970.074 
197.349 -63.5958 969.948 
197.971 -63.6157 970.233 
198.523 -63.6128 970.172 
199.107 -63.6202 970.267 
199.829 -63.6714 971.03 
200.337 -63.6545 970.754 
200.927 -63.6636 970.875 
201.521 -63.6738 971.013 
202.097 -63.6786 971.067 
202.695 -63.69 971.223 
203.256 -63.6899 971.203 
203.813 -63.6886 971.166 
204.502 -63.7282 971.75 
205.09 -63.7365 971.859 
205.582 -63.7149 971.51 
206.208 -63.7345 971.791 
206.801 -63.7443 971.922 
207.419 -63.7613 972.164 
207.99 -63.7641 972.188 
208.607 -63.7809 972.425 
209.24 -63.8024 972.734 
209.773 -63.7934 972.578 
210.429 -63.822 972.996 
211.066 -63.8444 973.319 
211.576 -63.8285 973.058 
212.23 -63.8558 973.455 
212.806 -63.8598 973.497 
213.49 -63.896 974.03 
213.938 -63.8617 973.488 
214.567 -63.8813 973.768 
215.101 -63.8728 973.619 
215.771 -63.9043 974.08 
216.406 -63.9256 974.386 
216.943 -63.9176 974.245 
217.5 -63.9158 974.198 
218.084 -63.9217 974.269 
218.797 -63.9656 974.92 
219.312 -63.9512 974.682 
220.062 -64.0054 975.488 
220.568 -63.9886 975.211 
221.305 -64.0387 975.957 
221.792 -64.0161 975.593 
222.403 -64.0296 975.778 
222.923 -64.017 975.567 
223.564 -64.0389 975.882 
224.196 -64.0583 976.157 
224.646 -64.0255 975.638 
225.281 -64.0455 975.924 
226.078 -64.1114 976.908 
226.604 -64.1004 976.722 
227.296 -64.1362 977.248 
111.231 -62.5428 964.567 
111.668 -62.4761 963.526 
112.166 -62.4438 963.018 
112.635 -62.3957 962.265 
113.026 -62.3054 960.862 
113.516 -62.2699 960.303 
113.944 -62.2008 959.227 
114.381 -62.1377 958.242 
114.866 -62.1009 957.664 
115.337 -62.0574 956.982 
115.85 -62.036 956.642 
116.352 -62.0094 956.221 
116.776 -61.9414 955.161 
117.276 -61.9146 954.735 
117.785 -61.8928 954.388 
118.297 -61.8722 954.06 
118.787 -61.841 953.566 
119.26 -61.8009 952.937 
119.799 -61.7954 952.842 
120.319 -61.78 952.593 
120.792 -61.7406 951.973 
121.313 -61.726 951.737 
121.831 -61.7105 951.486 
122.392 -61.7163 951.564 
122.879 -61.6851 951.071 
123.387 -61.6647 950.744 
123.927 -61.6605 950.668 
124.414 -61.6297 950.181 
124.953 -61.6251 950.098 
125.482 -61.6156 949.94 
126.009 -61.6051 949.767 
126.518 -61.5864 949.467 
127.101 -61.603 949.71 
127.637 -61.5975 949.614 
128.12 -61.566 949.116 
128.666 -61.5652 949.091 
129.226 -61.5711 949.17 
129.712 -61.5416 948.702 
130.305 -61.5634 949.026 
130.867 -61.5698 949.112 
131.414 -61.5693 949.092 
131.971 -61.5738 949.148 
132.513 -61.5708 949.09 
132.993 -61.5398 948.599 
133.556 -61.5469 948.696 
134.143 -61.5649 948.962 
134.679 -61.5594 948.863 
135.238 -61.5647 948.933 
135.825 -61.5824 949.192 
136.348 -61.5711 949.005 
136.924 -61.584 949.19 
137.475 -61.5853 949.198 
138.024 -61.5856 949.19 
138.652 -61.621 949.723 
139.206 -61.6238 949.751 
139.793 -61.6408 950 
140.383 -61.6589 950.267 
140.92 -61.6541 950.179 
141.492 -61.6642 950.321 
142.165 -61.718 951.138 
142.741 -61.7299 951.307 
143.277 -61.7241 951.204 
143.938 -61.7719 951.928 
144.527 -61.789 952.178 
145.164 -61.8261 952.735 
145.764 -61.8473 953.049 
146.404 -61.8851 953.617 
147.02 -61.9125 954.025 
147.709 -61.9706 954.906 
148.326 -61.998 955.315 
148.979 -62.0403 955.953 
149.613 -62.0745 956.465 
150.285 -62.1239 957.213 
151.063 -62.2167 958.627 
151.741 -62.2677 959.4 
152.462 -62.336 960.438 
153.106 -62.3722 960.982 
153.754 -62.4103 961.554 
154.382 -62.4397 961.993 
154.971 -62.4529 962.182 
155.607 -62.4852 962.664 
156.123 -62.4693 962.405 
156.699 -62.4774 962.514 
157.262 -62.4803 962.545 
157.878 -62.504 962.895 
158.417 -62.4972 962.775 
158.974 -62.4979 962.771 
159.525 -62.4956 962.721 
160.129 -62.5146 962.999 
160.72 -62.5282 963.193 
161.261 -62.5222 963.086 
161.821 -62.5237 963.095 
162.373 -62.5221 963.054 
162.961 -62.5341 963.223 
163.492 -62.5246 963.062 
164.118 -62.5512 963.457 
164.692 -62.5578 963.542 
165.256 -62.5607 963.572 
165.805 -62.5577 963.511 
166.397 -62.5712 963.703 
166.946 -62.5681 963.64 
167.495 -62.5652 963.579 
168.095 -62.5814 963.813 
168.642 -62.5779 963.744 
169.282 -62.6086 964.201 
169.81 -62.5981 964.023 
170.362 -62.5961 963.977 
170.928 -62.5997 964.016 
171.52 -62.6124 964.196 
172.106 -62.6228 964.34 
172.675 -62.6272 964.393 
173.21 -62.6193 964.254 
173.802 -62.6317 964.43 
174.395 -62.6446 964.612 
174.985 -62.6564 964.778 
175.596 -62.6756 965.058 
176.111 -62.6603 964.806 
176.67 -62.6608 964.797 
177.322 -62.6945 965.3 
177.862 -62.6882 965.186 
178.419 -62.6878 965.164 
178.994 -62.6939 965.241 
179.557 -62.6957 965.253 
180.112 -62.6949 965.224 
180.663 -62.6925 965.169 
181.25 -62.7028 965.311 
182.025 -62.7777 966.448 
182.688 -62.8133 966.98 
183.453 -62.8841 968.052 
184.03 -62.8904 968.132 
184.587 -62.8893 968.099 
185.101 -62.874 967.847 
185.706 -62.8893 968.066 
186.288 -62.897 968.167 
186.874 -62.9059 968.287 
187.428 -62.904 968.24 
187.992 -62.9058 968.25 
188.595 -62.9202 968.455 
189.147 -62.9174 968.395 
189.752 -62.9324 968.609 
190.351 -62.9455 968.792 
190.942 -62.9558 968.934 
191.506 -62.957 968.936 
192.1 -62.9684 969.093 
192.646 -62.9635 969 
193.297 -62.9932 969.439 
193.849 -62.9905 969.381 
194.441 -63.0008 969.521 
194.999 -62.9999 969.49 
195.572 -63.0042 969.539 
196.215 -63.0306 969.927 
196.766 -63.0275 969.862 
197.365 -63.0399 970.035 
197.916 -63.0367 969.967 
198.525 -63.0522 970.187 
199.111 -63.06 970.29 
199.784 -63.0955 970.819 
200.303 -63.0821 970.595 
200.882 -63.0878 970.664 
201.44 -63.0868 970.631 
202.038 -63.0982 970.788 
202.64 -63.1111 970.968 
203.186 -63.1061 970.873 
203.768 -63.1127 970.956 
204.406 -63.1363 971.301 
205.002 -63.1468 971.444 
205.525 -63.1349 971.243 
206.129 -63.148 971.426 
206.725 -63.1584 971.568 
207.328 -63.1711 971.745 
207.922 -63.1807 971.874 
208.536 -63.1965 972.098 
209.133 -63.2073 972.245 
209.646 -63.1922 971.995 
210.327 -63.228 972.527 
210.866 -63.2209 972.399 
211.482 -63.237 972.628 
212.086 -63.2495 972.801 
212.704 -63.266 973.037 
213.345 -63.2892 973.374 
213.862 -63.2756 973.147 
214.445 -63.2817 973.222 
215.022 -63.2857 973.263 
215.705 -63.321 973.787 
216.338 -63.3415 974.083 
216.808 -63.3143 973.646 
217.403 -63.3235 973.768 
218.011 -63.3367 973.952 
218.733 -63.3824 974.636 
219.235 -63.3647 974.344 
219.926 -63.4014 974.89 
220.396 -63.3744 974.455 
221.027 -63.3937 974.733 
221.64 -63.4078 974.931 
222.263 -63.4247 975.17 
222.825 -63.4241 975.141 
223.447 -63.4406 975.375 
224.001 -63.4377 975.312 
224.55 -63.4334 975.226 
225.192 -63.4555 975.546 
225.85 -63.4817 975.929 
226.491 -63.5031 976.239 
227.225 -63.5504 976.946 
227.804 -63.5542 976.986 
228.283 -63.5303 976.599 
111.201 -61.9693 964.313 
111.685 -61.9291 963.676 
112.187 -61.8995 963.206 
112.605 -61.8236 962.013 
113.025 -61.75 960.858 
113.516 -61.7155 960.309 
113.924 -61.6364 959.067 
114.407 -61.5986 958.468 
114.853 -61.5411 957.563 
115.332 -61.502 956.943 
115.824 -61.4701 956.437 
116.333 -61.4474 956.072 
116.774 -61.3892 955.156 
117.247 -61.3482 954.505 
117.78 -61.339 954.351 
118.284 -61.3148 953.964 
118.775 -61.2839 953.472 
119.311 -61.2768 953.35 
119.814 -61.2526 952.962 
120.315 -61.2277 952.563 
120.765 -61.1772 951.766 
121.324 -61.1823 951.834 
121.851 -61.1707 951.642 
122.392 -61.1671 951.574 
122.869 -61.1308 950.998 
123.362 -61.1033 950.558 
123.911 -61.1036 950.55 
124.433 -61.0903 950.332 
124.927 -61.0638 949.907 
125.485 -61.0686 949.971 
125.992 -61.0486 949.647 
126.499 -61.0289 949.329 
127.069 -61.0396 949.483 
127.617 -61.0393 949.467 
128.089 -61.0032 948.893 
128.682 -61.0246 949.214 
129.225 -61.0222 949.164 
129.763 -61.0179 949.084 
130.286 -61.0061 948.889 
130.851 -61.0145 949.006 
131.4 -61.0146 948.996 
131.937 -61.01 948.911 
132.494 -61.014 948.961 
133.022 -61.0048 948.806 
133.556 -60.9986 948.696 
134.13 -61.0107 948.872 
134.654 -61 948.693 
135.213 -61.0053 948.762 
135.808 -61.0263 949.077 
136.372 -61.0336 949.177 
136.938 -61.0419 949.292 
137.473 -61.0359 949.186 
138.061 -61.0538 949.452 
138.628 -61.0621 949.567 
139.19 -61.068 949.646 
139.769 -61.0813 949.84 
140.373 -61.1057 950.207 
140.899 -61.096 950.042 
141.522 -61.1281 950.528 
142.148 -61.1615 951.033 
142.724 -61.1729 951.197 
143.318 -61.1922 951.484 
143.952 -61.2279 952.026 
144.491 -61.2236 951.946 
145.155 -61.2719 952.683 
145.735 -61.2846 952.866 
146.411 -61.3373 953.672 
147.011 -61.3579 953.978 
147.672 -61.4036 954.675 
148.309 -61.4392 955.215 
148.966 -61.4827 955.876 
149.627 -61.5275 956.559 
150.349 -61.5971 957.627 
151.042 -61.6543 958.502 
151.8 -61.7374 959.779 
152.466 -61.7826 960.468 
153.127 -61.8256 961.122 
153.726 -61.8431 961.38 
154.372 -61.8797 961.934 
155.008 -61.9118 962.419 
155.572 -61.9151 962.455 
156.144 -61.9214 962.54 
156.707 -61.9243 962.569 
157.237 -61.9141 962.396 
157.841 -61.9333 962.68 
158.404 -61.9358 962.704 
158.965 -61.9378 962.72 
159.54 -61.9451 962.818 
160.097 -61.9454 962.808 
160.697 -61.9627 963.062 
161.257 -61.9642 963.07 
161.853 -61.9792 963.289 
162.394 -61.9734 963.182 
162.956 -61.9756 963.202 
163.494 -61.9687 963.079 
164.104 -61.9889 963.379 
164.678 -61.9956 963.467 
165.226 -61.9924 963.402 
165.812 -62.0035 963.559 
166.405 -62.0169 963.751 
166.941 -62.0094 963.62 
167.553 -62.0297 963.919 
168.068 -62.0144 963.667 
168.672 -62.0319 963.923 
169.319 -62.0649 964.419 
169.801 -62.0372 963.974 
170.378 -62.0446 964.072 
170.961 -62.0543 964.208 
171.563 -62.0706 964.445 
172.12 -62.0704 964.426 
172.692 -62.0759 964.495 
173.205 -62.0601 964.234 
173.839 -62.0873 964.641 
174.365 -62.0764 964.455 
174.963 -62.0908 964.663 
175.576 -62.1104 964.95 
176.093 -62.096 964.711 
176.676 -62.1053 964.84 
177.323 -62.1365 965.307 
177.838 -62.1215 965.058 
178.379 -62.1158 964.953 
179.003 -62.1389 965.296 
179.516 -62.1235 965.04 
180.091 -62.1293 965.114 
180.665 -62.135 965.185 
181.263 -62.149 965.386 
181.994 -62.2081 966.287 
182.689 -62.2545 966.991 
183.424 -62.3146 967.908 
184.002 -62.3207 967.986 
184.575 -62.3255 968.043 
185.083 -62.3081 967.756 
185.695 -62.3259 968.017 
186.291 -62.3383 968.191 
186.862 -62.3419 968.23 
187.397 -62.3339 968.089 
187.971 -62.3385 968.143 
188.581 -62.3553 968.387 
189.141 -62.3553 968.37 
189.731 -62.3655 968.512 
190.379 -62.3943 968.941 
190.909 -62.3845 968.771 
191.463 -62.3825 968.724 
192.059 -62.3942 968.887 
192.663 -62.4086 969.093 
193.256 -62.4191 969.239 
193.805 -62.4156 969.167 
194.425 -62.4349 969.449 
194.976 -62.4319 969.384 
195.548 -62.4357 969.426 
196.171 -62.4554 969.714 
196.72 -62.452 969.643 
197.321 -62.4647 969.823 
197.872 -62.4615 969.755 
198.502 -62.4834 970.077 
199.066 -62.4846 970.078 
199.739 -62.5198 970.606 
200.258 -62.5066 970.384 
200.885 -62.5271 970.683 
201.395 -62.5113 970.42 
201.993 -62.5226 970.578 
202.595 -62.5354 970.758 
203.141 -62.5304 970.663 
203.723 -62.537 970.747 
204.325 -62.5493 970.92 
204.956 -62.5708 971.235 
205.479 -62.5591 971.035 
206.077 -62.5702 971.189 
206.679 -62.5824 971.359 
207.283 -62.595 971.537 
207.867 -62.6017 971.623 
208.424 -62.6003 971.582 
209.047 -62.6188 971.85 
209.585 -62.6116 971.72 
210.281 -62.6514 972.32 
210.813 -62.6426 972.165 
211.401 -62.6503 972.264 
212.034 -62.671 972.567 
212.622 -62.6785 972.665 
213.279 -62.7063 973.077 
213.769 -62.6852 972.73 
214.381 -62.6995 972.934 
214.975 -62.7088 973.059 
215.536 -62.7083 973.032 
216.162 -62.7267 973.299 
216.755 -62.7353 973.413 
217.306 -62.7317 973.339 
217.935 -62.751 973.619 
218.538 -62.7623 973.775 
219.177 -62.784 974.092 
219.852 -62.8159 974.568 
220.349 -62.7968 974.253 
220.955 -62.8091 974.423 
221.546 -62.8168 974.524 
222.12 -62.8196 974.548 
222.755 -62.8398 974.841 
223.34 -62.8457 974.914 
223.907 -62.8467 974.91 
224.446 -62.8397 974.782 
225.007 -62.8387 974.746 
225.652 -62.8613 975.077 
226.382 -62.9075 975.775 
226.998 -62.9219 975.978 
227.627 -62.9395 976.232 
228.13 -62.9226 975.949 
111.655 -61.3563 963.423 
112.173 -61.3359 963.093 
112.581 -61.2555 961.82 
113.005 -61.1843 960.691 
113.494 -61.1491 960.127 
113.974 -61.1095 959.495 
114.454 -61.0703 958.867 
114.888 -61.007 957.864 
115.339 -60.953 957.004 
115.834 -60.9229 956.52 
116.302 -60.8793 955.825 
116.77 -60.8358 955.131 
117.243 -60.7953 954.483 
117.804 -60.8006 954.555 
118.264 -60.7534 953.804 
118.746 -60.7187 953.247 
119.28 -60.7104 953.105 
119.805 -60.6981 952.901 
120.303 -60.6716 952.474 
120.736 -60.613 951.542 
121.294 -60.6177 951.604 
121.842 -60.6169 951.581 
122.406 -60.6243 951.684 
122.876 -60.5851 951.058 
123.381 -60.5637 950.71 
123.899 -60.5488 950.464 
124.411 -60.531 950.173 
124.981 -60.5413 950.322 
125.47 -60.5127 949.861 
125.967 -60.4884 949.468 
126.524 -60.4926 949.523 
127.063 -60.4881 949.44 
127.598 -60.4822 949.334 
128.132 -60.4754 949.216 
128.686 -60.4784 949.25 
129.208 -60.4664 949.05 
129.745 -60.4614 948.959 
130.286 -60.4582 948.896 
130.831 -60.4568 948.862 
131.389 -60.4616 948.925 
131.915 -60.4515 948.754 
132.489 -60.4635 948.93 
133.014 -60.4535 948.76 
133.539 -60.4431 948.583 
134.117 -60.4569 948.787 
134.672 -60.4601 948.825 
135.245 -60.4715 948.991 
135.804 -60.4766 949.058 
136.346 -60.4738 949.002 
136.92 -60.4854 949.171 
137.491 -60.4954 949.315 
138.027 -60.4901 949.219 
138.653 -60.5243 949.742 
139.203 -60.5251 949.741 
139.756 -60.527 949.758 
140.356 -60.5494 950.096 
140.917 -60.555 950.171 
141.487 -60.5639 950.298 
142.121 -60.6004 950.856 
142.717 -60.6205 951.158 
143.33 -60.6473 951.565 
143.916 -60.6627 951.794 
144.466 -60.6632 951.787 
145.141 -60.7154 952.594 
145.716 -60.7261 952.747 
146.445 -60.8002 953.896 
147.025 -60.8124 954.073 
147.717 -60.8707 954.974 
148.358 -60.9075 955.537 
148.967 -60.9308 955.888 
149.681 -60.9966 956.908 
150.331 -61.0364 957.516 
151.068 -61.1108 958.67 
151.772 -61.1716 959.61 
152.477 -61.2319 960.541 
153.089 -61.2551 960.891 
153.717 -61.284 961.33 
154.388 -61.3303 962.042 
154.97 -61.3407 962.191 
155.556 -61.3527 962.363 
156.183 -61.3805 962.786 
156.732 -61.378 962.731 
157.247 -61.3621 962.467 
157.813 -61.3658 962.51 
158.417 -61.3844 962.787 
158.931 -61.3683 962.519 
159.573 -61.4015 963.026 
160.124 -61.3993 962.977 
160.67 -61.3957 962.904 
161.241 -61.4013 962.978 
161.823 -61.4109 963.113 
162.402 -61.4196 963.234 
162.964 -61.4217 963.252 
163.486 -61.4091 963.039 
164.085 -61.425 963.273 
164.677 -61.4381 963.463 
165.232 -61.4378 963.443 
165.783 -61.4355 963.392 
166.373 -61.448 963.572 
166.904 -61.4386 963.41 
167.518 -61.4596 963.723 
168.044 -61.4487 963.536 
168.668 -61.4732 963.904 
169.296 -61.4989 964.293 
169.807 -61.4824 964.018 
170.384 -61.4896 964.114 
170.962 -61.497 964.215 
171.533 -61.5023 964.283 
172.097 -61.5047 964.304 
172.673 -61.5112 964.39 
173.264 -61.5234 964.564 
173.799 -61.5156 964.426 
174.392 -61.5282 964.608 
174.987 -61.5414 964.799 
175.572 -61.5511 964.935 
176.119 -61.5475 964.863 
176.713 -61.56 965.042 
177.282 -61.564 965.089 
177.843 -61.5654 965.094 
178.44 -61.5791 965.291 
179.008 -61.5825 965.329 
179.492 -61.5573 964.918 
180.071 -61.5646 965.015 
180.638 -61.5676 965.045 
181.223 -61.5772 965.18 
181.987 -61.6469 966.255 
182.726 -61.7081 967.198 
183.424 -61.7549 967.915 
183.997 -61.7595 967.97 
184.539 -61.7535 967.859 
185.081 -61.7477 967.75 
185.664 -61.7556 967.857 
186.258 -61.7672 968.023 
186.849 -61.7776 968.168 
187.402 -61.7756 968.12 
188.028 -61.7973 968.442 
188.554 -61.7863 968.253 
189.13 -61.7917 968.321 
189.709 -61.7982 968.404 
190.336 -61.8198 968.726 
190.93 -61.8311 968.886 
191.477 -61.8269 968.803 
192.027 -61.8237 968.736 
192.658 -61.8463 969.072 
193.227 -61.8492 969.099 
193.764 -61.842 968.969 
194.396 -61.8647 969.307 
195.006 -61.8806 969.538 
195.534 -61.8705 969.362 
196.152 -61.8885 969.628 
196.676 -61.8771 969.43 
197.277 -61.8897 969.611 
197.827 -61.8866 969.543 
198.457 -61.9082 969.865 
199.055 -61.92 970.031 
199.683 -61.9406 970.336 
200.214 -61.9313 970.173 
200.84 -61.9516 970.472 
201.386 -61.9469 970.381 
201.97 -61.9538 970.471 
202.55 -61.9599 970.548 
203.138 -61.968 970.657 
203.699 -61.968 970.638 
204.279 -61.9738 970.711 
204.92 -61.9977 971.067 
205.434 -61.9835 970.826 
206.032 -61.9945 970.98 
206.634 -62.0066 971.151 
207.237 -62.0191 971.329 
207.821 -62.0258 971.415 
208.378 -62.0244 971.375 
209.001 -62.0427 971.643 
209.539 -62.0356 971.513 
210.175 -62.0576 971.838 
210.759 -62.064 971.919 
211.355 -62.074 972.058 
211.94 -62.0806 972.142 
212.541 -62.092 972.302 
213.207 -62.1223 972.758 
213.7 -62.1019 972.42 
214.329 -62.1214 972.706 
214.929 -62.1321 972.854 
215.484 -62.1299 972.8 
216.106 -62.1471 973.051 
216.708 -62.1584 973.209 
217.248 -62.1518 973.086 
217.886 -62.1734 973.405 
218.433 -62.1687 973.312 
219.086 -62.1942 973.693 
219.783 -62.2323 974.269 
220.298 -62.2184 974.033 
220.896 -62.2281 974.166 
221.442 -62.2233 974.071 
222.073 -62.2421 974.346 
222.667 -62.2509 974.464 
223.232 -62.2511 974.447 
223.807 -62.2543 974.478 
224.423 -62.2689 974.687 
225.021 -62.2783 974.815 
225.604 -62.2835 974.877 
226.23 -62.3007 975.125 
226.777 -62.2959 975.031 
227.446 -62.3247 975.462 
228.011 -62.3248 975.444 
111.141 -60.8232 963.806 
111.757 -60.8559 964.314 
112.161 -60.7733 962.994 
112.551 -60.684 961.568 
112.979 -60.616 960.48 
113.474 -60.584 959.962 
113.961 -60.5488 959.393 
114.436 -60.5073 958.725 
114.858 -60.4379 957.615 
115.339 -60.4006 957.012 
115.81 -60.358 956.327 
116.272 -60.3115 955.578 
116.782 -60.2903 955.231 
117.264 -60.2547 954.656 
117.779 -60.2363 954.353 
118.266 -60.2041 953.832 
118.731 -60.1607 953.132 
119.263 -60.1518 952.98 
119.774 -60.1321 952.656 
120.274 -60.1071 952.249 
120.718 -60.0549 951.411 
121.265 -60.0539 951.383 
121.822 -60.0575 951.429 
122.374 -60.059 951.441 
122.886 -60.0407 951.14 
123.385 -60.0169 950.751 
123.9 -60.0002 950.474 
124.436 -59.9944 950.37 
124.966 -59.9853 950.214 
125.457 -59.9583 949.774 
125.936 -59.9252 949.238 
126.494 -59.9301 949.303 
127.049 -59.9333 949.343 
127.571 -59.921 949.135 
128.099 -59.9119 948.979 
128.678 -59.9266 949.2 
129.207 -59.9176 949.044 
129.722 -59.9028 948.798 
130.282 -59.9084 948.874 
130.868 -59.9256 949.135 
131.379 -59.9088 948.855 
131.913 -59.9027 948.746 
132.48 -59.9116 948.875 
133 -59.8993 948.667 
133.573 -59.9103 948.829 
134.109 -59.9051 948.734 
134.644 -59.8999 948.638 
135.245 -59.9232 948.995 
135.807 -59.9296 949.083 
136.325 -59.9164 948.862 
136.893 -59.9253 948.988 
137.478 -59.9414 949.231 
138.038 -59.9467 949.302 
138.623 -59.9626 949.542 
139.18 -59.9667 949.592 
139.734 -59.9691 949.617 
140.323 -59.9864 949.878 
140.949 -60.0196 950.39 
141.505 -60.0225 950.423 
142.085 -60.0361 950.624 
142.73 -60.0765 951.251 
143.302 -60.086 951.388 
143.88 -60.0979 951.562 
144.48 -60.119 951.883 
145.121 -60.1569 952.47 
145.794 -60.2076 953.258 
146.411 -60.2351 953.679 
147.038 -60.2667 954.166 
147.727 -60.323 955.044 
148.346 -60.3504 955.464 
148.96 -60.3757 955.851 
149.682 -60.4443 956.922 
150.322 -60.4796 957.467 
151.031 -60.5419 958.439 
151.791 -60.6246 959.734 
152.44 -60.6624 960.318 
153.173 -60.7331 961.423 
153.85 -60.781 962.167 
154.398 -60.7782 962.107 
155.008 -60.7996 962.431 
155.609 -60.8174 962.7 
156.189 -60.8266 962.83 
156.725 -60.8188 962.691 
157.276 -60.8171 962.65 
157.853 -60.8249 962.759 
158.387 -60.8166 962.613 
158.944 -60.8169 962.602 
159.591 -60.8519 963.141 
160.134 -60.8466 963.042 
160.687 -60.8456 963.012 
161.227 -60.8394 962.898 
161.843 -60.8618 963.238 
162.411 -60.8665 963.297 
162.953 -60.8611 963.197 
163.489 -60.8534 963.058 
164.107 -60.8762 963.404 
164.702 -60.8908 963.62 
165.211 -60.8732 963.326 
165.813 -60.8897 963.573 
166.413 -60.9059 963.813 
166.956 -60.9007 963.715 
167.502 -60.897 963.64 
168.058 -60.8967 963.621 
168.729 -60.9381 964.26 
169.289 -60.939 964.259 
169.803 -60.9236 963.999 
170.434 -60.9501 964.403 
170.951 -60.9358 964.16 
171.506 -60.9351 964.134 
172.089 -60.9444 964.266 
172.642 -60.9429 964.225 
173.26 -60.9644 964.549 
173.835 -60.9706 964.632 
174.414 -60.9781 964.733 
174.98 -60.981 964.764 
175.602 -61.0035 965.103 
176.146 -60.9991 965.018 
176.677 -60.9897 964.853 
177.299 -61.0121 965.191 
177.856 -61.0119 965.17 
178.436 -61.0196 965.276 
179.01 -61.0251 965.346 
179.51 -61.0052 965.016 
180.06 -61.0029 964.963 
180.665 -61.0188 965.198 
181.245 -61.0262 965.298 
182.023 -61.1003 966.453 
182.702 -61.1407 967.076 
183.382 -61.181 967.697 
183.955 -61.1856 967.752 
184.529 -61.1905 967.812 
185.067 -61.1835 967.685 
185.622 -61.1821 967.645 
186.244 -61.2028 967.956 
186.821 -61.2085 968.029 
187.406 -61.2168 968.143 
188.008 -61.2306 968.345 
188.517 -61.2145 968.072 
189.122 -61.2292 968.288 
189.704 -61.2364 968.385 
190.309 -61.2509 968.597 
190.889 -61.2574 968.682 
191.443 -61.2556 968.636 
191.989 -61.2512 968.548 
192.614 -61.2718 968.857 
193.206 -61.2819 968.999 
193.774 -61.2845 969.022 
194.404 -61.3066 969.355 
194.971 -61.3087 969.37 
195.518 -61.3045 969.286 
196.119 -61.3172 969.469 
196.669 -61.3141 969.402 
197.288 -61.3324 969.673 
197.857 -61.3349 969.695 
198.445 -61.3434 969.812 
199.097 -61.3714 970.237 
199.638 -61.3655 970.125 
200.169 -61.3563 969.962 
200.807 -61.3798 970.316 
201.354 -61.3757 970.233 
201.976 -61.3944 970.51 
202.578 -61.4067 970.686 
203.093 -61.3928 970.448 
203.677 -61.3997 970.539 
204.234 -61.3985 970.502 
204.874 -61.4222 970.858 
205.436 -61.4221 970.839 
205.987 -61.4191 970.772 
206.631 -61.4437 971.142 
207.234 -61.456 971.318 
207.785 -61.4529 971.251 
208.332 -61.4488 971.167 
208.956 -61.467 971.436 
209.508 -61.4642 971.374 
210.13 -61.4817 971.632 
210.718 -61.4894 971.735 
211.309 -61.498 971.852 
211.894 -61.5046 971.936 
212.495 -61.5159 972.096 
213.101 -61.5285 972.277 
213.653 -61.5257 972.215 
214.281 -61.5446 972.494 
214.882 -61.5557 972.65 
215.443 -61.5552 972.623 
216.026 -61.5611 972.698 
216.591 -61.5617 972.688 
217.158 -61.5631 972.69 
217.789 -61.5823 972.975 
218.348 -61.5813 972.94 
219.039 -61.6173 973.49 
219.661 -61.6339 973.733 
220.248 -61.6407 973.821 
220.803 -61.6383 973.762 
221.363 -61.6373 973.728 
222.004 -61.659 974.052 
222.55 -61.6543 973.958 
223.105 -61.652 973.901 
223.756 -61.676 974.262 
224.352 -61.6848 974.381 
224.912 -61.6838 974.346 
225.539 -61.7013 974.602 
226.149 -61.7139 974.781 
226.712 -61.7136 974.756 
227.209 -61.6954 974.45 
227.888 -61.7268 974.925 
111.111 -60.2506 963.553 
111.727 -60.2831 964.061 
112.131 -60.2012 962.742 
112.526 -60.1156 961.361 
112.953 -60.0472 960.258 
113.452 -60.0182 959.782 
113.956 -59.9919 959.352 
114.432 -59.9514 958.692 
114.838 -59.8751 957.46 
115.318 -59.8371 956.842 
115.797 -59.7997 956.233 
116.267 -59.7576 955.55 
116.772 -59.7336 955.154 
117.247 -59.6951 954.527 
117.799 -59.6958 954.527 
118.269 -59.6545 953.856 
118.733 -59.6113 953.153 
119.293 -59.6166 953.226 
119.755 -59.5727 952.513 
120.286 -59.5633 952.351 
120.743 -59.5176 951.609 
121.269 -59.5062 951.416 
121.803 -59.4991 951.289 
122.347 -59.4966 951.238 
122.854 -59.476 950.898 
123.41 -59.4799 950.948 
123.907 -59.455 950.538 
124.414 -59.4351 950.207 
124.939 -59.4239 950.017 
125.476 -59.4184 949.917 
125.986 -59.4005 949.619 
126.5 -59.3847 949.354 
127.045 -59.3831 949.317 
127.578 -59.3764 949.197 
128.129 -59.3779 949.21 
128.656 -59.3682 949.041 
129.188 -59.3611 948.916 
129.708 -59.3483 948.698 
130.273 -59.3561 948.811 
130.874 -59.3803 949.186 
131.361 -59.3526 948.731 
131.885 -59.3421 948.55 
132.452 -59.3511 948.682 
132.973 -59.3391 948.477 
133.545 -59.35 948.639 
134.117 -59.3609 948.799 
134.649 -59.3537 948.672 
135.245 -59.3753 949.005 
135.78 -59.3696 948.9 
136.342 -59.376 948.989 
136.897 -59.379 949.024 
137.466 -59.3882 949.159 
138.032 -59.3958 949.267 
138.636 -59.42 949.641 
139.218 -59.4341 949.854 
139.773 -59.437 949.885 
140.298 -59.4271 949.715 
140.937 -59.4655 950.315 
141.525 -59.482 950.565 
142.115 -59.4992 950.826 
142.728 -59.526 951.241 
143.312 -59.5405 951.459 
143.912 -59.5614 951.78 
144.577 -59.609 952.527 
145.125 -59.6084 952.504 
145.787 -59.6542 953.221 
146.4 -59.6797 953.615 
147.029 -59.7114 954.108 
147.713 -59.7653 954.954 
148.311 -59.7841 955.242 
149.098 -59.8786 956.738 
149.747 -59.9173 957.342 
150.401 -59.9579 957.976 
151.183 -60.0485 959.41 
151.867 -60.1002 960.221 
152.467 -60.118 960.491 
153.14 -60.1644 961.218 
153.827 -60.2161 962.029 
154.414 -60.2285 962.214 
154.994 -60.2379 962.349 
155.608 -60.2607 962.699 
156.192 -60.2713 962.853 
156.759 -60.2758 962.91 
157.291 -60.2663 962.743 
157.856 -60.2699 962.786 
158.389 -60.261 962.63 
158.977 -60.2733 962.812 
159.582 -60.2919 963.094 
160.126 -60.2871 963.002 
160.701 -60.2942 963.101 
161.334 -60.323 963.545 
161.86 -60.3117 963.349 
162.387 -60.3006 963.157 
162.951 -60.3034 963.187 
163.553 -60.3202 963.44 
164.176 -60.3449 963.819 
164.684 -60.327 963.517 
165.258 -60.3334 963.604 
165.829 -60.3386 963.672 
166.412 -60.3482 963.809 
166.985 -60.354 963.886 
167.556 -60.3591 963.953 
168.072 -60.3444 963.703 
168.7 -60.3702 964.098 
169.259 -60.3708 964.091 
169.804 -60.3665 964.008 
170.408 -60.3835 964.263 
170.954 -60.3794 964.181 
171.517 -60.3816 964.202 
172.121 -60.3979 964.446 
172.652 -60.3891 964.288 
173.227 -60.3951 964.369 
173.802 -60.4015 964.455 
174.374 -60.4066 964.521 
174.965 -60.4184 964.692 
175.592 -60.4424 965.059 
176.152 -60.443 965.053 
176.704 -60.4412 965.008 
177.261 -60.4409 964.986 
177.82 -60.4416 964.981 
178.45 -60.466 965.355 
178.98 -60.4567 965.189 
179.494 -60.4421 964.94 
180.087 -60.454 965.112 
180.651 -60.4561 965.13 
181.257 -60.4722 965.37 
182.047 -60.5493 966.584 
182.686 -60.576 966.994 
183.355 -60.6124 967.558 
183.912 -60.6119 967.534 
184.5 -60.6215 967.669 
185.051 -60.6187 967.607 
185.675 -60.64 967.93 
186.232 -60.6392 967.901 
186.806 -60.6437 967.957 
187.373 -60.6462 967.979 
187.966 -60.6573 968.138 
188.51 -60.6522 968.04 
189.142 -60.6754 968.393 
189.701 -60.6752 968.372 
190.266 -60.6769 968.382 
190.848 -60.6842 968.482 
191.413 -60.6856 968.487 
191.966 -60.6835 968.436 
192.597 -60.706 968.777 
193.173 -60.711 968.84 
193.751 -60.7169 968.916 
194.365 -60.7337 969.166 
194.931 -60.7355 969.177 
195.498 -60.7377 969.194 
196.078 -60.7438 969.274 
196.662 -60.7512 969.374 
197.244 -60.7579 969.463 
197.863 -60.7758 969.731 
198.435 -60.7793 969.769 
199.052 -60.7965 970.025 
199.606 -60.7943 969.973 
200.133 -60.7841 969.792 
200.769 -60.8071 970.14 
201.333 -60.8081 970.138 
201.934 -60.8202 970.313 
202.533 -60.8316 970.478 
203.094 -60.8315 970.457 
203.643 -60.828 970.383 
204.238 -60.8379 970.523 
204.85 -60.8533 970.75 
205.441 -60.8619 970.87 
206.031 -60.8703 970.984 
206.642 -60.885 971.2 
207.217 -60.889 971.246 
207.767 -60.8856 971.172 
208.344 -60.8903 971.229 
208.963 -60.9068 971.473 
209.479 -60.8935 971.243 
210.084 -60.9061 971.425 
210.672 -60.9138 971.529 
211.292 -60.9305 971.778 
211.848 -60.9288 971.731 
212.449 -60.94 971.891 
213.055 -60.9526 972.072 
213.607 -60.9498 972.01 
214.235 -60.9685 972.289 
214.836 -60.9795 972.445 
215.397 -60.9791 972.419 
215.976 -60.9838 972.476 
216.544 -60.9855 972.484 
217.112 -60.9869 972.487 
217.742 -61.006 972.772 
218.301 -61.005 972.737 
218.948 -61.0284 973.091 
219.531 -61.034 973.161 
220.197 -61.0626 973.597 
220.752 -61.0603 973.542 
221.316 -61.0606 973.526 
221.91 -61.0691 973.643 
222.471 -61.0686 973.616 
223.04 -61.0701 973.619 
223.709 -61.099 974.061 
224.224 -61.0859 973.832 
224.831 -61.0977 974.002 
225.475 -61.1195 974.329 
226.092 -61.134 974.54 
226.621 -61.1247 974.372 
227.141 -61.113 974.165 
227.816 -61.143 974.624 
111.705 -59.7145 963.873 
112.121 -59.64 962.66 
112.537 -59.566 961.454 
112.943 -59.4881 960.186 
113.478 -59.4778 960.01 
113.929 -59.4241 959.132 
114.423 -59.3934 958.625 
114.877 -59.3421 957.787 
115.293 -59.2719 956.641 
115.768 -59.2328 955.999 
116.278 -59.2111 955.639 
116.749 -59.1706 954.974 
117.228 -59.134 954.372 
117.772 -59.1308 954.309 
118.238 -59.0886 953.616 
118.725 -59.0571 953.096 
119.297 -59.0681 953.262 
119.768 -59.0289 952.619 
120.257 -58.9991 952.126 
120.759 -58.9763 951.746 
121.271 -58.958 951.44 
121.771 -58.9344 951.047 
122.31 -58.9295 950.957 
122.806 -58.9042 950.536 
123.378 -58.9154 950.706 
123.875 -58.8908 950.297 
124.385 -58.8727 949.994 
124.954 -58.8822 950.134 
125.464 -58.8645 949.837 
125.971 -58.8454 949.515 
126.508 -58.8401 949.419 
127.054 -58.8389 949.387 
127.574 -58.8261 949.169 
128.109 -58.8204 949.065 
128.655 -58.8197 949.041 
129.173 -58.8062 948.811 
129.716 -58.804 948.763 
130.291 -58.8162 948.948 
130.841 -58.8175 948.955 
131.328 -58.7901 948.501 
131.88 -58.7922 948.522 
132.446 -58.8002 948.638 
132.961 -58.7859 948.396 
133.523 -58.7925 948.49 
134.086 -58.7993 948.587 
134.654 -58.8082 948.718 
135.22 -58.8162 948.834 
135.77 -58.817 948.834 
136.349 -58.8309 949.044 
136.874 -58.8207 948.867 
137.455 -58.8349 949.083 
138.007 -58.837 949.104 
138.618 -58.8635 949.519 
139.199 -58.8773 949.728 
139.753 -58.8799 949.756 
140.332 -58.8928 949.952 
140.931 -58.9141 950.281 
141.511 -58.927 950.476 
142.103 -58.9451 950.754 
142.718 -58.9722 951.179 
143.281 -58.9779 951.256 
143.919 -59.0146 951.834 
144.556 -59.0504 952.398 
145.193 -59.0855 952.951 
145.757 -59.0912 953.029 
146.405 -59.1309 953.656 
147.04 -59.1646 954.186 
147.688 -59.2037 954.801 
148.304 -59.2296 955.205 
149.098 -59.3261 956.748 
149.731 -59.3578 957.244 
150.417 -59.4106 958.082 
151.145 -59.4795 959.179 
151.892 -59.5551 960.384 
152.551 -59.5959 961.027 
153.184 -59.6264 961.504 
153.808 -59.6531 961.921 
154.383 -59.6607 962.028 
155.069 -59.7108 962.823 
155.661 -59.7245 963.028 
156.232 -59.7304 963.108 
156.763 -59.7206 962.936 
157.296 -59.712 962.782 
157.855 -59.7131 962.786 
158.425 -59.7185 962.857 
159.023 -59.7341 963.095 
159.595 -59.74 963.174 
160.148 -59.7389 963.142 
160.732 -59.7492 963.293 
161.308 -59.7564 963.395 
161.916 -59.7754 963.685 
162.421 -59.7566 963.367 
162.984 -59.7591 963.392 
163.56 -59.7661 963.49 
164.154 -59.7796 963.692 
164.738 -59.7897 963.839 
165.297 -59.7905 963.837 
165.881 -59.8005 963.982 
166.407 -59.7894 963.788 
167.016 -59.8082 964.075 
167.526 -59.7913 963.786 
168.092 -59.7947 963.826 
168.715 -59.8181 964.188 
169.237 -59.8057 963.972 
169.858 -59.8284 964.322 
170.432 -59.8344 964.403 
170.95 -59.8206 964.165 
171.564 -59.8407 964.473 
172.174 -59.8589 964.75 
172.668 -59.8372 964.384 
173.233 -59.8397 964.409 
173.854 -59.8616 964.746 
174.388 -59.8537 964.603 
174.993 -59.8702 964.852 
175.612 -59.891 965.171 
176.114 -59.8723 964.853 
176.748 -59.898 965.251 
177.267 -59.8849 965.024 
177.84 -59.8904 965.095 
178.412 -59.895 965.153 
178.955 -59.8903 965.061 
179.516 -59.8913 965.061 
180.072 -59.8907 965.035 
180.621 -59.8879 964.973 
181.293 -59.9257 965.565 
182.069 -59.9977 966.709 
182.696 -60.02 967.051 
183.312 -60.039 967.34 
183.87 -60.0385 967.316 
184.505 -60.0633 967.698 
185.083 -60.0696 967.782 
185.64 -60.0686 967.749 
186.25 -60.0851 967.998 
186.791 -60.0793 967.887 
187.333 -60.0737 967.78 
187.986 -60.1035 968.244 
188.54 -60.1019 968.2 
189.124 -60.1096 968.307 
189.719 -60.1209 968.472 
190.223 -60.1033 968.171 
190.821 -60.1152 968.345 
191.451 -60.1376 968.688 
191.957 -60.1207 968.399 
192.566 -60.136 968.627 
193.143 -60.1414 968.697 
193.711 -60.144 968.722 
194.339 -60.1651 969.043 
194.908 -60.1679 969.07 
195.462 -60.1657 969.018 
196.079 -60.1833 969.284 
196.618 -60.1768 969.162 
197.223 -60.1905 969.364 
197.829 -60.2044 969.569 
198.42 -60.2135 969.699 
199.05 -60.2347 970.021 
199.634 -60.2415 970.114 
200.186 -60.2389 970.054 
200.732 -60.2345 969.964 
201.331 -60.2462 970.134 
201.903 -60.2494 970.168 
202.502 -60.2607 970.331 
203.066 -60.2616 970.327 
203.656 -60.2703 970.449 
204.266 -60.2848 970.665 
204.807 -60.2786 970.547 
205.399 -60.2877 970.675 
206.011 -60.3027 970.897 
206.6 -60.3108 971.009 
207.175 -60.3147 971.054 
207.776 -60.3263 971.221 
208.309 -60.3178 971.067 
208.926 -60.3339 971.307 
209.46 -60.3261 971.162 
210.08 -60.343 971.416 
210.626 -60.3384 971.323 
211.258 -60.3583 971.626 
211.811 -60.3558 971.565 
212.483 -60.3873 972.053 
213.008 -60.3768 971.867 
213.569 -60.3764 971.841 
214.189 -60.3927 972.084 
214.809 -60.409 972.328 
215.379 -60.4112 972.344 
215.93 -60.4079 972.272 
216.498 -60.4096 972.28 
217.065 -60.411 972.284 
217.696 -60.4299 972.568 
218.255 -60.429 972.534 
218.884 -60.4473 972.81 
219.484 -60.4577 972.959 
220.115 -60.4764 973.239 
220.677 -60.4763 973.218 
221.276 -60.4861 973.357 
221.848 -60.4886 973.378 
222.424 -60.4921 973.415 
222.992 -60.4935 973.418 
223.649 -60.5188 973.805 
224.177 -60.5092 973.632 
224.783 -60.521 973.802 
225.427 -60.5426 974.129 
226.022 -60.5509 974.244 
226.569 -60.5466 974.155 
227.074 -60.531 973.883 
227.712 -60.5507 974.181 
111.225 -59.1987 964.551 
111.709 -59.1602 963.914 
112.093 -59.0697 962.427 
112.506 -58.9951 961.202 
112.955 -58.9398 960.291 
113.448 -58.9079 959.76 
113.895 -58.8529 958.852 
114.391 -58.8232 958.359 
114.834 -58.767 957.432 
115.265 -58.7056 956.419 
115.761 -58.6768 955.939 
116.311 -58.6761 955.916 
116.789 -58.6392 955.304 
117.25 -58.5941 954.559 
117.768 -58.5778 954.282 
118.243 -58.5405 953.662 
118.712 -58.5003 952.996 
119.276 -58.5073 953.099 
119.739 -58.4646 952.392 
120.241 -58.4417 952.007 
120.756 -58.4248 951.721 
121.272 -58.4089 951.45 
121.822 -58.4094 951.447 
122.283 -58.3676 950.753 
122.79 -58.3474 950.414 
123.356 -58.3562 950.544 
123.86 -58.3351 950.19 
124.388 -58.3255 950.021 
124.921 -58.3184 949.893 
125.436 -58.3027 949.626 
125.963 -58.293 949.455 
126.495 -58.2856 949.322 
127.051 -58.2893 949.37 
127.575 -58.2786 949.184 
128.091 -58.2639 948.933 
128.642 -58.2656 948.949 
129.165 -58.2545 948.755 
129.715 -58.2555 948.759 
130.258 -58.2536 948.715 
130.81 -58.2556 948.735 
131.322 -58.2396 948.463 
131.879 -58.2439 948.521 
132.449 -58.254 948.673 
133.004 -58.2572 948.711 
133.521 -58.2436 948.478 
134.078 -58.2479 948.535 
134.662 -58.2638 948.78 
135.21 -58.2638 948.767 
135.763 -58.266 948.791 
136.353 -58.2841 949.073 
136.933 -58.2979 949.285 
137.474 -58.295 949.224 
138.014 -58.2916 949.155 
138.631 -58.3206 949.615 
139.199 -58.3288 949.734 
139.786 -58.345 949.986 
140.326 -58.3418 949.92 
140.947 -58.3718 950.395 
141.485 -58.3672 950.307 
142.151 -58.4157 951.083 
142.737 -58.4308 951.315 
143.283 -58.4293 951.277 
143.896 -58.4553 951.686 
144.524 -58.4872 952.193 
145.208 -58.5411 953.057 
145.835 -58.5722 953.548 
146.471 -58.6062 954.089 
147.024 -58.6072 954.091 
147.702 -58.6577 954.899 
148.363 -58.7011 955.592 
149.062 -58.7588 956.517 
149.698 -58.7919 957.041 
150.456 -58.8722 958.334 
151.158 -58.9301 959.263 
151.891 -58.9999 960.384 
152.57 -59.0479 961.151 
153.198 -59.0759 961.594 
153.795 -59.0921 961.843 
154.389 -59.1071 962.072 
155.088 -59.1618 962.947 
155.706 -59.185 963.311 
156.228 -59.1722 963.087 
156.763 -59.1642 962.943 
157.382 -59.1881 963.316 
157.88 -59.1661 962.943 
158.444 -59.169 962.976 
159.071 -59.1954 963.39 
159.618 -59.1918 963.318 
160.173 -59.1916 963.299 
160.775 -59.2084 963.557 
161.315 -59.2024 963.444 
161.886 -59.2075 963.512 
162.497 -59.2275 963.822 
162.977 -59.1994 963.351 
163.548 -59.205 963.425 
164.142 -59.2184 963.629 
164.736 -59.2318 963.831 
165.345 -59.2506 964.121 
165.854 -59.2336 963.829 
166.447 -59.2464 964.023 
167.018 -59.2515 964.09 
167.564 -59.2476 964.01 
168.13 -59.251 964.05 
168.728 -59.2655 964.27 
169.286 -59.2659 964.261 
169.89 -59.2821 964.509 
170.466 -59.2886 964.599 
170.994 -59.2786 964.421 
171.554 -59.2795 964.42 
172.161 -59.2967 964.684 
172.693 -59.2881 964.527 
173.327 -59.3142 964.936 
173.861 -59.3064 964.792 
174.437 -59.3127 964.879 
175.032 -59.3256 965.073 
175.596 -59.3275 965.088 
176.165 -59.3316 965.138 
176.729 -59.3338 965.156 
177.256 -59.3235 964.972 
177.867 -59.3414 965.248 
178.416 -59.3385 965.184 
179.012 -59.3511 965.373 
179.482 -59.322 964.882 
180.035 -59.3208 964.846 
180.655 -59.3411 965.159 
181.402 -59.4031 966.152 
182.142 -59.4625 967.102 
182.672 -59.4532 966.933 
183.278 -59.4685 967.165 
183.833 -59.4672 967.127 
184.472 -59.4932 967.533 
185.058 -59.5016 967.652 
185.699 -59.528 968.065 
186.241 -59.5224 967.957 
186.789 -59.5187 967.879 
187.414 -59.5397 968.203 
187.944 -59.5303 968.033 
188.526 -59.5376 968.135 
189.129 -59.5512 968.339 
189.706 -59.5565 968.408 
190.272 -59.5584 968.422 
190.804 -59.55 968.268 
191.431 -59.5711 968.593 
191.991 -59.5711 968.576 
192.561 -59.5743 968.61 
193.157 -59.5855 968.774 
193.744 -59.5937 968.891 
194.319 -59.5981 968.945 
194.892 -59.6023 968.995 
195.43 -59.5954 968.865 
196.04 -59.6107 969.096 
196.586 -59.6064 969.009 
197.218 -59.6282 969.344 
197.818 -59.6401 969.521 
198.38 -59.6406 969.511 
199.026 -59.6664 969.912 
199.605 -59.6716 969.978 
200.164 -59.6712 969.954 
200.728 -59.6723 969.953 
201.314 -59.6796 970.054 
201.884 -59.6824 970.081 
202.466 -59.6887 970.166 
203.034 -59.6909 970.183 
203.611 -59.6956 970.242 
204.236 -59.7142 970.525 
204.821 -59.7213 970.622 
205.375 -59.719 970.567 
205.975 -59.7304 970.734 
206.566 -59.7389 970.853 
207.148 -59.7451 970.934 
207.735 -59.7524 971.034 
208.315 -59.7576 971.1 
208.887 -59.7607 971.133 
209.444 -59.7595 971.094 
210.062 -59.7756 971.337 
210.64 -59.7801 971.391 
211.238 -59.7905 971.541 
211.824 -59.7974 971.634 
212.448 -59.8147 971.897 
212.995 -59.8106 971.812 
213.584 -59.8182 971.916 
214.172 -59.8254 972.015 
214.765 -59.834 972.135 
215.361 -59.8435 972.269 
215.887 -59.8333 972.086 
216.502 -59.8479 972.303 
217.107 -59.8597 972.476 
217.666 -59.8588 972.443 
218.25 -59.8646 972.517 
218.837 -59.8714 972.608 
219.437 -59.8817 972.756 
220.068 -59.9002 973.037 
220.63 -59.9001 973.016 
221.24 -59.9129 973.205 
221.801 -59.9123 973.177 
222.393 -59.92 973.282 
222.964 -59.9223 973.299 
223.597 -59.9412 973.586 
224.139 -59.9354 973.473 
224.736 -59.9445 973.602 
225.298 -59.9442 973.576 
225.925 -59.9611 973.831 
226.498 -59.9636 973.852 
226.999 -59.9473 973.568 
227.521 -59.9364 973.371 
111.679 -58.5881 963.661 
112.109 -58.5222 962.567 
112.502 -58.4381 961.173 
112.93 -58.3726 960.084 
113.417 -58.3383 959.509 
113.84 -58.2714 958.399 
114.34 -58.2445 957.944 
114.803 -58.1988 957.183 
115.284 -58.1628 956.58 
115.817 -58.1531 956.408 
116.28 -58.1088 955.669 
116.761 -58.074 955.085 
117.261 -58.0485 954.655 
117.758 -58.0218 954.204 
118.215 -57.9758 953.437 
118.704 -57.946 952.936 
119.269 -57.9537 953.05 
119.749 -57.9199 952.483 
120.224 -57.8839 951.88 
120.73 -57.863 951.524 
121.262 -57.8548 951.378 
121.792 -57.8458 951.218 
122.318 -57.8353 951.033 
122.807 -57.8068 950.554 
123.336 -57.7979 950.396 
123.848 -57.7806 950.099 
124.364 -57.7659 949.844 
124.911 -57.7654 949.824 
125.444 -57.758 949.691 
126.004 -57.7638 949.776 
126.518 -57.7483 949.507 
127.018 -57.7263 949.134 
127.552 -57.7201 949.02 
128.077 -57.7099 948.841 
128.638 -57.7159 948.927 
129.171 -57.7094 948.807 
129.688 -57.6956 948.567 
130.245 -57.6997 948.623 
130.789 -57.6984 948.589 
131.349 -57.7036 948.662 
131.921 -57.7147 948.831 
132.419 -57.693 948.463 
132.989 -57.7027 948.609 
133.551 -57.7089 948.698 
134.093 -57.7064 948.645 
134.671 -57.7196 948.849 
135.197 -57.7101 948.679 
135.752 -57.7133 948.72 
136.331 -57.7269 948.929 
136.919 -57.7436 949.192 
137.465 -57.7428 949.165 
138.019 -57.7452 949.191 
138.606 -57.7615 949.446 
139.197 -57.7796 949.731 
139.808 -57.8055 950.143 
140.308 -57.7855 949.802 
140.952 -57.8246 950.43 
141.503 -57.8258 950.437 
142.123 -57.8546 950.897 
142.718 -57.8732 951.188 
143.298 -57.8857 951.38 
143.882 -57.8998 951.599 
144.589 -57.963 952.623 
145.189 -57.9831 952.94 
145.809 -58.0106 953.378 
146.439 -58.0423 953.885 
147.052 -58.0668 954.275 
