# .PCD v0.7 - Point Cloud Data file format
VERSION 0.7
FIELDS x y z normal_x normal_y normal_z curvature
SIZE 4 4 4 4 4 4 4
TYPE F F F F F F F
COUNT 1 1 1 1 1 1 1
WIDTH 665
HEIGHT 1
VIEWPOINT 0 0 0 1 0 0 0
POINTS 665
DATA ascii
131.88499 -59.342098 948.54999 -0.053203724 -0.095445536 -0.99401182 0
132.452 -59.351101 948.68201 -0.030763671 -0.088183708 -0.99562907 0.047744773
133.545 -59.349998 948.63898 0.057109836 -0.084933825 -0.99474859 0.073732957
134.117 -59.360901 948.79901 0.077964745 -0.066385359 -0.99474347 0
134.649 -59.353699 948.672 0.098266073 -0.047109809 -0.99404448 0
135.78 -59.369598 948.90002 0.18286879 -0.062008698 -0.98117989 0.071403265
136.342 -59.375999 948.98901 0.15786895 -0.027323376 -0.987082 0
129.173 -58.806198 948.81097 -0.11671222 -0.097452067 -0.9883731 0.089814767
129.716 -58.804001 948.763 -0.10861693 -0.070589386 -0.99157429 0
130.291 -58.8162 948.948 -0.079405591 -0.078865193 -0.99371779 0
130.841 -58.817501 948.95502 -0.053285934 -0.10544875 -0.9929961 0.08205872
131.328 -58.7901 948.50098 -0.068438083 -0.086974032 -0.99385703 0.021380935
131.88 -58.792198 948.52197 -0.058427557 -0.078615166 -0.9951914 0
132.446 -58.800201 948.638 -0.027457181 -0.06972374 -0.99718839 0
134.086 -58.799301 948.58698 0.1229526 -0.098454706 -0.98751676 0.11194734
134.65401 -58.808201 948.71802 0.13638818 -0.056866992 -0.98902196 0.041960623
135.22 -58.8162 948.83398 0.20907493 -0.061979979 -0.97593349 0.12676507
135.77 -58.817001 948.83398 0.15750927 -0.040849052 -0.98667228 0.015202306
136.87399 -58.820702 948.867 0.20021074 -0.031905726 -0.97923326 0
128.091 -58.263901 948.93298 -0.20216188 -0.08066538 -0.97602445 0.04609327
128.642 -58.265598 948.94897 -0.1400103 -0.077722728 -0.98709488 0.014763973
129.16499 -58.254501 948.755 -0.11507135 -0.077967867 -0.99029267 0.01746776
129.715 -58.255501 948.75897 -0.11762566 -0.089801461 -0.98898935 0.042116288
130.258 -58.253601 948.71503 -0.098118611 -0.077681042 -0.99213833 0
130.81 -58.2556 948.73499 -0.071996674 -0.084432662 -0.99382472 0.0074116751
131.879 -58.2439 948.521 -0.043665651 -0.069988869 -0.99659163 0
132.44901 -58.254002 948.67297 -0.034554034 -0.059046786 -0.997657 0
133.004 -58.257198 948.711 0.0021203461 -0.11074264 -0.99384689 0.092383139
134.078 -58.247898 948.53497 0.084555499 -0.059536796 -0.9946385 0
134.662 -58.263802 948.78003 0.13249327 -0.057036348 -0.98954153 0.029982129
135.21001 -58.263802 948.76703 0.15062812 -0.053369939 -0.98714888 0.00085545337
135.763 -58.265999 948.79102 0.13501027 -0.033593789 -0.99027455 0.0046086647
128.077 -57.7099 948.841 -0.18916395 -0.07256414 -0.97926068 0
128.638 -57.7159 948.927 -0.14905322 -0.081603415 -0.98545629 0
129.17101 -57.7094 948.80701 -0.12865739 -0.07230369 -0.98904979 0.0027205711
129.688 -57.695599 948.56702 -0.086883195 -0.089762129 -0.99216634 0.045825884
130.245 -57.699699 948.62299 -0.082702577 -0.07680995 -0.99360991 0.0465516
130.789 -57.698399 948.58899 -0.058899533 -0.073791906 -0.99553281 0
131.349 -57.703602 948.66199 -0.044994902 -0.063911267 -0.99694073 0
131.92101 -57.714699 948.83099 -0.022949446 -0.081379354 -0.99641895 0.035697389
132.989 -57.702702 948.60901 -0.023939557 -0.063189767 -0.9977144 0
133.55099 -57.7089 948.698 0.027756106 -0.06440489 -0.99753779 0
134.093 -57.706402 948.64502 0.093064934 -0.059699625 -0.99386871 0.0074431859
134.67101 -57.719601 948.849 0.13304926 -0.062237855 -0.98915339 0.029825259
135.19701 -57.710098 948.67902 0.2066405 -0.084354892 -0.97477382 0.12664892
135.752 -57.713299 948.71997 0.16695286 -0.045529433 -0.98491311 0.053538889
136.33099 -57.726898 948.92902 0.22782263 -0.055079594 -0.97214359 0.08164537
128.061 -57.1548 948.72699 -0.22490476 -0.11968936 -0.96700168 0.11341964
129.146 -57.150002 948.62299 -0.11138062 -0.078088976 -0.99070507 0.01782701
130.26401 -57.160099 948.76599 -0.10821401 -0.062815011 -0.99214113 0.0057978095
130.81599 -57.162399 948.79102 -0.044975001 -0.060532715 -0.99715251 0
131.34801 -57.1553 948.65997 -0.037942007 -0.050521437 -0.99800205 0
131.908 -57.160702 948.73798 -0.030809555 -0.059566703 -0.99774879 0.01128087
133.52299 -57.149101 948.508 0.041034285 -0.052506655 -0.99777716 0
134.08299 -57.154499 948.58398 0.098721012 -0.052564073 -0.99372596 0.033717338
134.646 -57.160999 948.67999 0.14625628 -0.06466905 -0.9871307 0.089586288
135.216 -57.1702 948.81897 0.19878219 -0.060642451 -0.97816575 0.082190156
135.72701 -57.155102 948.55499 0.1939801 -0.057214417 -0.97933567 0.097911425
128.049 -56.6017 948.64502 -0.1933081 -0.090286151 -0.97697514 0.033123378
128.631 -56.616699 948.88397 -0.16714498 -0.12019309 -0.97857869 0.15181607
129.173 -56.614101 948.82898 -0.10969372 -0.097116828 -0.98920965 0.11381456
129.71201 -56.610401 948.75299 -0.090178058 -0.060093127 -0.994111 0.034561593
130.272 -56.6161 948.836 -0.10673693 -0.057121478 -0.99264514 0
130.795 -56.605202 948.64203 -0.078848161 -0.050624315 -0.9956004 0
131.342 -56.6049 948.62402 -0.055060241 -0.050583553 -0.99720097 0
131.88499 -56.602798 948.57703 -0.056333423 -0.057493489 -0.9967553 0.061931614
133.53999 -56.6082 948.62903 0.07582435 -0.061337557 -0.99523282 0.083384164
134.629 -56.605801 948.56299 0.13195461 -0.063780852 -0.98920172 0.016367557
135.188 -56.610401 948.62598 0.18354191 -0.067537084 -0.98068917 0.035145137
135.77499 -56.627102 948.89398 0.17614555 -0.05585378 -0.98277825 0.009879875
137.43401 -56.633301 948.95898 0.24080837 -0.022840194 -0.97030395 0
126.993 -56.070801 948.96198 -0.29920095 -0.095682591 -0.9493807 0.034144234
127.534 -56.067799 948.89801 -0.26639464 -0.11184663 -0.95735276 0.053641386
128.06799 -56.062199 948.79102 -0.19854906 -0.076127172 -0.97713 0
128.63 -56.068298 948.88202 -0.1266052 -0.066573456 -0.98971671 0
129.162 -56.061699 948.758 -0.089636669 -0.065511815 -0.99381769 0
129.686 -56.051498 948.573 -0.067541048 -0.062414385 -0.99576235 0.022736795
130.239 -56.053799 948.599 -0.065004639 -0.049589437 -0.99665207 0.023365296
130.77499 -56.048698 948.50098 -0.061573219 -0.037295535 -0.99740559 0
131.88699 -56.056198 948.60199 -0.050539691 -0.04088828 -0.99788475 0
132.981 -56.055599 948.56598 0.019350888 -0.060061753 -0.99800712 0
136.88 -56.082901 948.93799 0.25379866 -0.031716533 -0.96673697 0.0097726723
126.984 -55.5191 948.90399 -0.29413107 -0.12055079 -0.94813204 0.046879802
127.538 -55.521599 948.93402 -0.2432999 -0.096838601 -0.96510488 0.048250433
128.06599 -55.513302 948.77899 -0.17624085 -0.077495575 -0.98129183 0.03604443
128.604 -55.508999 948.69397 -0.13696872 -0.07514783 -0.98772085 0.053834725
129.16 -55.512501 948.742 -0.095514931 -0.065034315 -0.99330127 0.045922261
130.245 -55.5084 948.646 -0.039457727 -0.051403228 -0.99789822 0.096314795
130.783 -55.504299 948.56403 -0.061895147 -0.040558923 -0.99725825 0
131.341 -55.5089 948.62903 -0.068815514 -0.038905676 -0.99687052 0
131.89 -55.5093 948.625 -0.049065329 -0.046718411 -0.99770236 0.011153738
132.972 -55.5042 948.51099 0.00014615062 -0.048438493 -0.99882621 0
135.769 -55.5284 948.862 0.19528367 -0.063721873 -0.97867459 0
136.33 -55.533699 948.93903 0.30723768 -0.087292716 -0.94762075 0.092958212
136.882 -55.5354 948.95502 0.2627078 -0.056762803 -0.96320438 0.021382235
137.43201 -55.536499 948.96002 0.27862695 -0.052774664 -0.95894825 0.029876027
126.991 -54.974201 948.96198 -0.25000724 -0.084427767 -0.96455604 0
127.511 -54.962101 948.73999 -0.18936704 -0.067353189 -0.97959363 0
128.047 -54.957298 948.646 -0.18152395 -0.075385243 -0.98049283 0.085759588
129.147 -54.959099 948.65198 -0.092790902 -0.040520504 -0.99486083 0
129.683 -54.954399 948.55902 -0.051473357 -0.038868818 -0.99791771 0
130.255 -54.965 948.72803 -0.055879313 -0.032887328 -0.99789578 0
130.791 -54.9599 948.62701 -0.073613249 -0.02941601 -0.99685299 0.010401677
132.97 -54.955399 948.5 0.00738625 -0.042934444 -0.99905062 0.012515102
135.17101 -54.959999 948.52802 0.14739181 -0.06189635 -0.98713958 0
135.748 -54.972 948.72101 0.17237099 -0.064230703 -0.98293573 0
136.33099 -54.986301 948.95599 0.28465706 -0.078949511 -0.95537287 0.074063152
126.974 -54.4188 948.83801 -0.23216924 -0.076010965 -0.96970087 0
127.489 -54.4048 948.58099 -0.19961195 -0.08068414 -0.9765476 0.060213152
128.049 -54.410198 948.66199 -0.21865235 -0.082060583 -0.97234625 0.12436999
129.14999 -54.412498 948.67902 -0.10322461 -0.042163305 -0.99376404 0
129.69701 -54.4123 948.66199 -0.054130606 -0.037422907 -0.99783236 0.024450423
130.235 -54.408699 948.586 -0.056309603 -0.030092195 -0.99795979 0.062540881
131.325 -54.406502 948.52399 -0.075265221 -0.013541965 -0.99707162 0
131.875 -54.407501 948.52802 -0.061283585 -0.027883258 -0.99773091 0.096696459
132.97 -54.407501 948.50299 -0.0079325363 -0.035861745 -0.99932528 0.075219825
134.633 -54.416 948.612 0.10851205 -0.038643233 -0.99334383 0
135.175 -54.413601 948.55902 0.14390005 -0.041831084 -0.98870778 0
135.73801 -54.419899 948.65601 0.20340429 -0.052856546 -0.97766709 0
136.302 -54.426498 948.75598 0.32569259 -0.073409908 -0.94262153 0.10573151
136.87601 -54.436798 948.92401 0.22743674 -0.046567712 -0.97267878 0
126.948 -53.859798 948.64697 -0.21654157 -0.061009564 -0.97436523 0
129.151 -53.8652 948.69397 -0.11006973 -0.021974189 -0.99368095 0
129.716 -53.872601 948.81097 -0.054579962 -0.020378586 -0.99830145 0
130.24001 -53.862801 948.62598 -0.045798466 -0.01140163 -0.99888563 0.050568331
135.716 -53.8634 948.50897 0.25571993 -0.049381468 -0.96548891 0.070831873
136.332 -53.890301 948.96997 0.18755804 -0.035279863 -0.98161978 0
136.87801 -53.8895 948.94202 0.23758297 -0.036248088 -0.97069073 0.012810721
137.423 -53.888599 948.91302 0.25147805 -0.034617748 -0.96724373 0
128.58701 -53.310501 948.58801 -0.11220086 -0.023727139 -0.99340224 0.0071270638
129.16701 -53.3242 948.82001 -0.082795776 -0.013851047 -0.99647027 0.023537826
129.71201 -53.323002 948.78601 -0.040816251 0.0016716014 -0.9991653 0
136.30499 -53.331699 948.78802 0.2305056 -0.02021868 -0.97286093 0.027208984
136.88 -53.342201 948.96301 0.24766876 -0.014440651 -0.96873713 0
126.953 -52.766201 948.69299 -0.22145614 -0.014693697 -0.97505963 0.0032204941
128.026 -52.757099 948.50598 -0.14762302 -0.018695626 -0.98886704 0.01678497
128.62601 -52.7789 948.88397 -0.10002367 0.0020634863 -0.99498296 0
129.166 -52.7756 948.81403 -0.06180685 0.0069141514 -0.99806422 0
129.726 -52.780701 948.89301 -0.030580696 0.022076532 -0.9992885 0
131.345 -52.771301 948.685 -0.091282673 -0.0027888464 -0.99582112 0
132.437 -52.769901 948.63501 -0.044251088 0.01102289 -0.99895966 0
136.28 -52.773998 948.61902 0.20928143 -7.8395213e-05 -0.9778555 0
136.86 -52.786598 948.83197 0.25711301 -0.0052273218 -0.96636724 0.024112133
137.427 -52.7939 948.95099 0.2593509 -0.012939654 -0.96569651 0
126.435 -52.230499 948.93201 -0.25445503 0.0044825664 -0.96707428 0
126.97 -52.225498 948.82898 -0.2020579 0.02691648 -0.97900367 0
128.03999 -52.215199 948.617 -0.12610599 0.015161376 -0.99190092 0.032338414
128.636 -52.235001 948.96301 -0.10095928 0.029523985 -0.99445242 0.083217859
129.179 -52.233002 948.91498 -0.052542847 0.040142607 -0.99781156 0.011334347
129.69501 -52.220299 948.672 -0.044450633 0.036987584 -0.99832666 0.037712231
131.334 -52.219101 948.612 -0.093258224 0.022392668 -0.99539012 0.03541382
134.619 -52.218899 948.53198 0.092637576 0.020749392 -0.9954837 0
136.274 -52.223701 948.58099 0.22310558 0.0061125676 -0.97477514 0
136.881 -52.2463 948.97803 0.23539869 0.015934497 -0.97176832 0.013034714
137.433 -52.248001 948.995 0.24574137 0.0099202078 -0.96928471 0
126.415 -51.6744 948.78601 -0.29135901 0.062913343 -0.95454276 0.095081806
126.95 -51.669399 948.68298 -0.20743106 0.061598226 -0.97630841 0.061195429
128.02699 -51.662201 948.526 -0.11618807 0.057189576 -0.99157941 0.0055517424
128.605 -51.6745 948.73901 -0.06967742 0.05700437 -0.99593955 0.072659537
129.164 -51.679199 948.81299 -0.038060296 0.058367066 -0.99756944 0.11855818
130.817 -51.682999 948.84497 -0.091370128 0.044873979 -0.99480546 0
131.91 -51.6824 948.80798 -0.071838655 0.04957385 -0.99618357 0
135.75301 -51.6861 948.78601 0.20124412 0.039488636 -0.97874486 0.060495023
136.86099 -51.690701 948.84399 0.27148753 0.035714183 -0.96177912 0.045989607
126.41 -51.124802 948.75897 -0.23388743 0.095014006 -0.96761 0
126.952 -51.122398 948.703 -0.20816445 0.11964295 -0.97074878 0.055999141
127.511 -51.127201 948.77899 -0.22491181 0.19323523 -0.95502609 0.1629481
128.02499 -51.113701 948.51599 -0.13862765 0.098346472 -0.98544931 0
128.616 -51.131001 948.82599 -0.083236061 0.12455251 -0.98871559 0
129.15601 -51.127899 948.75403 -0.049814779 0.11963715 -0.99156719 0.045731034
130.784 -51.122398 948.61603 -0.098821744 0.083149694 -0.99162513 0
131.32401 -51.1194 948.547 -0.092392936 0.084793396 -0.99210566 0
131.883 -51.124001 948.62 -0.064987496 0.096975736 -0.99316281 0.0069258753
134.614 -51.121498 948.50897 0.077568725 0.10255723 -0.99169815 0.019379377
135.72501 -51.1273 948.591 0.18209311 0.091463089 -0.97901821 0.048782829
136.26401 -51.1245 948.52502 0.19706033 0.076145209 -0.97742987 0.0070198444
136.853 -51.139801 948.797 0.27878013 0.076540798 -0.95729995 0.041669212
126.402 -50.573502 948.69897 -0.26352945 0.20587476 -0.94242662 0.023329882
126.964 -50.579201 948.79401 -0.22096723 0.19876865 -0.95481122 0.047268674
127.53 -50.586899 948.92603 -0.21161343 0.2629855 -0.94130677 0.12713729
128.052 -50.5765 948.71899 -0.15576538 0.25246972 -0.9549849 0.12158162
128.62801 -50.5877 948.91699 -0.10833457 0.17266145 -0.97900546 0
129.185 -50.5914 948.974 -0.077103302 0.17132476 -0.98219299 0.039883528
130.78101 -50.5732 948.59399 -0.06560035 0.13531587 -0.98862851 0.031217948
131.87 -50.570999 948.52802 -0.058236722 0.15978347 -0.9854328 0
133.517 -50.572899 948.52502 0.011937145 0.15641804 -0.9876188 0
134.62199 -50.576698 948.57001 0.062537856 0.16826046 -0.98375684 0
135.162 -50.574001 948.50702 0.13473721 0.15118665 -0.97927958 0
136.272 -50.579601 948.58502 0.19153997 0.13271978 -0.97247005 0
136.866 -50.5966 948.89099 0.2451977 0.1205581 -0.96194798 0
126.438 -50.040199 948.979 -0.25515351 0.27344513 -0.92742902 0.0082266293
126.938 -50.0215 948.612 -0.22312646 0.25614908 -0.94053298 0.0059398906
128.05299 -50.029301 948.73602 -0.14421809 0.32994142 -0.93292004 0.078813724
128.605 -50.0308 948.75201 -0.11481011 0.29885849 -0.947366 0.057818059
129.17599 -50.040001 948.91302 -0.10340732 0.36336678 -0.92588961 0.12012762
129.673 -50.0205 948.53198 -0.080851719 0.25984454 -0.96225977 0.082458965
130.254 -50.0336 948.76599 -0.085632749 0.2558589 -0.96291399 0.038707167
130.80499 -50.034599 948.77301 -0.066114873 0.23491515 -0.96976477 0
131.916 -50.040901 948.86798 -0.040312253 0.21769544 -0.97518396 0
133.52901 -50.029499 948.61298 0.0334001 0.23410866 -0.97163653 0
135.16299 -50.026299 948.513 0.10096682 0.21303712 -0.9718132 0
135.76601 -50.046799 948.89001 0.13704164 0.23205943 -0.96299952 0
136.283 -50.035702 948.66602 0.20073734 0.19164698 -0.96071637 0.0068436917
136.83299 -50.0364 948.66498 0.21053548 0.17918617 -0.96102405 0
126.972 -49.486801 948.86798 -0.20789999 0.42629102 -0.88037133 0.053564005
127.508 -49.4823 948.76801 -0.1642433 0.37105885 -0.9139691 0.0094622532
128.048 -49.479401 948.70099 -0.12802577 0.4253934 -0.89590728 0.06119936
128.60001 -49.480999 948.71997 -0.098135948 0.32613838 -0.9402144 0
129.16701 -49.4884 948.849 -0.10946036 0.40604058 -0.90727586 0.083786897
129.705 -49.484699 948.76599 -0.071262419 0.29885221 -0.95163494 0.008216355
130.274 -49.493198 948.91498 -0.087154098 0.36028352 -0.92876256 0.047228545
130.81599 -49.491001 948.85999 -0.078556389 0.33384031 -0.93935061 0.043700762
131.89799 -49.486099 948.742 -0.04189533 0.35725102 -0.93306834 0.034115117
132.451 -49.487999 948.76398 -0.0030386758 0.41281912 -0.91080797 0.086706445
132.98399 -49.482498 948.64697 -0.01207889 0.36065036 -0.93262291 0.025613872
133.534 -49.483601 948.65503 0.0064899623 0.35545197 -0.934672 0.027560303
134.103 -49.4916 948.79498 0.026366035 0.33375534 -0.94229096 0
134.617 -49.479 948.54102 0.039287627 0.31526151 -0.94819129 0
136.30701 -49.496399 948.83502 0.17322877 0.26143643 -0.94954878 0
128.623 -48.942001 948.89398 -0.12998717 0.54604959 -0.82760692 0.065260962
129.70799 -48.938099 948.79498 -0.10051624 0.43953025 -0.89258599 0.036327511
130.27901 -48.947102 948.95697 -0.090817064 0.41151199 -0.90686834 0.0092170574
131.334 -48.9319 948.63702 -0.054142386 0.4549287 -0.88888055 0
131.89101 -48.9356 948.69598 -0.041476596 0.44655156 -0.89379609 0
132.442 -48.9366 948.703 -0.021516405 0.49833453 -0.86671776 0.060328458
132.98 -48.933498 948.62903 -0.013982644 0.51593834 -0.85651159 0.090278812
134.123 -48.950802 948.93799 0.017830173 0.5025112 -0.86438686 0.065306596
136.83299 -48.940701 948.677 0.19892202 0.32008642 -0.92626929 0.01576956
131.367 -48.396301 948.88098 -0.03501571 0.53833675 -0.84200203 0
136.30701 -48.400398 948.84497 0.12109396 0.42747328 -0.89588106 0
133.121 -71.470398 949.39398 -0.0099588297 -0.15072381 -0.98852575 0
133.116 -70.919701 949.37 -0.024619771 -0.14367689 -0.98931837 0
132.569 -70.371803 949.39697 -0.008687336 -0.1477247 -0.98899037 0.055282749
133.08501 -70.354401 949.15002 -0.033943646 -0.13357003 -0.99045789 0
134.22701 -70.378998 949.45599 0.024060765 -0.15637016 -0.98740542 0.066724017
136.423 -70.380501 949.42499 0.067843221 -0.11715635 -0.99079347 0
129.278 -69.821701 949.45398 -0.15126975 -0.1334725 -0.97943997 0
129.82899 -69.823402 949.46503 -0.1179593 -0.12279 -0.98539752 0
130.37 -69.819603 949.401 -0.10144258 -0.14651965 -0.98399258 0.062538646
131.457 -69.815102 949.315 -0.057098053 -0.13286717 -0.98948783 0
132.55 -69.813004 949.26202 -0.030942498 -0.10355621 -0.99414217 0
133.10001 -69.814102 949.26398 -0.017451527 -0.11370104 -0.99336171 0
133.672 -69.827003 949.427 -0.0040859617 -0.12273879 -0.99243063 0.005889399
134.203 -69.817802 949.28998 0.013314273 -0.12539044 -0.99201816 0.019252034
135.873 -69.831398 949.435 0.10850962 -0.13110252 -0.98541248 0.025648694
136.97501 -69.834198 949.448 0.14078243 -0.12112596 -0.98260307 0
129.271 -69.2696 949.41101 -0.12629546 -0.12024538 -0.98467791 0
129.819 -69.269897 949.40198 -0.12046587 -0.10272618 -0.98738813 0
130.92 -69.272598 949.414 -0.07945694 -0.09655913 -0.99215066 0
132.54601 -69.262802 949.24298 -0.045033921 -0.11183626 -0.9927057 0.0064990856
133.099 -69.265404 949.26703 -0.012342033 -0.11410963 -0.99339151 0
133.666 -69.275497 949.39203 0.018154692 -0.11379506 -0.99333841 0
134.17799 -69.2565 949.11902 0.019720476 -0.11382937 -0.99330461 0
134.761 -69.274902 949.35797 0.048862837 -0.11818495 -0.99178869 0.04550197
129.261 -68.716003 949.34399 -0.15817913 -0.14557897 -0.97661978 0.071943589
129.82401 -68.723801 949.44 -0.091790877 -0.12056445 -0.98845267 0.015928714
130.899 -68.712898 949.26501 -0.058870487 -0.10615764 -0.99260509 0.058368865
132.022 -68.727203 949.43701 -0.025054419 -0.12548302 -0.99177939 0.091885358
132.51199 -68.697098 949.00897 -0.033972815 -0.08846236 -0.99550003 0
133.093 -68.714104 949.23102 -0.023126911 -0.089225374 -0.99574298 0.0092867706
133.632 -68.709602 949.15601 -0.0092360033 -0.10417153 -0.99451649 0.035168808
134.19501 -68.717003 949.24597 0.0012188108 -0.10186147 -0.99479789 0.034566291
134.76401 -68.727898 949.38501 0.01576177 -0.088803262 -0.99592447 0
135.317 -68.730103 949.40198 0.071755603 -0.094508126 -0.9929347 0.0064368895
135.858 -68.726501 949.34003 0.090015285 -0.087461509 -0.99209261 0
136.978 -68.738503 949.47998 0.11940169 -0.099834666 -0.98781389 0.0020823141
128.718 -68.170403 949.40198 -0.18080848 -0.10800274 -0.97757035 0.047477819
129.26801 -68.171501 949.40399 -0.14922722 -0.11502039 -0.98209041 0.10083397
129.81599 -68.171303 949.38898 -0.098654658 -0.080601208 -0.99185222 0
130.353 -68.165604 949.297 -0.088321686 -0.072140411 -0.99347627 0
130.905 -68.167702 949.31403 -0.058037262 -0.075547211 -0.99545181 0
131.476 -68.179703 949.46899 -0.075241968 -0.10246699 -0.99188668 0.092662491
132.026 -68.180496 949.46899 -0.063870236 -0.071186572 -0.99541605 0
132.56 -68.1735 949.35797 -0.021847511 -0.097029783 -0.99504167 0.07220073
133.06 -68.148697 949 -0.031560302 -0.073050335 -0.99682879 0
133.633 -68.161499 949.16602 -0.0048040827 -0.067731574 -0.99769205 0
134.162 -68.152 949.021 7.3803494e-05 -0.084283583 -0.99644184 0
134.737 -68.165802 949.20001 0.04502476 -0.081676982 -0.99564135 0.048427723
135.29601 -68.171303 949.26501 0.071067132 -0.066999614 -0.99521887 0
135.82899 -68.163597 949.14502 0.075105727 -0.06384328 -0.99512976 0
136.946 -68.1744 949.26801 0.13953646 -0.10060537 -0.985093 0.040976815
137.52901 -68.191299 949.49103 0.21227054 -0.11760111 -0.97010887 0.089836061
128.69901 -67.611801 949.26398 -0.16595773 -0.081659645 -0.98274606 0.052774131
129.25999 -67.618698 949.349 -0.11585546 -0.071879469 -0.99066186 0.0048072957
129.80299 -67.616096 949.29999 -0.093426704 -0.068099871 -0.99329448 0
130.33501 -67.607803 949.17102 -0.070182048 -0.063161768 -0.99553257 0
130.88699 -67.609901 949.18799 -0.057669122 -0.054726522 -0.99683464 0
131.446 -67.615601 949.255 -0.058359124 -0.068757392 -0.99592501 0
132.004 -67.620697 949.31403 -0.050351374 -0.056065973 -0.99715668 0
133.078 -67.609802 949.13702 -0.022753542 -0.058660157 -0.99801868 0
133.623 -67.6082 949.10199 -0.0023142332 -0.066297099 -0.99779725 0
134.17599 -67.610703 949.12402 0.044747133 -0.077308573 -0.99600261 0.096390203
134.73399 -67.615799 949.18402 0.077729128 -0.078661948 -0.99386644 0.058508277
135.278 -67.6138 949.14203 0.059068352 -0.066599622 -0.99602985 0.0095665548
135.854 -67.627998 949.32898 0.081435397 -0.072210178 -0.99405932 0.059083492
136.961 -67.633102 949.375 0.13821808 -0.074287564 -0.98761189 0
137.508 -67.632896 949.35901 0.14383866 -0.067415617 -0.98730218 0
138.075 -67.6418 949.46997 0.2167135 -0.099420592 -0.97115952 0.066823348
138.627 -67.643898 949.487 0.20524924 -0.098003417 -0.97379059 0
128.179 -67.078201 949.48999 -0.24787639 -0.0561992 -0.96716028 0.037538882
128.69901 -67.063698 949.27197 -0.18503805 -0.046654399 -0.98162329 0
129.812 -67.0728 949.37701 -0.071572706 -0.04280572 -0.99651647 0
130.371 -67.078201 949.44202 -0.07324291 -0.057582963 -0.99565041 0.071739808
130.905 -67.071198 949.33002 -0.04848386 -0.05950762 -0.99704975 0.010743143
131.44299 -67.065903 949.242 -0.048195593 -0.052788731 -0.99744201 0.036636099
131.972 -67.056099 949.091 -0.037406143 -0.058109932 -0.99760914 0
132.554 -67.073601 949.32599 0.013314269 -0.060857117 -0.99805772 0.049787644
133.114 -67.079597 949.39801 -0.019956291 -0.054676935 -0.99830467 0
133.63499 -67.0662 949.19702 0.00091973681 -0.051154885 -0.99869031 0
134.162 -67.055603 949.034 0.014044849 -0.052499656 -0.99852216 0
134.745 -67.073196 949.271 0.061369181 -0.055360649 -0.99657869 0
135.267 -67.060303 949.07501 0.07123401 -0.062017612 -0.99552983 0
135.849 -67.077202 949.302 0.058401436 -0.057285957 -0.99664819 0
136.409 -67.082603 949.36603 0.085006431 -0.05883237 -0.99464196 0
137.524 -67.091904 949.47101 0.11384054 -0.06644062 -0.99127495 0
138.07401 -67.093002 949.47302 0.16945514 -0.07270173 -0.9828527 0
128.175 -66.527702 949.46698 -0.20044452 -0.041064162 -0.97884411 0.034857798
128.69 -66.511002 949.216 -0.16373193 -0.032327197 -0.98597509 0
129.259 -66.521896 949.35901 -0.14854172 -0.032924049 -0.98835796 0
130.339 -66.513603 949.216 -0.081225827 -0.043760967 -0.99573457 0
130.897 -66.518799 949.27802 -0.050797407 -0.042404905 -0.99780834 0
131.439 -66.515503 949.21802 -0.078590743 -0.045583759 -0.99586427 0
131.97099 -66.507599 949.09302 -0.06840758 -0.05719908 -0.99601644 0
132.54601 -66.521202 949.27502 -0.035108767 -0.069842346 -0.99694008 0.023630599
133.125 -66.536797 949.48499 -0.0022015008 -0.073461272 -0.99729568 0.086319
133.617 -66.508598 949.07001 0.010962609 -0.076613039 -0.99700063 0.10778257
134.16901 -66.510597 949.086 0.034145005 -0.067786865 -0.99711537 0.03709653
134.748 -66.526199 949.29498 0.041043337 -0.063364923 -0.99714613 0
135.276 -66.516098 949.13898 0.070020594 -0.050791532 -0.99625164 0
135.81599 -66.512299 949.07202 0.061388947 -0.06367898 -0.99608052 0.022993013
136.409 -66.534302 949.37299 0.09139926 -0.061277289 -0.99392724 0
137.521 -66.542 949.45697 0.10793326 -0.071052663 -0.99161583 0
138.054 -66.535004 949.34399 0.16501942 -0.062734261 -0.98429316 0.013168705
138.606 -66.536903 949.35797 0.20267957 -0.072416045 -0.97656387 0
128.16901 -65.976402 949.42999 -0.20237997 -0.031594831 -0.97879732 0
128.70399 -65.970001 949.32599 -0.17076811 -0.038093638 -0.98457462 0
129.246 -65.966797 949.26703 -0.14144468 -0.058025457 -0.98824412 0.066530764
129.802 -65.970901 949.315 -0.10569731 -0.042947412 -0.99347055 0
130.35899 -65.975403 949.36798 -0.066546917 -0.044703562 -0.99678135 0.010281755
130.87801 -65.9608 949.14398 -0.06416627 -0.047399424 -0.99681294 0
131.43201 -65.963997 949.17902 -0.068425193 -0.042179182 -0.99676424 0
131.97 -65.9589 949.09302 -0.034443192 -0.05370678 -0.99796259 0
132.51801 -65.9589 949.08002 -0.027756985 -0.065265484 -0.99748182 0
133.121 -65.986 949.45801 -0.027463509 -0.068676338 -0.99726093 0
133.60699 -65.955704 949.00897 0.018052494 -0.056539204 -0.99823719 0
134.189 -65.972603 949.23901 0.036253486 -0.056836274 -0.99772507 0
134.743 -65.975502 949.26801 0.094349943 -0.070765443 -0.99302083 0.082340389
135.31599 -65.987396 949.42603 0.085993595 -0.077952743 -0.99324143 0.045645062
135.815 -65.963898 949.07599 0.062443901 -0.059705101 -0.99626106 0.0097907446
136.379 -65.971603 949.17499 0.10220022 -0.078160167 -0.99168855 0.032292727
136.97099 -65.992699 949.46503 0.099123411 -0.0609647 -0.99320585 0
137.487 -65.977402 949.23199 0.12624124 -0.072801851 -0.98932451 0
138.028 -65.974197 949.172 0.1751297 -0.070107445 -0.98204613 0.052811079
138.58701 -65.978996 949.22803 0.21585327 -0.062070869 -0.97445095 0.046898164
128.67599 -65.406998 949.11902 -0.19775912 -0.0477768 -0.97908562 0.035585657
129.259 -65.424896 949.367 -0.14467467 -0.041459855 -0.98861033 0
129.82401 -65.433502 949.479 -0.11852808 -0.040428996 -0.9921273 0.0058108247
130.369 -65.431999 949.44501 -0.075322345 -0.027006652 -0.99679345 0
130.868 -65.407501 949.078 -0.077743724 -0.047238354 -0.99585366 0
131.959 -65.405403 949.02301 -0.049331229 -0.064507954 -0.99669713 0.07303822
133.09 -65.422798 949.24902 -0.017447593 -0.055331178 -0.99831563 0
133.61501 -65.411301 949.06897 0.0047754818 -0.072666176 -0.99734491 0.010830767
134.17599 -65.4179 949.15399 0.027173303 -0.044965956 -0.9986189 0
134.72501 -65.418503 949.14801 0.035210669 -0.030319098 -0.9989199 0
135.287 -65.425201 949.23297 0.019828675 -0.046291698 -0.9987312 0
135.855 -65.434502 949.35498 0.067742221 -0.056337342 -0.99611098 0.022833267
136.396 -65.431396 949.29797 0.080964133 -0.061483916 -0.99481887 0.021758134
136.961 -65.439598 949.40399 0.1464683 -0.062018957 -0.98726934 0.078105092
137.463 -65.417397 949.06897 0.20033246 -0.062480167 -0.97773373 0.061168
127.616 -64.877197 949.41803 -0.21291973 -0.040665813 -0.97622305 0.0037584051
128.705 -64.873901 949.34601 -0.18369731 -0.037420537 -0.98227036 0
129.246 -64.870003 949.27698 -0.14112379 -0.034964234 -0.98937434 0
130.368 -64.883102 949.44299 -0.0888905 -0.036986761 -0.99535441 0
133.09 -64.874298 949.25299 -0.01748444 -0.060295161 -0.99802744 0
134.17599 -64.869598 949.159 0.037747946 -0.043153301 -0.99835509 0
134.711 -64.863098 949.04999 0.031470492 -0.039475337 -0.99872488 0
135.27499 -64.870796 949.151 0.040282011 -0.067324594 -0.99691767 0.083942518
135.82401 -64.871696 949.151 0.040428769 -0.057989679 -0.99749827 0
136.371 -64.871002 949.12701 0.076425411 -0.045557141 -0.99603403 0
136.95599 -64.888802 949.375 0.10741071 -0.038027633 -0.99348718 0
137.50101 -64.887299 949.34003 0.20119171 -0.047565766 -0.97839636 0.057975098
138.061 -64.892899 949.409 0.20672342 -0.044654388 -0.97737992 0.034361921
138.59599 -64.886803 949.30701 0.23524772 -0.033988539 -0.97134101 0.02897203
127.612 -64.327103 949.39801 -0.22099306 -0.049044572 -0.97404146 0
128.15199 -64.322998 949.32599 -0.19900724 -0.045547355 -0.978939 0
128.687 -64.316399 949.21698 -0.1428161 -0.052783154 -0.9883408 0
129.267 -64.332397 949.44 -0.11591116 -0.053163577 -0.99183583 0
130.354 -64.327904 949.34998 -0.055046007 -0.050426017 -0.99720967 0
131.416 -64.311501 949.08197 -0.058234278 -0.030319888 -0.99784243 0
132.549 -64.329498 949.323 -0.055171095 -0.047389429 -0.99735171 0
133.061 -64.312103 949.05402 -0.013591301 -0.039968666 -0.99910849 0
135.814 -64.318497 949.08502 0.068315215 -0.057417866 -0.99601018 0.04922073
136.373 -64.3237 949.14899 0.075696371 -0.04469543 -0.99612874 0
136.927 -64.3265 949.17603 0.11773624 -0.029915463 -0.99259418 0
137.487 -64.3321 949.24597 0.14373255 -0.02854329 -0.98920488 0
138.04201 -64.335701 949.28601 0.21813799 -0.027062189 -0.97554266 0.046611678
138.61501 -64.346901 949.43799 0.29838878 -0.020725839 -0.95421934 0.065486841
128.161 -63.779301 949.40002 -0.1879852 -0.064572528 -0.98004699 0
128.696 -63.772598 949.28802 -0.14192426 -0.056260247 -0.98827744 0
129.26801 -63.7845 949.45203 -0.15341149 -0.057206523 -0.98650515 0.053654373
129.798 -63.775902 949.31201 -0.094523035 -0.049448051 -0.99429387 0.0079137217
130.326 -63.766102 949.15503 -0.10581303 -0.025441775 -0.99406052 0
132.526 -63.77 949.16302 -0.043697823 -0.063912116 -0.99699837 0.09551812
133.603 -63.760899 949.00201 0.0035338076 -0.053151272 -0.99858022 0
134.714 -63.768398 949.08801 0.02757301 -0.043014936 -0.99869388 0
135.256 -63.765598 949.034 0.051986229 -0.042553566 -0.99774081 0
135.80099 -63.764198 949.00098 0.085749522 -0.037859485 -0.99559718 0
136.368 -63.773201 949.12201 0.09398669 -0.022470172 -0.9953199 0
136.91 -63.7705 949.06799 0.11477163 -0.0095446287 -0.9933461 0
137.465 -63.773701 949.10199 0.14117554 -0.00041426488 -0.98998451 0
138.04601 -63.789001 949.31799 0.21258366 -0.0076484857 -0.97711295 0.0057152924
138.58099 -63.782902 949.21399 0.31370485 0.0044691251 -0.94951004 0.062188458
128.142 -63.221298 949.26099 -0.18432 -0.046650834 -0.98175853 0
128.66299 -63.208099 949.04999 -0.15142661 -0.056183361 -0.98687059 0
129.25 -63.2276 949.33002 -0.1311029 -0.046763163 -0.99026525 0
129.77699 -63.217201 949.16302 -0.079136297 -0.043711081 -0.99590504 0
130.315 -63.212502 949.07898 -0.092602424 -0.045502499 -0.99466294 0
131.41499 -63.214199 949.08099 -0.051325522 -0.037108663 -0.99799234 0
132.508 -63.2131 949.03802 -0.021744231 -0.044391837 -0.99877757 0.025152225
134.702 -63.2146 949.01001 0.02426037 -0.037357975 -0.9990074 0
135.263 -63.220699 949.08899 0.082586817 -0.050540764 -0.99530154 0.047472268
135.812 -63.221001 949.08099 0.10072816 -0.055379555 -0.99337155 0.059091106
136.903 -63.2187 949.021 0.11993941 0.0048456229 -0.99276942 0
138.06799 -63.250801 949.47699 0.19456296 0.028314216 -0.98048133 0
126.519 -62.683201 949.45697 -0.26661447 -0.089703575 -0.9596197 0.0021208744
127.054 -62.676899 949.349 -0.22067235 -0.080835216 -0.97199249 0
127.614 -62.682999 949.42902 -0.2181346 -0.070098564 -0.97339791 0
128.138 -62.671398 949.24103 -0.18917774 -0.054767217 -0.98041439 0
128.686 -62.671398 949.229 -0.1561799 -0.063367188 -0.98569387 0
129.23 -62.669399 949.18701 -0.11012774 -0.058646433 -0.99218571 0
129.769 -62.665298 949.112 -0.082852155 -0.045827679 -0.9955076 0.02231046
130.33 -62.671501 949.19299 -0.092663251 -0.050445169 -0.99441886 0
130.914 -62.6889 949.44397 -0.090980254 -0.053043965 -0.99443901 0.060778718
131.961 -62.665401 949.06403 -0.071708173 -0.042115889 -0.99653614 0
132.511 -62.666302 949.065 -0.034378093 -0.036443368 -0.99874425 0
133.052 -62.6632 949.00598 -0.010384359 -0.036978949 -0.99926209 0
134.161 -62.6693 949.07202 0.020064926 -0.046434868 -0.99871981 0
135.28799 -62.6842 949.27197 0.084549055 -0.039296892 -0.99564415 0
135.83701 -62.6842 949.26001 0.096871719 -0.037263226 -0.9945991 0
136.368 -62.676601 949.13202 0.10726052 -0.021003036 -0.99400908 0
137.47701 -62.6828 949.20001 0.18329704 -0.0071752788 -0.98303139 0
138.062 -62.699501 949.44 0.20130938 0.008561302 -0.97949028 0
138.619 -62.7033 949.48401 0.25470605 0.011242039 -0.96695322 0
127.071 -62.137001 949.48199 -0.21495612 -0.074329145 -0.97379112 0
128.151 -62.1292 949.34003 -0.16209935 -0.070061572 -0.9842841 0
128.687 -62.123402 949.23901 -0.14386021 -0.069611832 -0.98714668 0
129.23599 -62.124001 949.23499 -0.10355456 -0.075226136 -0.99177492 0
130.31 -62.113701 949.05298 -0.10306229 -0.04867984 -0.99348301 0
130.89101 -62.1292 949.27802 -0.079270378 -0.060385134 -0.99502254 0
131.95399 -62.1138 949.01703 -0.058486965 -0.047420822 -0.99716127 0
132.54401 -62.133598 949.30701 -0.027077679 -0.055866543 -0.99807101 0
134.16499 -62.1231 949.10999 0.020019446 -0.042976454 -0.99887556 0
134.705 -62.1194 949.03998 0.059299301 -0.051948909 -0.99688762 0.073010847
135.255 -62.120499 949.04401 0.092651077 -0.041054238 -0.99485195 0.083025716
135.813 -62.125099 949.10101 0.09117461 -0.028876871 -0.9954161 0
136.91299 -62.127102 949.10602 0.19513218 -0.03081502 -0.98029274 0.074333377
137.508 -62.148201 949.41498 0.19845854 -0.0099375052 -0.98005891 0.023486802
138.049 -62.1451 949.35498 0.26023036 -0.013082625 -0.96545792 0.049502544
138.60899 -62.150501 949.42297 0.28626254 -0.003253052 -0.95814574 0.044744976
126.518 -61.586399 949.46698 -0.26086894 -0.06204867 -0.96337813 0
128.12 -61.566002 949.11603 -0.1655921 -0.065460294 -0.9840194 0
128.666 -61.565201 949.091 -0.13720387 -0.06989871 -0.98807353 0
129.226 -61.571098 949.16998 -0.089481913 -0.072106957 -0.99337488 0
130.30499 -61.5634 949.026 -0.084439337 -0.073710077 -0.99369854 0.046599355
130.867 -61.569801 949.112 -0.045450814 -0.061392847 -0.9970783 0.010850928
131.414 -61.569302 949.09198 -0.072191224 -0.072239622 -0.99477124 0
131.97099 -61.573799 949.14801 -0.039668251 -0.084607527 -0.99562442 0.048027515
132.513 -61.570801 949.09003 -0.04762502 -0.070604891 -0.99636686 0
135.825 -61.582401 949.19202 0.11989111 -0.028835703 -0.99236822 0.032951448
136.34801 -61.571098 949.005 0.18869923 -0.038415436 -0.98128331 0.085426889
136.924 -61.584 949.19 0.18012658 -0.018730985 -0.98346508 0.05079928
137.47501 -61.5853 949.198 0.20605624 -0.01705239 -0.97839153 0.047623966
138.024 -61.585602 949.19 0.20934926 -0.0063812095 -0.9778201 0
126.499 -61.0289 949.32898 -0.4006362 -0.13968691 -0.90552652 0.16801931
127.069 -61.0396 949.48297 -0.26651007 -0.079553701 -0.96054339 0.043909177
127.617 -61.039299 949.46698 -0.19110999 -0.0845019 -0.97792459 0
128.68201 -61.024601 949.21399 -0.10784916 -0.084132232 -0.990601 0.0041968254
129.22501 -61.022202 949.164 -0.11011946 -0.077032171 -0.99092877 0
129.763 -61.017899 949.08398 -0.082180224 -0.10536738 -0.99103189 0.068688691
130.851 -61.0145 949.00598 -0.07923089 -0.085396565 -0.99319178 0
135.808 -61.026299 949.07703 0.14273398 -0.035536408 -0.98912293 0.0029255799
136.37199 -61.0336 949.177 0.17472288 -0.034038298 -0.98402917 0.038485315
136.938 -61.041901 949.29199 0.18887119 -0.029130982 -0.98156971 0.022724412
137.47301 -61.0359 949.18597 0.1906008 -0.010456279 -0.98161197 0
138.061 -61.053799 949.45203 0.23270483 -0.015186829 -0.97242886 0
125.967 -60.4884 949.46802 -0.2887232 -0.077183731 -0.95429641 0.027447667
127.063 -60.488098 949.44 -0.26539841 -0.097014755 -0.95924544 0.081923373
127.598 -60.482201 949.33398 -0.2147902 -0.070137464 -0.97413856 0
128.132 -60.475399 949.216 -0.17659326 -0.077178583 -0.98125345 0.048128568
128.686 -60.478401 949.25 -0.12747431 -0.066950805 -0.98957968 0
129.20799 -60.4664 949.04999 -0.11064332 -0.082064725 -0.9904663 0
135.804 -60.476601 949.05798 0.13739212 -0.04805138 -0.98935056 0
136.34599 -60.473801 949.00201 0.15682824 -0.044261448 -0.98663366 0
136.92 -60.485401 949.17102 0.20094328 -0.031043181 -0.9791109 0.033068031
137.491 -60.495399 949.315 0.20162855 -0.02145276 -0.97922713 0.021098804
138.02699 -60.490101 949.21899 0.21604618 -0.021046296 -0.97615635 0.020423537
125.936 -59.925201 949.23798 -0.28102049 -0.070927098 -0.95707726 0
126.494 -59.930099 949.30298 -0.26311705 -0.062418826 -0.96274263 0
127.049 -59.9333 949.34302 -0.21417858 -0.071673006 -0.97416145 0
127.571 -59.921001 949.13501 -0.24262673 -0.079003938 -0.96689743 0.048378211
128.67799 -59.926601 949.20001 -0.13866776 -0.083979562 -0.98677188 0.00057170092
129.207 -59.917599 949.04401 -0.13655993 -0.09833508 -0.98573911 0.03935631
130.868 -59.925598 949.13501 -0.076169223 -0.11037387 -0.99096715 0.092125833
135.80701 -59.9296 949.08301 0.19714944 -0.066360258 -0.97812498 0.057711054
137.478 -59.941399 949.23102 0.25462773 -0.032959573 -0.96647727 0.061035842
138.03799 -59.946701 949.302 0.29573911 -0.020693535 -0.95504463 0.069517821
126.5 -59.384701 949.354 -0.26062182 -0.076763235 -0.9623844 0
127.045 -59.383099 949.31702 -0.24238122 -0.063665137 -0.96808994 0
127.578 -59.3764 949.19702 -0.21801718 -0.074911416 -0.97306567 0.015253285
128.129 -59.377899 949.21002 -0.18075062 -0.089794129 -0.97942138 0.071556002
128.65601 -59.368198 949.04102 -0.14121337 -0.10120293 -0.98479277 0.064276852
130.87399 -59.380299 949.18597 -0.075685509 -0.089944892 -0.99306679 0
135.245 -59.375301 949.005 0.12727086 -0.055654477 -0.99030536 0.030543718
136.897 -59.379002 949.02399 0.15682437 -0.016869908 -0.98748243 0
137.466 -59.388199 949.159 0.21224765 -0.020442851 -0.97700208 0
138.032 -59.395802 949.26703 0.21873248 -0.0021978612 -0.97578239 0
126.508 -58.840099 949.41901 -0.25736535 -0.068508394 -0.96388263 0.02096539
127.054 -58.838902 949.38702 -0.24516606 -0.078154966 -0.9663257 0.03692925
127.574 -58.826099 949.16901 -0.19701095 -0.064707249 -0.97826362 0
128.10899 -58.8204 949.065 -0.18457994 -0.089139767 -0.9787668 0.071843743
128.655 -58.819698 949.04102 -0.15231101 -0.079030052 -0.98516786 0.052314021
136.349 -58.830898 949.04401 0.16791727 -0.036131404 -0.98513877 0
137.455 -58.8349 949.08301 0.20609623 -0.0095992535 -0.97848469 0
138.007 -58.837002 949.104 0.21739358 -0.016869852 -0.9759382 0
125.963 -58.292999 949.45502 -0.2851882 -0.063036963 -0.9563964 0
126.495 -58.285599 949.32202 -0.26782936 -0.068646878 -0.96101773 0
127.051 -58.289299 949.37 -0.23282288 -0.055425141 -0.9709385 0
127.575 -58.278599 949.18402 -0.23018514 -0.079448715 -0.96989834 0.038226083
136.353 -58.2841 949.073 0.16884311 -0.039105557 -0.98486692 0
136.933 -58.297901 949.28497 0.18959539 -0.019181095 -0.98167497 0
137.474 -58.294998 949.224 0.20824055 -0.0073407521 -0.97805011 0
138.01401 -58.291599 949.15503 0.23301408 -0.018680269 -0.97229397 0
127.018 -57.726299 949.13397 -0.24010824 -0.051228136 -0.96939349 0
127.552 -57.7201 949.02002 -0.18958303 -0.060401198 -0.98000515 0
136.91901 -57.743599 949.19202 0.30032977 -0.046571262 -0.95269781 0.09148483
137.465 -57.742802 949.16498 0.22853941 -0.02362255 -0.97324806 0.00055695703
138.019 -57.745201 949.19098 0.23968983 -0.0092183156 -0.97080576 0
138.606 -57.761501 949.44598 0.35826463 -0.024360256 -0.93330222 0.078943983
126.509 -57.195499 949.43903 -0.29732284 -0.066112958 -0.95248526 0.062809467
127.019 -57.178398 949.14398 -0.2551032 -0.064583763 -0.96475458 0.021217341
127.577 -57.183201 949.211 -0.2828058 -0.10594734 -0.95330793 0.12469574
128.657 -57.1763 949.07202 -0.1795375 -0.10584394 -0.97804058 0.10641212
136.34599 -57.185101 949.039 0.18539712 -0.039774124 -0.98185843 0
136.93201 -57.2006 949.28497 0.21903621 -0.028733194 -0.97529358 0
137.44901 -57.188 949.06299 0.24658298 -0.012509165 -0.96904099 0
138.013 -57.194599 949.159 0.25887838 -0.02115085 -0.96567839 0
138.604 -57.212399 949.44 0.23110817 0.0046203621 -0.97291708 0
126.486 -56.637199 949.27698 -0.27697101 -0.066826522 -0.9585517 0
127.012 -56.6273 949.09802 -0.24407132 -0.077405982 -0.96666312 0
127.552 -56.623699 949.026 -0.24572821 -0.081086166 -0.96594137 0
136.349 -56.637699 949.05902 0.2037895 -0.036179185 -0.97834599 0
136.90199 -56.639999 949.08398 0.22180445 -0.040414657 -0.9742533 0
138.021 -56.649502 949.21698 0.23584066 -0.022822641 -0.9715237 0
125.962 -56.0994 949.46997 -0.2840912 -0.058890939 -0.95698696 0
126.469 -56.0816 949.15601 -0.29063132 -0.066017605 -0.95455492 0
135.79601 -56.087601 949.04498 0.21820615 -0.056040298 -0.97429234 0.028700484
136.349 -56.089699 949.06598 0.24339432 -0.043854319 -0.96893555 0.038575124
137.453 -56.092999 949.09698 0.26698813 -0.050325546 -0.96238494 0.033512812
138.037 -56.1077 949.33197 0.27932537 -0.041813903 -0.95928568 0.060095336
138.60899 -56.117401 949.48297 0.27910009 -0.042164654 -0.95933586 0.045717616
125.955 -55.548199 949.42401 -0.35048816 -0.092766419 -0.93196166 0.061494779
126.493 -55.543701 949.336 -0.32784322 -0.090939552 -0.94034505 0.03669434
138.03 -55.556499 949.289 0.26093134 -0.048195641 -0.96415353 0.0093165506
138.59599 -55.563999 949.40399 0.27251351 -0.041312333 -0.96126461 0
138.59 -55.013302 949.36798 0.27922544 -0.040230408 -0.95938247 0
125.397 -54.995399 949.36401 -0.40754539 -0.10240051 -0.9074254 0.089194961
126.498 -54.9977 949.38 -0.34322152 -0.11490279 -0.93219978 0.083419532
136.89 -54.990898 949.021 0.24476191 -0.055339247 -0.96800268 0
137.457 -54.998299 949.13599 0.2410758 -0.051739052 -0.96912622 0
138.004 -54.998001 949.11798 0.34826159 -0.07229165 -0.93460572 0.11517882
125.365 -54.4333 949.12701 -0.35106608 -0.083234854 -0.93264389 0
125.953 -54.450699 949.41803 -0.32400006 -0.099721164 -0.94078672 0.010623017
126.485 -54.444099 949.28998 -0.27063924 -0.08547391 -0.95887887 0
137.437 -54.442402 949.008 0.3347266 -0.072072767 -0.93955505 0.065954171
138.009 -54.451599 949.15503 0.29995251 -0.056080729 -0.9523043 0.054897897
138.584 -54.462299 949.328 0.35072908 -0.034955591 -0.93582439 0.093481027
125.39 -53.895901 949.31897 -0.37398827 -0.091029629 -0.92295527 0.035901647
125.949 -53.9011 949.39899 -0.34615991 -0.086791582 -0.93415225 0.030435687
126.5 -53.902 949.40302 -0.27872318 -0.097769745 -0.95538187 0.052290883
137.99699 -53.898701 949.07703 0.27789369 -0.034964506 -0.9599753 0.019216523
138.55299 -53.901901 949.12097 0.30987269 -0.019586256 -0.95057636 0.025672488
139.155 -53.923 949.479 0.33070141 -0.0053878473 -0.9437201 0
125.404 -53.354 949.43597 -0.34778577 -0.057408053 -0.93581486 0
125.92 -53.3405 949.18402 -0.35671699 -0.084165774 -0.93041342 0.085188575
126.491 -53.350101 949.34198 -0.29055113 -0.057594344 -0.95512456 0.03784677
137.444 -53.348801 949.065 0.35177428 -0.034509327 -0.93544853 0.085739434
137.989 -53.347698 949.03302 0.31467637 -0.019261459 -0.94900364 0.021108773
138.54401 -53.3503 949.06598 0.31638247 -0.0016101511 -0.94863039 0.0079965815
139.134 -53.3666 949.34302 0.3330963 0.0011297034 -0.94289213 0.0015788794
125.387 -52.798698 949.31403 -0.34128794 -0.055681214 -0.93830812 0
125.906 -52.786301 949.08002 -0.30035636 -0.049084764 -0.95256323 0
126.466 -52.791698 949.164 -0.27114713 -0.036739282 -0.96183652 0
138.004 -52.805199 949.13898 0.29843622 0.0074503482 -0.95440054 0.00038163309
138.57001 -52.812099 949.25098 0.37275237 0.011208334 -0.92786312 0.049642928
139.15199 -52.824902 949.46802 0.36673284 0.01038948 -0.93026829 0.030133586
124.841 -52.251202 949.34302 -0.37314221 -0.012103464 -0.92769521 0.048296712
125.397 -52.254501 949.39099 -0.33095306 0.0046378141 -0.94363588 0
125.903 -52.237301 949.06598 -0.30733821 0 -0.95160037 0
138.009 -52.258999 949.18201 0.2968055 0.011584871 -0.95486766 0
138.552 -52.257099 949.13397 0.32374305 0.024834372 -0.94581908 0.022561802
124.85 -51.706699 949.41602 -0.34748188 0.061862383 -0.93564385 0
125.365 -51.693199 949.15698 -0.36863226 0.055602647 -0.92791092 0.028186835
125.921 -51.696602 949.20599 -0.3048566 0.0681848 -0.94995439 0.033857148
137.452 -51.707298 949.13599 0.28947887 0.040806387 -0.95631421 0.025614338
138.026 -51.717098 949.30298 0.33404136 0.034546744 -0.94192511 0.029431926
138.599 -51.7262 949.45599 0.31296161 0.034167055 -0.94915104 0
139.69099 -51.724602 949.401 0.3658258 0.030933945 -0.93016911 0.034304891
125.396 -51.1576 949.39203 -0.33160529 0.12220556 -0.93546987 0
125.901 -51.1404 949.06097 -0.32263234 0.11011782 -0.94009703 0.023544637
137.467 -51.164398 949.24103 0.30467385 0.072194062 -0.94971675 0.0052111605
138.00301 -51.159901 949.14398 0.29239199 0.061705016 -0.95430577 0
125.381 -50.603298 949.28198 -0.31430474 0.196639 -0.92873335 0
125.928 -50.603001 949.26599 -0.30863014 0.21311204 -0.92700094 0.028799906
137.47099 -50.617599 949.27197 0.27541387 0.12727427 -0.95286328 0.0355004
138.01199 -50.615002 949.21002 0.3251895 0.094561659 -0.94090909 0.046403334
138.59399 -50.627602 949.43298 0.30220625 0.095256917 -0.94847119 0.02276323
125.4 -50.063 949.435 -0.33261982 0.27154699 -0.90312034 0.010405657
125.933 -50.056999 949.31097 -0.35192329 0.38198 -0.8545416 0.10134827
127.54 -50.042801 949.00403 -0.20468511 0.34687921 -0.91530263 0.077781357
137.461 -50.065899 949.21198 0.23478775 0.16788118 -0.9574396 0.014217646
138.015 -50.067902 949.237 0.26773536 0.13453637 -0.95405334 0
135.8 -49.5112 949.133 0.15542586 0.31200758 -0.93728018 0.0295571
137.448 -49.512901 949.12598 0.22811188 0.2438443 -0.94260544 0
138.009 -49.517601 949.20203 0.2288046 0.25488529 -0.93951154 0
127.044 -48.966702 949.41101 -0.21761423 0.56867415 -0.79325515 0.041426927
127.593 -48.967098 949.40698 -0.17107485 0.52560985 -0.83334732 0.019360252
128.131 -48.963402 949.32202 -0.15135533 0.56837577 -0.8087278 0.057573806
129.19099 -48.949699 949.03302 -0.13271242 0.57730979 -0.805668 0.094029218
130.838 -48.951401 949.02802 -0.063442171 0.53846151 -0.84025848 0.062449541
133.60899 -48.9631 949.19 0.015046395 0.48481339 -0.87448823 0.037164647
135.242 -48.959499 949.08197 0.067802384 0.40213013 -0.91306853 0
135.819 -48.969898 949.27002 0.10705049 0.39127254 -0.91402739 0
136.33299 -48.957901 949.02399 0.1551252 0.33594656 -0.92901891 0
137.451 -48.965599 949.14801 0.2146389 0.31000912 -0.92618817 0
138.60001 -48.984699 949.49103 0.29395604 0.35245287 -0.8884632 0.059570082
129.797 -48.4235 949.453 -0.095984273 0.64798528 -0.75558066 0.035776578
130.884 -48.420101 949.35999 -0.072129205 0.6013425 -0.79572904 0.011350293
131.959 -48.412399 949.185 -0.044480756 0.60442418 -0.79541993 0.040240522
132.504 -48.411598 949.15503 -0.058812443 0.6438601 -0.76287961 0.062427759
133.082 -48.422798 949.36102 -0.019509535 0.56150681 -0.82724214 0.005357754
133.649 -48.429401 949.479 0.0070912871 0.59320974 -0.8050167 0.019314617
134.13499 -48.407299 949.03198 0.0052811396 0.55332899 -0.83294612 0.038295079
134.735 -48.4259 949.38397 0.010851639 0.50948805 -0.86040932 0
135.256 -48.416401 949.18402 0.040961269 0.5108034 -0.8587212 0
136.89799 -48.415901 949.13501 0.19968852 0.48515519 -0.85132188 0.036898136
132.651 -74.256599 949.93597 -0.04301019 -0.14940107 -0.98784083 0
134.84399 -74.256203 949.88098 0.0011187249 -0.15517372 -0.98788655 0
132.097 -73.704803 949.91602 -0.058703251 -0.15186657 -0.98665625 0
132.646 -73.7052 949.90802 -0.048822604 -0.16297716 -0.98542112 0
134.828 -73.698502 949.77301 0.016619787 -0.15752245 -0.98737556 0.053208198
135.395 -73.7089 949.89301 0.05165926 -0.14917734 -0.98746014 0.054454364
129.90199 -73.155197 949.961 -0.15296543 -0.16430493 -0.97447705 0
130.451 -73.155602 949.953 -0.12721685 -0.15619151 -0.97949994 0
132.086 -73.149498 949.83801 -0.039199397 -0.15516812 -0.98711008 0
132.633 -73.149101 949.82001 -0.049653009 -0.14599237 -0.9880389 0
133.202 -73.160103 949.95001 -0.025485946 -0.15022385 -0.98832351 0.0022185131
133.74899 -73.1595 949.92902 -0.043878969 -0.1408297 -0.989061 0
134.306 -73.164398 949.97998 0.014061855 -0.15332104 -0.98807639 0.041462503
134.815 -73.142998 949.69 0.033765767 -0.18441685 -0.98226798 0.097470239
135.95399 -73.165604 949.95898 0.054824069 -0.13071316 -0.98990327 0
137.054 -73.167198 949.953 0.11120186 -0.12309233 -0.98614526 0.013647465
129.338 -72.597702 949.86499 -0.16978081 -0.18048003 -0.96881449 0.02449986
129.90199 -72.6064 949.966 -0.16666816 -0.15897997 -0.97311211 0
130.42 -72.589302 949.73102 -0.13321671 -0.15490521 -0.97890639 0
132.07201 -72.593498 949.74902 -0.031690776 -0.15169959 -0.9879185 0
