# .PCD v0.7 - Point Cloud Data file format
VERSION 0.7
FIELDS x y z normal_x normal_y normal_z curvature
SIZE 4 4 4 4 4 4 4
TYPE F F F F F F F
COUNT 1 1 1 1 1 1 1
WIDTH 714
HEIGHT 1
VIEWPOINT 0 0 0 1 0 0 0
POINTS 714
DATA ascii
21.695805 14.675144 9.0973797 -0.25368968 0.96728528 0.0008165476 0
22.724209 15.136024 9.0883036 -0.56480789 0.82522202 -0.00078717165 0
37.727928 14.02492 9.4920464 0.275518 -0.95991105 0.051581096 0
38.482159 14.218182 9.0797186 0.27551749 -0.95991117 0.051581088 0
39.85741 14.613654 9.1184034 0.27551761 -0.95991111 0.051581081 0
41.273064 15.020053 9.1453133 0.2755174 -0.95991123 0.051581092 0
42.290516 15.306233 9.0565796 0.27551851 -0.95991093 0.051581126 0
0.54055643 16.096684 9.096736 -0.99583578 -0.076036483 0.050294578 0
18.157784 16.576797 9.2216377 0.97470576 0.2234921 -0.00016715872 0
18.493168 15.90003 9.1125383 0.83146107 0.5555827 -0.00053914113 0
23.497021 16.084999 9.0903568 -0.87665367 0.4811216 -0.00064704893 0
42.986565 15.513608 9.1457558 0.31014308 -0.94880265 0.059873171 0
44.040955 16.151241 9.0763683 0.72000372 -0.68046588 0.13623828 0
0.4630692 17.503302 9.1227303 -0.99867976 -0.0018264492 0.051335353 0
18.029316 17.463825 9.0842495 0.9997741 0.021245828 0.00068334566 0
23.793036 17.595671 9.0199385 -0.99946392 -0.032738436 -0.00017140467 0
23.876543 17.55278 9.0848341 -0.99935812 -0.035738535 0.0024535302 0
44.631489 17.491724 9.1801729 0.98271245 -0.014136743 0.18459804 0
44.807621 17.439037 8.4740295 0.97895551 -0.057061229 0.195934 0
0.53236777 18.888294 9.0780907 -0.99612927 0.071841978 0.050647743 0
18.157778 18.42318 9.1018419 0.97470576 -0.22349215 2.2943355e-05 0
18.486876 19.091658 9.1299486 0.8267253 -0.56260341 -0.0016062647 0
23.476942 18.943434 9.0967188 -0.86944991 -0.49402085 -0.00020722227 0
42.993 19.485802 9.1244106 0.30415195 0.95089418 0.05737577 0
44.035984 18.875765 9.0771761 0.68849003 0.7137273 0.12874348 0
0.66008782 20.309599 9.0978985 -0.98952401 0.13452554 0.052395176 0
19.213881 19.883766 9.0974846 0.56379288 -0.82591623 -0.0001322864 0
20.284346 20.341743 9.100666 0.22339928 -0.97472566 0.0016275819 0
21.713539 20.315847 9.1338072 -0.24703032 -0.96900731 -0.00087001966 0
22.731503 19.856792 9.1506557 -0.57629454 -0.81724101 -0.001301154 0
37.713013 20.979879 9.4821882 0.27551794 0.95991099 0.051581085 0
38.509438 20.773623 9.0870066 0.27551749 0.95991117 0.051581088 0
39.882805 20.377214 9.1526327 0.27551743 0.95991123 0.051581092 0
41.31184 19.96866 9.1489382 0.2755174 0.95991123 0.051581092 0
42.285069 19.696884 9.0279827 0.27551848 0.95991093 0.051581129 0
0.91522479 21.739126 9.0788345 -0.97998452 0.19243036 0.05099953 0
33.179359 22.29565 9.1339369 0.27551866 0.95991093 0.051581118 0
34.331005 21.966381 9.1313305 0.27551734 0.95991129 0.0515811 0
35.694229 21.577179 9.1178122 0.27551755 0.95991117 0.051581088 0
37.030132 21.198505 9.0548506 0.275518 0.95991105 0.051581062 0
37.836601 21.0012 8.4421101 0.27551803 0.95991105 0.051581103 0
1.2013966 22.759018 9.0418062 -0.91008192 0.40974832 0.062106919 0
1.6705525 23.494205 9.1333065 -0.70869076 0.70262998 0.063785233 0
27.935883 23.778311 9.4486723 0.27551797 0.95991111 0.051581088 0
28.659986 23.590134 9.1011858 0.27551749 0.95991117 0.051581088 0
30.130423 23.171171 9.0711079 0.27551737 0.95991123 0.051581096 0
31.524654 22.772682 9.0655556 0.27551749 0.95991117 0.051581085 0
32.534668 22.48612 9.0227385 0.27551857 0.95991093 0.051581122 0
2.3758566 24.024939 9.1084423 -0.44016355 0.89543056 0.066784918 0
3.4751697 24.322403 9.0803347 -0.15523519 0.98638618 0.05426215 0
4.8902311 24.452068 9.1605263 -0.082841977 0.99520963 0.051914334 0
6.2689247 24.568724 9.1269188 -0.08284197 0.99520957 0.051914319 0
7.6750407 24.687635 9.0940189 -0.08284197 0.99520957 0.051914323 0
9.1211739 24.808001 9.0967646 -0.08284197 0.99520957 0.051914327 0
10.487896 24.92292 9.0771332 -0.08284197 0.99520957 0.051914327 0
11.86736 25.033886 9.1532011 -0.082841977 0.99520957 0.051914323 0
13.166634 25.139046 9.2123632 -0.082841933 0.99520892 0.051927537 0
14.2016 25.1982 9.7275505 -0.082842067 0.99520963 0.051914383 0
23.393679 25.089855 9.2228298 0.27551857 0.95991093 0.051581126 0
24.510057 24.778746 9.0720921 0.27551737 0.95991123 0.051581096 0
25.896545 24.382101 9.0733824 0.27551743 0.95991117 0.051581092 0
27.273426 23.988125 9.0758314 0.2755174 0.95991123 0.051581096 0
13.762317 25.214289 8.7256775 -0.082842067 0.99520957 0.051914383 0
14.713035 25.273479 9.1063681 -0.082841977 0.99520952 0.051914334 0
16.106401 25.389046 9.1168718 -0.082841977 0.99520952 0.051914334 0
17.500448 25.505449 9.1124954 -0.08284197 0.99520957 0.051914327 0
18.90127 25.622816 9.1004572 -0.082841977 0.99520963 0.051914334 0
20.283936 25.739103 9.0758553 -0.067498766 0.99630034 0.053194121 0
21.676706 25.587814 9.097209 0.27428642 0.96025121 0.051812995 0
22.745094 25.284124 9.062108 0.27551848 0.95991093 0.051581126 0
15.039966 9.7651911 10.359857 -0.082842 -0.99520957 0.051914375 0
16.078192 9.6857977 10.495328 -0.082841977 -0.99520963 0.051914334 0
17.485723 9.569437 10.513103 -0.08284197 -0.99520963 0.051914323 0
18.855995 9.4555397 10.518601 -0.082841977 -0.99520957 0.051914331 0
20.262442 9.3380013 10.505001 -0.068539627 -0.99629021 0.052039791 0
21.694048 9.4943027 10.512704 0.27423266 -0.96028066 0.051550709 0
22.600264 9.7430658 10.321039 0.27551812 -0.95991099 0.051581107 0
2.4173701 11.043776 10.544191 -0.45014656 -0.89075935 0.062576301 0
3.474396 10.758765 10.488256 -0.16645165 -0.98453385 0.05465439 0
4.8728514 10.622508 10.551098 -0.08284197 -0.99520952 0.051914323 0
6.303524 10.499717 10.483149 -0.08284197 -0.99520957 0.051914323 0
7.7005672 10.384239 10.501161 -0.082841977 -0.99520957 0.051914331 0
9.1687222 10.26341 10.530025 -0.082841977 -0.99520957 0.051914331 0
10.458781 10.153748 10.488979 -0.082841977 -0.99520957 0.051914338 0
11.897186 10.030976 10.433649 -0.082841977 -0.99520963 0.051914334 0
13.287388 9.9167852 10.465348 -0.08284197 -0.99520952 0.051914327 0
14.457545 9.8288937 10.648284 -0.082842022 -0.99520957 0.051914416 0
23.267828 9.9463415 10.547268 0.27551782 -0.95991105 0.051581066 0
24.551525 10.311943 10.518186 0.27551746 -0.95991123 0.051581092 0
25.910721 10.697052 10.450871 0.27551752 -0.95991117 0.051581088 0
27.148485 11.050824 10.445841 0.27551836 -0.95991099 0.051581096 0
1.2665114 12.308858 10.499972 -0.90228581 -0.42753673 0.055612758 0
1.7464999 11.58223 10.520161 -0.7349599 -0.675331 0.061336014 0
27.837765 11.257105 10.613185 0.27551809 -0.95991099 0.051581107 0
28.705818 11.497072 10.46063 0.2755174 -0.95991117 0.051581092 0
30.113211 11.900117 10.469374 0.27551737 -0.95991123 0.051581096 0
31.494513 12.297867 10.517962 0.27551755 -0.95991117 0.051581088 0
32.382099 12.547175 10.434216 0.27551809 -0.95991099 0.051581107 0
0.98980933 13.255985 10.49315 -0.97840005 -0.20018424 0.051571846 0
33.067928 12.747882 10.517356 0.275518 -0.95991105 0.051581062 0
34.296402 13.09828 10.499213 0.2755174 -0.95991123 0.051581096 0
35.721256 13.507314 10.526165 0.27551746 -0.95991123 0.051581092 0
36.908947 13.846848 10.522827 0.27551788 -0.95991111 0.051581066 0
0.72904438 14.731218 10.479993 -0.99100977 -0.1232465 0.052057724 0
19.253019 15.086467 10.488836 0.53036362 0.84773988 -0.0071881302 0
20.244135 14.669946 10.486857 0.25048193 0.96811998 0.0015425463 0
21.739594 14.690884 10.508485 -0.27173975 0.96237069 0.00026939844 0
22.728441 15.144165 10.457881 -0.59530711 0.80348885 0.0038878294 0
37.611584 14.054111 10.638199 0.27551806 -0.95991099 0.051581103 0
38.51503 14.304599 10.492641 0.27551752 -0.95991117 0.051581085 0
39.861927 14.691412 10.521466 0.27551749 -0.95991117 0.051581088 0
41.248501 15.088317 10.526625 0.27551731 -0.95991123 0.0515811 0
42.185886 15.347041 10.354217 0.27551806 -0.95991105 0.051581107 0
0.61022049 16.114424 10.4976 -0.99544662 -0.081500322 0.049434517 0
18.157106 16.579718 10.528762 0.97470564 0.2234921 -0.00039003699 0
18.508982 15.877778 10.549407 0.82164109 0.57000369 0.0013779179 0
23.478298 16.068497 10.528913 -0.88006711 0.47484931 -0.00017996345 0
42.895607 15.581478 10.501534 0.37900844 -0.9227345 0.070097275 0
43.893147 16.25139 10.463492 0.74402022 -0.65345639 0.1393868 0
0.53292686 17.485559 10.457973 -0.99864775 0.00018289257 0.051986758 0
18.02412 17.50172 10.466175 0.99997801 0.0062379455 0.0022581422 0
23.794649 17.216421 10.527548 -0.99520624 0.097796924 0.00051202346 0
23.880033 17.531178 10.490936 -0.99958307 -0.028841387 0.0013498093 0
44.372826 17.499413 10.520785 0.98269176 -0.015187694 0.18462442 0
0.60816109 18.939301 10.499205 -0.99599928 0.073538877 0.050768774 0
18.153774 18.405672 10.490009 0.9747057 -0.22349209 5.4005126e-05 0
18.492249 19.100853 10.514095 0.82646793 -0.56298077 0.0018501552 0
23.499834 18.905695 10.502131 -0.87456739 -0.48490378 0.00051700167 0
42.927586 19.413212 10.49399 0.35699099 0.93166697 0.067484051 0
43.939465 18.728231 10.466302 0.75512701 0.64012551 0.14150128 0
0.72799307 20.253754 10.533205 -0.9899832 0.13097294 0.052718736 0
19.218725 19.890526 10.498057 0.55831105 -0.82963139 0.0006684867 0
20.268511 20.34115 10.558653 0.23522404 -0.97193974 0.0016459384 0
21.731764 20.311224 10.519585 -0.26992342 -0.96288115 0.0011018459 0
22.728867 19.862103 10.453224 -0.57165724 -0.82049197 -0.0010514637 0
37.618912 20.943283 10.647477 0.27551812 0.95991105 0.051581111 0
38.429306 20.717073 10.544883 0.27551758 0.95991111 0.051581081 0
39.886688 20.302351 10.505731 0.27551731 0.95991129 0.0515811 0
41.322983 19.892799 10.482262 0.27551749 0.95991117 0.051581085 0
42.190762 19.646591 10.445617 0.27551806 0.95991099 0.051581103 0
0.97094131 21.631929 10.550918 -0.97970551 0.19369578 0.051565912 0
33.089931 22.245184 10.529066 0.27551836 0.95991099 0.051581096 0
34.290192 21.903492 10.499367 0.27551743 0.95991117 0.051581092 0
35.702168 21.500505 10.482963 0.27551734 0.95991123 0.051581096 0
36.945698 21.145004 10.479557 0.27551806 0.95991105 0.051581055 0
1.2600207 22.691626 10.395143 -0.90295708 0.42607874 0.055906251 0
1.7520454 23.424852 10.517556 -0.73251194 0.67748976 0.066586837 0
27.825689 23.748123 10.580578 0.27551809 0.95991105 0.051581107 0
28.722404 23.496798 10.486079 0.27551726 0.95991129 0.051581103 0
30.08333 23.108839 10.461739 0.27551746 0.95991123 0.051581092 0
31.474421 22.710863 10.463147 0.27551755 0.95991117 0.051581088 0
32.404804 22.450851 10.351244 0.27551809 0.95991099 0.051581107 0
2.4494793 23.970827 10.491941 -0.42085838 0.90502459 0.06171535 0
3.5499947 24.250757 10.520735 -0.15376414 0.98637033 0.058568493 0
4.8361974 24.376635 10.50939 -0.082841977 0.99520957 0.051914331 0
6.2854691 24.496737 10.522035 -0.082841977 0.99520957 0.051914334 0
7.7245021 24.618422 10.488479 -0.082841977 0.99520957 0.051914327 0
9.0995512 24.733173 10.485548 -0.08284197 0.99520957 0.051914327 0
10.527822 24.851318 10.502039 -0.082841977 0.99520957 0.051914331 0
11.91375 24.967497 10.489098 -0.082841977 0.99520957 0.051914331 0
13.352241 25.087807 10.480837 -0.08284197 0.99520957 0.051914323 0
14.418372 25.167467 10.655273 -0.082842007 0.99520957 0.051914394 0
23.300522 25.046684 10.503373 0.27551815 0.95991099 0.051581066 0
24.540783 24.691565 10.509975 0.27551743 0.95991117 0.051581088 0
25.863932 24.31245 10.52204 0.27551726 0.95991129 0.051581103 0
27.178755 23.940216 10.45142 0.27551821 0.95991099 0.051581074 0
15.068512 25.237156 10.360498 -0.082842022 0.99520957 0.05191442 0
16.082109 25.312954 10.525182 -0.082841977 0.99520957 0.051914331 0
17.513002 25.430944 10.549097 -0.082841977 0.99520957 0.051914331 0
18.920959 25.55335 10.452551 -0.082841977 0.99520963 0.051914323 0
20.2763 25.663305 10.503404 -0.074042447 0.99598712 0.050273992 0
21.681311 25.507441 10.547467 0.27550599 0.95991385 0.051593453 0
22.583912 25.254868 10.444544 0.27551812 0.95991099 0.051581107 0
15.329081 9.7929287 11.3454 -0.082842067 -0.99520957 0.051914379 0
16.227079 9.7430506 11.819869 -0.082841985 -0.99520963 0.051914338 0
17.461386 9.6435966 11.884689 -0.08284197 -0.99520957 0.051914327 0
18.939156 9.5221844 11.917665 -0.082841977 -0.99520957 0.051914331 0
20.28348 9.4070568 11.8549 -0.07050997 -0.9961471 0.052146848 0
21.713675 9.5749731 11.889565 0.27316821 -0.96056426 0.051916357 0
22.473221 9.7823153 11.707745 0.275518 -0.95991105 0.051581096 0
2.5556087 11.063694 11.846442 -0.34106547 -0.93806207 0.060941454 0
3.465821 10.840842 11.932222 -0.17111231 -0.9837032 0.055213485 0
4.898726 10.692687 11.926431 -0.082841977 -0.99520963 0.051914334 0
6.3010197 10.574615 11.90353 -0.082841985 -0.99520957 0.051914345 0
7.7121944 10.457582 11.914225 -0.082841977 -0.99520957 0.051914334 0
9.0387783 10.343611 11.849269 -0.082841977 -0.99520957 0.051914334 0
10.454593 10.228632 11.906308 -0.082841977 -0.99520957 0.051914327 0
11.891729 10.106356 11.858451 -0.08284197 -0.99520957 0.051914323 0
13.340656 9.9858646 11.863313 -0.08284197 -0.99520957 0.051914327 0
14.701057 9.8766708 11.942634 -0.082841977 -0.99520963 0.051914334 0
15.610309 9.8176241 12.260629 -0.082842059 -0.99520957 0.051914398 0
23.124254 9.9804373 11.926068 0.27551755 -0.95991117 0.051581085 0
24.532675 10.385708 11.97033 0.27551758 -0.95991111 0.051581081 0
25.889133 10.772481 11.947991 0.2755174 -0.95991123 0.051581096 0
27.012081 11.093494 11.944418 0.27551857 -0.95991093 0.051581118 0
1.2967948 12.413888 11.832153 -0.90115559 -0.42998746 0.055039242 0
1.8122448 11.64879 11.953273 -0.73609579 -0.67411715 0.061066315 0
27.66329 11.280663 11.96111 0.2755183 -0.95991093 0.051581137 0
28.685108 11.569204 11.892518 0.27551743 -0.95991117 0.051581092 0
30.115044 11.980049 11.92614 0.27551728 -0.95991129 0.051581107 0
31.500422 12.375598 11.913015 0.27551728 -0.95991123 0.0515811 0
32.262772 12.573369 11.540762 0.275518 -0.95991105 0.051581096 0
1.0470779 13.34259 11.901797 -0.976686 -0.20808178 0.052788161 0
32.900482 12.775055 11.894392 0.27551758 -0.95991111 0.051581081 0
34.276398 13.169826 11.91674 0.2755174 -0.95991117 0.051581092 0
35.721256 13.581463 11.886381 0.2755177 -0.95991111 0.051581074 0
36.81065 13.888615 11.804876 0.27551866 -0.95991087 0.051581118 0
0.80677658 14.695071 11.854 -0.98955476 -0.13435152 0.052258525 0
19.220524 15.107276 11.913008 0.55633998 0.83095449 -0.00066076696 0
20.294453 14.662058 11.883876 0.2261178 0.97409731 -0.0022871187 0
21.703648 14.677561 11.89076 -0.25893074 0.96589577 -0.00047246675 0
22.702675 15.121077 11.87796 -0.56748062 0.82338607 0.0010882963 0
37.476768 14.085988 11.930453 0.27551839 -0.95991099 0.051581133 0
38.468536 14.369577 11.928648 0.2755174 -0.95991123 0.051581096 0
39.949173 14.791076 11.891788 0.27551791 -0.95991099 0.051581062 0
41.327072 15.187347 11.930903 0.27551427 -0.95991218 0.051580504 0
42.069965 15.384155 11.643123 0.27551797 -0.95991105 0.051581088 0
0.68390858 16.08493 11.913271 -0.995502 -0.080773979 0.049511254 0
18.154224 16.592379 11.836497 0.97470576 0.22349212 -0.0002181563 0
18.500956 15.889067 11.920429 0.82871443 0.55966932 -0.0016062891 0
23.482515 16.068504 11.913701 -0.87969536 0.47553709 0.00075733144 0
42.769844 15.651542 11.896996 0.4101074 -0.90867889 0.078195825 0
43.716721 16.328938 11.906507 0.78015369 -0.6069988 0.15136884 0
0.60750079 17.560459 11.875059 -0.99863505 0.0032007983 0.052133154 0
18.025518 17.532948 11.887834 0.99992424 -0.012251101 -0.001164823 0
23.793325 17.498993 11.842779 -1 2.1839814e-09 0 0
23.874392 17.525871 11.93387 -0.99984837 -0.017393995 0.00089590542 0
44.106537 17.47681 11.950298 0.98226821 -0.036429491 0.18390766 0
0.67646712 18.902115 11.910604 -0.99592602 0.075000301 0.050064366 0
18.153122 18.402805 11.856006 0.97470576 -0.22349197 9.4873831e-05 0
18.512016 19.125471 11.908357 0.8228187 -0.5683037 -0.00060087541 0
23.471094 18.944889 11.845428 -0.87312537 -0.48749563 -0.0003219666 0
41.965199 19.594801 12.5788 0.27551803 0.95991105 0.051581103 0
42.768925 19.353844 11.988342 0.39080727 0.91762143 0.072391361 0
43.738224 18.656511 11.929373 0.79625082 0.58577245 0.15117985 0
0.80760646 20.30995 11.906886 -0.9889484 0.13868059 0.052428156 0
19.24201 19.899914 11.820824 0.56209761 -0.82707083 0.00035815811 0
20.273125 20.340954 11.864497 0.23550026 -0.97187412 0.00057822705 0
21.696737 20.316338 11.927567 -0.24961115 -0.96834594 0.0006130659 0
22.738289 19.850533 11.848211 -0.60089177 -0.79932958 -0.0011215295 0
37.460335 20.91608 11.978518 0.27551851 0.95991093 0.051581126 0
38.538509 20.614515 11.853438 0.27551752 0.95991117 0.051581088 0
39.924915 20.214363 11.919113 0.27551743 0.95991123 0.051581092 0
41.280552 19.826624 11.918946 0.27551743 0.95991117 0.051581088 0
42.090775 19.617134 11.51031 0.27551797 0.95991105 0.051581088 0
1.0565808 21.705669 11.903073 -0.97714722 0.2063439 0.051044039 0
32.194302 22.395 12.4809 0.27551803 0.95991105 0.051581103 0
32.945488 22.211309 11.908395 0.27551761 0.95991117 0.051581081 0
34.29023 21.829268 11.860715 0.2755174 0.95991123 0.051581092 0
35.690132 21.425018 11.930988 0.2755174 0.95991123 0.051581096 0
36.787556 21.111338 11.926908 0.27551857 0.95991087 0.051581118 0
1.3034178 22.587437 11.946733 -0.90140468 0.42962927 0.053742807 0
1.7795972 23.313948 11.897442 -0.75320882 0.65495563 0.060907569 0
27.701731 23.706263 11.999156 0.27551836 0.95991099 0.051581133 0
28.659451 23.436457 11.923229 0.27551755 0.95991117 0.051581085 0
30.102962 23.026213 11.874672 0.27551767 0.95991117 0.051581081 0
31.508354 22.627155 11.820819 0.27551749 0.95991117 0.051581085 0
32.270336 22.417234 11.67346 0.27551794 0.95991105 0.051581085 0
2.5173843 23.918297 11.816916 -0.39540306 0.91632521 0.063281141 0
3.4578106 24.15774 11.907722 -0.18343292 0.98153383 0.054256752 0
4.8621182 24.30739 11.86711 -0.08284197 0.99520957 0.051914327 0
6.2773662 24.426287 11.848907 -0.082841977 0.99520957 0.051914342 0
7.7194891 24.542973 11.915294 -0.082841977 0.99520957 0.051914327 0
9.0959778 24.661039 11.851253 -0.082841977 0.99520957 0.051914331 0
10.496798 24.776226 11.880721 -0.082841977 0.99520957 0.051914338 0
11.840878 24.888557 11.874437 -0.082841977 0.99520957 0.051914334 0
13.296966 25.01004 11.871834 -0.08284197 0.99520957 0.051914327 0
14.654058 25.122549 11.882756 -0.082841977 0.99520957 0.051914327 0
15.59478 25.182964 12.224806 -0.082842089 0.99520957 0.05191442 0
22.376801 25.1982 12.5715 0.27551803 0.95991105 0.051581103 0
23.183237 25.001986 11.939013 0.27551767 0.95991117 0.051581081 0
24.508434 24.626171 11.879652 0.27551755 0.95991117 0.051581085 0
25.90476 24.227983 11.857395 0.27551734 0.95991129 0.0515811 0
27.004265 23.916115 11.80919 0.27551863 0.95991087 0.051581115 0
15.3368 25.206051 11.377125 -0.082842067 0.99520963 0.051914383 0
16.136992 25.24963 11.816411 -0.082841977 0.99520952 0.051914345 0
17.503815 25.359142 11.899616 -0.08284197 0.99520963 0.051914323 0
18.885387 25.476316 11.861266 -0.082841977 0.99520957 0.051914331 0
20.292534 25.59041 11.913255 -0.064364351 0.99665147 0.050428685 0
21.67798 25.436207 11.87182 0.27339971 0.96048295 0.052201871 0
22.457106 25.225763 11.643905 0.27551794 0.95991105 0.051581081 0
16.560333 9.7805119 13.060373 -0.082842082 -0.99520957 0.051914424 0
17.521439 9.7154598 13.346272 -0.08284197 -0.99520957 0.051914323 0
18.914909 9.5992069 13.343855 -0.082841977 -0.99520957 0.051914327 0
20.294027 9.4817419 13.281879 -0.059804894 -0.99674875 0.053992886 0
21.603121 9.6174431 13.248778 0.27460358 -0.96018279 0.05139919 0
2.6049349 11.133527 13.317318 -0.32117298 -0.94513321 0.059757881 0
3.4604454 10.917408 13.303147 -0.18103802 -0.9819572 0.054638516 0
4.8792944 10.765606 13.282293 -0.08284197 -0.99520957 0.051914323 0
6.303443 10.648805 13.318023 -0.082841977 -0.99520957 0.051914331 0
7.6856689 10.533034 13.306925 -0.082841977 -0.99520963 0.051914334 0
9.058672 10.421636 13.364288 -0.08284197 -0.99520957 0.051914327 0
10.493046 10.29955 13.315765 -0.08284197 -0.99520957 0.051914327 0
11.924111 10.178649 13.284513 -0.082841977 -0.99520963 0.051914334 0
13.313956 10.063803 13.303036 -0.082841977 -0.99520952 0.051914334 0
14.701051 9.9484797 13.308075 -0.08284197 -0.99520957 0.051914327 0
15.978937 9.843008 13.327432 -0.082841977 -0.99520957 0.051914342 0
16.834234 9.8029633 13.9213 -0.082842059 -0.99520952 0.051914379 0
22.297876 9.8334169 13.565285 0.27551791 -0.95991105 0.051581092 0
23.094881 10.044468 13.254817 0.27551737 -0.95991123 0.051581096 0
24.482006 10.444145 13.308149 0.27551776 -0.95991111 0.051581074 0
25.925869 10.856891 13.30363 0.27551761 -0.95991111 0.051581081 0
26.867332 11.12339 13.252373 0.27551815 -0.95991105 0.051581115 0
1.3470973 12.457265 13.008441 -0.90171051 -0.42863825 0.056456748 0
1.871649 11.722875 13.346491 -0.74281448 -0.66674376 0.060657762 0
27.585396 11.332219 13.315619 0.27551857 -0.95991087 0.051581115 0
28.729856 11.660538 13.333268 0.27551752 -0.95991123 0.051581088 0
30.092628 12.047661 13.284297 0.27551758 -0.95991111 0.051581081 0
31.406029 12.424928 13.313224 0.27551782 -0.95991111 0.051581074 0
1.1382918 13.26267 13.327725 -0.97596776 -0.21168457 0.051734976 0
32.068069 12.623837 13.488437 0.27551794 -0.95991111 0.051581096 0
32.876804 12.842405 13.254296 0.2755174 -0.95991123 0.051581096 0
34.260498 13.239959 13.286748 0.27551728 -0.95991129 0.051581103 0
35.67403 13.646421 13.326145 0.27551726 -0.95991129 0.051581103 0
36.645576 13.919492 13.23757 0.27551833 -0.95991093 0.051581137 0
0.88149548 14.730214 13.332788 -0.99074012 -0.12535481 0.052154925 0
19.19989 15.119497 13.199647 0.58737278 0.80931419 0.0019230165 0
20.262657 14.665705 13.313288 0.23930904 0.97094327 0.00063474459 0
21.695192 14.681568 13.312258 -0.2421632 0.97023433 0.0015481154 0
22.746689 15.155256 13.368804 -0.60216546 0.79837132 -0.00020119338 0
37.341461 14.123972 13.33729 0.27551845 -0.95991093 0.051581107 0
38.524281 14.462101 13.333584 0.27551755 -0.95991123 0.051581088 0
39.911987 14.856292 13.283402 0.27551758 -0.95991111 0.051581081 0
41.186684 15.221927 13.302135 0.27551812 -0.95991111 0.051581062 0
0.74995536 16.079483 13.23649 -0.99535412 -0.082751118 0.049218126 0
18.15353 16.595423 13.318689 0.97470582 0.223492 3.2503074e-05 0
18.502247 15.885428 13.308681 0.82775521 0.56108665 -0.0017503484 0
23.483541 16.07723 13.259347 -0.87838721 0.4779487 -0.00096319529 0
41.906681 15.433816 13.411174 0.27551791 -0.95991105 0.051581092 0
42.749844 15.777393 13.322699 0.47483212 -0.87556589 0.08898738 0
43.573181 16.477135 13.252728 0.85608661 -0.49127743 0.16050589 0
0.68292481 17.520376 13.308211 -0.99864674 0.0010617058 0.051994748 0
18.0287 17.474009 13.321868 0.99999785 0.0020008634 -0.00063951756 0
23.792852 17.501673 13.12339 -1 -1.2739892e-09 0.00010003969 0
23.871092 17.496593 13.347799 -0.99991369 0.012851638 -0.0027431899 0
43.847488 17.519405 13.304384 0.98207438 0.0023149147 0.18847956 0
0.74230874 18.847662 13.297141 -0.99593735 0.074893788 0.049996827 0
18.149193 18.385551 13.297357 0.9747057 -0.22349212 0.00031502987 0
18.528389 19.149681 13.246876 0.81547838 -0.57878369 -0.0021122019 0
23.454439 18.976038 13.340781 -0.86241978 -0.50619382 -2.7325761e-05 0
41.856911 19.573322 13.541215 0.27551797 0.95991105 0.051581088 0
42.773403 19.223959 13.294856 0.47849277 0.87352169 0.089468114 0
43.602547 18.510731 13.238001 0.84813863 0.50466311 0.16117051 0
0.87878269 20.296576 13.30114 -0.98873478 0.14001468 0.05291006 0
19.198946 19.877846 13.259374 0.58184808 -0.81329536 -0.0018357633 0
20.259161 20.3377 13.315436 0.22220421 -0.97500002 0.0005300552 0
21.768969 20.295061 13.364357 -0.27411291 -0.96169716 0.00082561013 0
22.731951 19.855185 13.313007 -0.58022702 -0.81444603 0.0037800681 0
37.376873 20.870232 13.257662 0.2755186 0.95991087 0.051581115 0
38.468079 20.555382 13.307724 0.27551743 0.95991123 0.051581092 0
39.88834 20.14995 13.292771 0.27551767 0.95991111 0.051581077 0
41.214325 19.770947 13.287917 0.27551758 0.95991117 0.051581085 0
1.1226597 21.672228 13.283926 -0.97736472 0.20522308 0.051397465 0
32.113667 22.363882 13.473996 0.27551794 0.95991111 0.051581096 0
32.886181 22.150169 13.341426 0.27551737 0.95991123 0.051581096 0
34.295483 21.745523 13.369527 0.27551734 0.95991129 0.0515811 0
35.686165 21.351301 13.304329 0.27551726 0.95991129 0.051581103 0
36.66267 21.073776 13.271282 0.2755183 0.95991093 0.051581137 0
1.3466797 22.51491 13.246626 -0.90344357 0.42527291 0.054153759 0
1.8425397 23.239134 13.293291 -0.76504678 0.64123899 0.059296075 0
27.575033 23.670696 13.316667 0.27551839 0.95991093 0.0515811 0
28.728989 23.339418 13.338531 0.27551749 0.95991117 0.051581088 0
30.089762 22.955608 13.239255 0.27551767 0.95991111 0.051581077 0
31.383425 22.584358 13.261677 0.27551782 0.95991111 0.05158107 0
2.6010187 23.861673 13.184769 -0.32374495 0.94408345 0.062415414 0
3.5010483 24.086233 13.322892 -0.18378723 0.98149496 0.053758238 0
4.878737 24.234037 13.288281 -0.082841977 0.99520957 0.051914334 0
6.311399 24.354504 13.267667 -0.08284197 0.99520957 0.051914323 0
7.6615071 24.46772 13.254414 -0.08284197 0.99520957 0.051914319 0
9.0965271 24.585184 13.294532 -0.082841977 0.99520957 0.051914338 0
10.447305 24.695736 13.332724 -0.082841977 0.99520963 0.051914334 0
11.934004 24.816734 13.38778 -0.08284197 0.99520957 0.051914319 0
13.289809 24.935675 13.274482 -0.08284197 0.99520957 0.051914327 0
14.724832 25.054417 13.290644 -0.08284197 0.99520957 0.051914323 0
16.023947 25.157421 13.39054 -0.082841985 0.99520957 0.051914357 0
16.8356 25.195702 13.94884 -0.082842067 0.99520957 0.051914379 0
22.301226 25.175598 13.382109 0.27551791 0.95991111 0.0515811 0
23.164146 24.932905 13.306649 0.27551737 0.95991123 0.051581096 0
24.480808 24.556839 13.296501 0.2755174 0.95991123 0.051581096 0
25.901224 24.151672 13.275708 0.27551761 0.95991117 0.051581081 0
26.848831 23.884338 13.207682 0.27551839 0.95991093 0.051581129 0
16.575415 25.221735 13.041335 -0.082842089 0.99520952 0.051914416 0
17.511562 25.285452 13.313281 -0.08284197 0.99520957 0.051914327 0
18.919565 25.401939 13.329312 -0.08284197 0.99520957 0.051914327 0
20.292572 25.517817 13.29426 -0.062558956 0.99670887 0.051554345 0
21.621872 25.373096 13.323828 0.27379793 0.96040452 0.051553361 0
17.756592 9.7603207 14.571908 -0.082842 -0.99520952 0.051914375 0
18.88188 9.670599 14.648988 -0.082841977 -0.99520957 0.051914331 0
20.300634 9.5550232 14.688779 -0.06925679 -0.99634784 0.049944825 0
21.514521 9.6675987 14.633787 0.27536342 -0.9599579 0.051534932 0
2.7162311 11.169595 14.489106 -0.29022285 -0.95523268 0.057457253 0
3.50547 10.984117 14.685523 -0.17670892 -0.98279232 0.053788658 0
4.8944468 10.839388 14.709321 -0.08284197 -0.99520957 0.051914323 0
6.3035693 10.722637 14.722189 -0.082841977 -0.99520963 0.051914323 0
7.6803827 10.606939 14.703895 -0.082841977 -0.99520957 0.051914338 0
9.1662998 10.48709 14.77941 -0.082841977 -0.99520957 0.051914331 0
10.452811 10.376116 14.707981 -0.08284197 -0.99520957 0.051914323 0
11.85446 10.258592 14.694298 -0.08284197 -0.99520957 0.051914323 0
13.346012 10.132591 14.661837 -0.08284197 -0.99520957 0.051914327 0
14.702599 10.019216 14.655539 -0.08284197 -0.99520957 0.051914316 0
16.145607 9.9011354 14.696876 -0.082841977 -0.99520963 0.051914334 0
17.125788 9.8294725 14.887362 -0.08284203 -0.99520952 0.051914439 0
22.142385 9.8590622 14.851684 0.27551815 -0.95991105 0.051581115 0
23.076401 10.11713 14.68481 0.27551764 -0.95991117 0.051581081 0
24.513016 10.525846 14.644413 0.27551728 -0.95991129 0.051581103 0
25.951668 10.941823 14.726472 0.27551743 -0.95991117 0.051581088 0
26.737165 11.155326 14.521605 0.27551791 -0.95991105 0.051581092 0
1.3625959 12.57834 14.23974 -0.90529692 -0.4212077 0.054969609 0
1.9437609 11.786266 14.661884 -0.72868294 -0.68220872 0.060103618 0
27.449215 11.368982 14.704585 0.275518 -0.95991105 0.051581059 0
28.64526 11.71122 14.706918 0.27551758 -0.95991111 0.051581081 0
30.115164 12.131802 14.709517 0.27551731 -0.95991129 0.0515811 0
31.267689 12.45866 14.657887 0.27551836 -0.95991099 0.051581096 0
1.1984147 13.311627 14.661507 -0.97640687 -0.20957029 0.052057344 0
31.975666 12.673409 14.882723 0.27551809 -0.95991099 0.051581107 0
32.894085 12.925582 14.689611 0.27551749 -0.95991117 0.051581088 0
34.315277 13.332932 14.704848 0.2755174 -0.95991117 0.051581092 0
35.724785 13.736816 14.718034 0.2755174 -0.95991123 0.051581096 0
36.532387 13.960977 14.592731 0.27551794 -0.95991105 0.0515811 0
0.94592011 14.757188 14.661921 -0.99069178 -0.12568451 0.052279964 0
19.239479 15.101183 14.717289 0.54360819 0.83933806 -0.0013884697 0
20.254824 14.669498 14.727366 0.23589468 0.97177857 -0.00013059611 0
21.680277 14.678854 14.753256 -0.23911993 0.97098917 -0.0013154797 0
22.724697 15.137528 14.67976 -0.58657187 0.80989718 -0.0003040233 0
37.19722 14.157966 14.717789 0.27551806 -0.95991105 0.051581059 0
38.497929 14.528396 14.688255 0.27551746 -0.95991123 0.051581092 0
39.865341 14.920974 14.714635 0.27551728 -0.95991129 0.051581103 0
41.087944 15.265896 14.627019 0.2755186 -0.95991087 0.051581115 0
0.81700903 16.119139 14.656357 -0.99538845 -0.082319103 0.049247462 0
18.155483 16.586857 14.676596 0.97470576 0.22349212 -4.0348659e-05 0
18.497297 15.892361 14.715214 0.82652134 0.562904 -0.0012205243 0
23.466278 16.048693 14.722187 -0.86898446 0.49483898 -0.00059609569 0
41.744736 15.462257 14.782698 0.27590567 -0.95980531 0.051475823 0
42.766029 15.977445 14.717733 0.61138868 -0.7834658 0.1112885 0
43.473976 16.630024 14.221649 0.90014166 -0.40415648 0.16248861 0
0.7544927 17.475643 14.678155 -0.99863464 -0.0009339244 0.052230671 0
18.023674 17.483021 14.663366 0.99998516 0.0053837742 -0.00084133528 0
23.792606 17.415226 14.626365 -0.9995895 0.028649729 -0.00029999585 0
23.87476 17.491774 14.743907 -0.99997747 0.006658318 -0.00089332962 0
43.581299 17.493484 14.718734 0.98156244 -0.025890836 0.18938012 0
0.81790543 18.902405 14.709323 -0.99600083 0.074144691 0.049849115 0
18.145203 18.368114 14.6612 0.97470564 -0.22349215 -0.00050874386 0
18.505007 19.122013 14.727717 0.81155956 -0.58426917 -0.00077217381 0
23.495594 18.919792 14.660078 -0.8769511 -0.48057818 0.0011520283 0
41.761806 19.530962 14.817588 0.27569792 0.95985907 0.051586449 0
42.773441 19.026636 14.715492 0.6047042 0.78794807 0.11606316 0
43.464897 18.359739 14.447641 0.88236892 0.43962127 0.16780417 0
0.95379078 20.314026 14.667859 -0.98860222 0.14095312 0.05289508 0
19.254631 19.914762 14.725997 0.52973491 -0.84816319 0.00023553389 0
20.296389 20.34354 14.711434 0.21615522 -0.97635657 -0.0021884071 0
21.741077 20.310976 14.738636 -0.25769138 -0.96622652 -0.0011709991 0
22.744431 19.851955 14.683172 -0.58429003 -0.81153792 -0.0033842961 0
37.260525 20.821814 14.75636 0.275518 0.95991111 0.051581062 0
38.513588 20.4667 14.695671 0.27551737 0.95991123 0.051581096 0
39.868519 20.076653 14.741724 0.27551416 0.95991218 0.051580448 0
41.053261 19.739906 14.702309 0.27551857 0.95991087 0.051581115 0
1.2172219 21.756773 14.73777 -0.97427666 0.21934199 0.051710445 0
31.967665 22.337717 14.720534 0.27551812 0.95991105 0.051581111 0
32.932522 22.061699 14.72108 0.27551746 0.95991123 0.051581092 0
34.307106 21.671228 14.671497 0.27551731 0.95991129 0.0515811 0
35.69453 21.274345 14.6721 0.27551743 0.95991117 0.051581092 0
36.52692 21.031025 14.767933 0.275518 0.95991105 0.051581103 0
1.3757766 22.446299 14.27811 -0.91051918 0.40889257 0.061333586 0
1.9357762 23.182341 14.715928 -0.7293523 0.68138385 0.061329618 0
27.419363 23.639851 14.699043 0.27551782 0.95991105 0.051581066 0
28.692463 23.279831 14.623397 0.27551749 0.95991117 0.051581088 0
30.10557 22.871441 14.7005 0.27551734 0.95991123 0.051581096 0
31.230242 22.551239 14.67286 0.27551851 0.95991087 0.051581111 0
2.7188077 23.820757 14.405457 -0.2869139 0.95607311 0.060039453 0
3.4533856 24.001789 14.723351 -0.20037428 0.9782474 0.053686459 0
4.9107833 24.162838 14.69283 -0.08284197 0.99520957 0.051914327 0
6.3075671 24.278898 14.699506 -0.082841977 0.99520963 0.051914327 0
7.6704493 24.391121 14.725024 -0.082841977 0.99520957 0.051914334 0
9.0562763 24.507866 14.700892 -0.08284197 0.99520957 0.051914323 0
10.511662 24.62941 14.69597 -0.08284197 0.99520957 0.051914327 0
11.842256 24.741484 14.673602 -0.08284197 0.99520957 0.051914323 0
13.267449 24.858494 14.706903 -0.082841977 0.99520957 0.051914331 0
14.7165 24.978226 14.726288 -0.08284197 0.99520957 0.051914319 0
16.096495 25.092983 14.730898 -0.08284197 0.99520952 0.051914323 0
17.149834 25.173592 14.867103 -0.082842037 0.99520957 0.051914442 0
22.164425 25.135324 14.838943 0.27551815 0.95991105 0.051581115 0
23.076221 24.882072 14.700448 0.27551731 0.95991129 0.0515811 0
24.555231 24.457504 14.728421 0.2755174 0.95991123 0.051581096 0
25.911098 24.071892 14.687665 0.27551737 0.95991123 0.051581096 0
26.756201 23.832216 14.649981 0.27551797 0.95991105 0.0515811 0
17.773737 25.240553 14.58239 -0.082841985 0.99520952 0.05191436 0
18.913765 25.330303 14.682178 -0.082841977 0.99520957 0.051914327 0
20.358656 25.448812 14.702418 -0.060865391 0.99679452 0.051923718 0
21.483591 25.341454 14.630029 0.2731452 0.96057212 0.051892325 0
18.059084 9.7920542 15.654751 -0.082842074 -0.99520952 0.051914379 0
18.962608 9.7374716 16.048527 -0.082841977 -0.99520957 0.051914331 0
20.287367 9.6310902 16.097368 -0.056104124 -0.99705893 0.052208968 0
21.377386 9.7069464 16.075388 0.27476344 -0.96012276 0.051665615 0
3.5455306 11.050184 16.07173 -0.18631108 -0.98103833 0.053403798 0
4.8851032 10.914882 16.130068 -0.082841977 -0.99520963 0.051914334 0
6.3270907 10.794459 16.125216 -0.082841977 -0.99520963 0.051914334 0
7.7067871 10.679792 16.131071 -0.08284197 -0.99520957 0.051914327 0
9.0836926 10.562333 16.079296 -0.082841977 -0.99520957 0.051914331 0
10.497602 10.445024 16.089243 -0.08284197 -0.99520957 0.051914319 0
11.910243 10.329166 16.124561 -0.082841977 -0.99520957 0.051914327 0
13.319685 10.209783 16.087803 -0.082841977 -0.99520957 0.051914327 0
14.688981 10.093963 16.055483 -0.08284197 -0.99520957 0.051914323 0
16.067127 9.981966 16.109505 -0.082841985 -0.99520957 0.051914345 0
17.455904 9.8689051 16.16024 -0.082841977 -0.99520957 0.051914331 0
18.347548 9.8107595 16.467537 -0.082842067 -0.99520963 0.051914383 0
22.030005 9.8988867 16.171986 0.27551857 -0.95991087 0.051581115 0
23.136744 10.211885 16.106499 0.2755174 -0.95991123 0.051581096 0
24.502916 10.602062 16.095585 0.27551734 -0.95991129 0.0515811 0
25.840981 10.985485 16.108107 0.27551776 -0.95991111 0.051581074 0
26.656271 11.191915 15.617143 0.275518 -0.95991105 0.0515811 0
2.0426536 11.827632 16.091885 -0.71800905 -0.69314688 0.06332802 0
2.8974831 11.219869 16.234524 -0.29753587 -0.95297706 0.057507746 0
26.552362 11.223021 16.733179 0.275518 -0.95991105 0.051581103 0
27.336679 11.41272 16.097546 0.27551752 -0.95991117 0.051581085 0
28.712198 11.807413 16.120319 0.2755174 -0.95991123 0.051581092 0
30.108463 12.203964 16.068415 0.27551761 -0.95991117 0.051581081 0
31.171894 12.510053 16.103676 0.27551848 -0.95991093 0.051581129 0
1.2602812 13.351155 16.01593 -0.97776681 -0.20280485 0.053312775 0
1.4287587 12.69156 16.153866 -0.93032062 -0.36269358 0.054377727 0
31.831837 12.70016 16.128187 0.27551851 -0.95991087 0.051581122 0
32.940804 13.015757 16.098709 0.2755174 -0.95991123 0.051581096 0
34.312279 13.407123 16.081661 0.27551728 -0.95991129 0.051581103 0
35.676994 13.797498 16.082136 0.27551758 -0.95991111 0.051581081 0
36.450733 13.995201 15.648833 0.275518 -0.95991105 0.0515811 0
1.0265634 14.730499 16.095552 -0.99025488 -0.12914403 0.052125946 0
19.212496 15.115108 16.100929 0.56276584 0.82661527 -0.0013234506 0
20.27652 14.659436 16.146988 0.23672318 0.97157705 0.00046442426 0
21.726866 14.685954 16.093571 -0.25186604 0.96775991 -0.0020627377 0
22.736925 15.147277 16.022594 -0.59982473 0.80013108 -0.00069719454 0
36.330982 14.0146 16.633265 0.275518 -0.95991105 0.0515811 0
37.14135 14.219722 16.143829 0.27551767 -0.95991117 0.051581081 0
38.549652 14.621288 16.120914 0.27551723 -0.95991129 0.051581103 0
39.887104 15.003785 16.119673 0.27551782 -0.95991111 0.051581074 0
40.953861 15.308781 16.117218 0.27551863 -0.95991087 0.051581118 0
0.88741487 16.111362 16.068638 -0.99566817 -0.079035595 0.048972759 0
18.162291 16.557009 16.077732 0.97470576 0.22349212 -5.9497175e-05 0
18.504234 15.885585 16.111179 0.83173072 0.55517572 0.0019704015 0
23.525925 16.129007 16.066118 -0.88704628 0.46167859 0.0013284413 0
41.60022 15.494539 16.111231 0.28972539 -0.95562744 0.053249214 0
42.698963 16.126513 16.054859 0.68766218 -0.71449572 0.12890564 0
0.82802856 17.466579 16.101345 -0.99862671 -0.0020612699 0.052350368 0
18.025366 17.527554 16.138229 0.99998331 -0.0056537096 -0.0012086058 0
23.794361 17.458706 16.236032 -0.99988306 0.015284346 -0.00056015671 0
23.873596 17.482811 16.118614 -0.99999422 -0.0033332466 -0.00060872285 0
43.277351 17.524956 16.262476 0.9822818 0.0043059275 0.18736039 0
43.430443 17.562096 15.602271 0.98183852 0.012458787 0.18930896 0
0.88220721 18.866623 16.047462 -0.99611902 0.072605096 0.049752813 0
18.146971 18.375849 16.166363 0.97470576 -0.22349212 4.0348659e-05 0
18.506618 19.119478 16.115551 0.82081169 -0.57119858 -0.00062552211 0
23.47567 18.938896 16.142975 -0.87669927 -0.48103294 0.0023987321 0
41.588253 19.505985 16.179453 0.28029794 0.9584592 0.052811369 0
42.677422 18.907663 16.107172 0.66740739 0.7341212 0.12503399 0
1.0269624 20.297993 16.108433 -0.98849356 0.14176771 0.052747805 0
19.213346 19.886677 16.058065 0.56640035 -0.82412595 -0.0026644398 0
20.249237 20.332388 16.103014 0.24873631 -0.96857077 -0.00096079049 0
21.694483 20.32036 16.069994 -0.25345314 -0.96734673 0.0013440478 0
22.737759 19.852793 16.071198 -0.59095705 -0.80667812 -0.0063352613 0
36.321003 20.988939 16.620499 0.275518 0.95991105 0.051581103 0
37.102726 20.792753 16.117737 0.2755174 0.95991123 0.051581092 0
38.513142 20.391155 16.084122 0.27551752 0.95991117 0.051581085 0
39.86412 20.002769 16.119867 0.27551749 0.95991117 0.051581085 0
40.915279 19.700754 16.144718 0.27551848 0.95991087 0.051581126 0
1.2647451 21.651337 16.092392 -0.97750831 0.20437241 0.05205135 0
1.4418776 22.31954 16.239023 -0.924784 0.37639761 0.055672169 0
31.828594 22.300581 16.131491 0.27551863 0.95991093 0.051581122 0
32.857895 22.005531 16.143179 0.27551773 0.95991111 0.051581074 0
34.216774 21.618269 16.117287 0.27551767 0.95991105 0.051581074 0
35.629658 21.217758 16.050436 0.27551767 0.95991105 0.051581074 0
36.455299 21.008099 15.56505 0.27551803 0.95991105 0.051581103 0
1.9935267 23.121212 16.093023 -0.73806643 0.67206097 0.059933532 0
2.9273155 23.76576 16.3228 -0.37993085 0.92339259 0.054760933 0
26.5578 23.7848 16.561068 0.275518 0.95991105 0.0515811 0
27.32999 23.588491 16.110342 0.27551758 0.95991117 0.051581085 0
28.714405 23.192949 16.102053 0.27551782 0.95991111 0.051581074 0
30.140001 22.7869 16.070581 0.27551749 0.95991117 0.051581085 0
31.108923 22.512533 16.019711 0.27551857 0.95991087 0.051581118 0
3.5834179 23.957211 16.068037 -0.18823625 0.98065847 0.053630184 0
4.931191 24.089808 16.113955 -0.08284197 0.99520957 0.051914323 0
6.2118378 24.197002 16.104862 -0.082841977 0.99520957 0.051914334 0
7.6701689 24.31942 16.087931 -0.08284197 0.99520952 0.051914323 0
9.0938625 24.438171 16.08602 -0.082841977 0.99520963 0.051914334 0
10.506825 24.555643 16.091074 -0.08284197 0.99520957 0.051914327 0
11.957493 24.676308 16.095173 -0.08284197 0.99520957 0.051914323 0
13.306607 24.79039 16.063742 -0.08284197 0.99520957 0.051914327 0
14.70771 24.90653 16.075645 -0.082841977 0.99520957 0.051914331 0
16.125927 25.020641 16.15299 -0.082841977 0.99520957 0.051914331 0
17.467205 25.133043 16.141111 -0.082841977 0.99520957 0.051914338 0
18.383644 25.186335 16.579803 -0.082842067 0.99520963 0.051914383 0
22.072264 25.092577 16.106649 0.27551126 0.95991307 0.051579785 0
23.118208 24.794971 16.077927 0.27551767 0.95991111 0.051581077 0
24.518686 24.391953 16.122974 0.2755174 0.95991123 0.051581096 0
25.865976 24.008709 16.08375 0.27551767 0.95991105 0.051581074 0
26.634501 23.810768 15.682332 0.275518 0.95991105 0.0515811 0
18.059299 25.20863 15.642088 -0.082842074 0.99520957 0.051914379 0
18.87286 25.255882 16.032681 -0.082841977 0.99520957 0.051914331 0
20.269367 25.368387 16.093437 -0.064623453 0.99663854 0.050352287 0
21.378584 25.295261 16.028318 0.27295959 0.96063542 0.051696412 0
19.2773 9.7724619 17.212591 -0.082842059 -0.99520952 0.051914435 0
20.311844 9.7014418 17.478033 -0.054715477 -0.99716288 0.05169566 0
21.235451 9.7386885 17.402435 0.27386221 -0.96035457 0.052138872 0
3.682888 11.095405 17.436972 -0.15215279 -0.98694569 0.052799273 0
4.9220686 10.984503 17.512499 -0.08284197 -0.99520957 0.051914323 0
6.3486576 10.865027 17.501234 -0.08284197 -0.99520957 0.051914327 0
7.7051287 10.753261 17.525444 -0.082841977 -0.99520957 0.051914334 0
9.1030645 10.634706 17.486301 -0.08284197 -0.99520952 0.051914323 0
10.487547 10.520165 17.502062 -0.082841977 -0.99520963 0.051914334 0
11.887079 10.40387 17.508421 -0.082841977 -0.99520963 0.051914323 0
13.282763 10.28382 17.437204 -0.082841977 -0.99520957 0.051914327 0
14.653758 10.172839 17.499481 -0.082841977 -0.99520963 0.051914334 0
16.148563 10.048901 17.511339 -0.082841977 -0.99520957 0.051914338 0
17.502689 9.9357414 17.50527 -0.08284197 -0.99520957 0.051914327 0
18.700342 9.8416586 17.614117 -0.082841992 -0.99520957 0.05191436 0
21.946167 9.9483471 17.519335 0.27551788 -0.95991105 0.051581062 0
23.120564 10.281731 17.47274 0.27551764 -0.95991117 0.051581081 0
24.485971 10.675499 17.531784 0.27551749 -0.95991117 0.051581088 0
25.788887 11.048295 17.5338 0.27551758 -0.95991111 0.051581081 0
2.1035104 11.870748 17.464323 -0.70771354 -0.7036677 0.063193098 0
3.0092411 11.26075 17.570343 -0.32532254 -0.94395524 0.055800505 0
26.446098 11.243463 17.665462 0.27551791 -0.95991105 0.051581096 0
27.253944 11.465742 17.504416 0.27551734 -0.95991129 0.051581107 0
28.75638 11.891501 17.431213 0.27551758 -0.95991111 0.051581081 0
30.11982 12.286019 17.514273 0.27551746 -0.95991123 0.051581092 0
30.997385 12.532821 17.437021 0.27551809 -0.95991099 0.051581107 0
1.3015451 13.541151 17.521591 -0.98148745 -0.18416932 0.052575447 0
1.476395 12.809053 17.617558 -0.94364542 -0.32624343 0.055664342 0
31.751745 12.751087 17.482738 0.27551827 -0.95991099 0.051581085 0
32.868633 13.074808 17.560694 0.27551731 -0.95991129 0.0515811 0
34.292973 13.48021 17.523844 0.2755174 -0.95991123 0.051581096 0
35.569855 13.843246 17.483561 0.27551788 -0.95991111 0.05158107 0
1.1025634 14.71217 17.478548 -0.98939335 -0.135547 0.05222854 0
19.229351 15.10688 17.499989 0.56348658 0.82612163 -0.0024201414 0
20.201374 14.683321 17.492064 0.26576909 0.96403629 0.00091683265 0
21.704975 14.681861 17.478979 -0.25815067 0.96610296 0.0018198657 0
22.728233 15.1422 17.483395 -0.59770006 0.80171949 0.00078496541 0
36.231266 14.039102 17.605944 0.27551806 -0.95991105 0.051581107 0
37.06741 14.274494 17.53681 0.27551752 -0.95991123 0.051581088 0
38.548786 14.696241 17.500542 0.27551758 -0.95991117 0.051581085 0
39.894005 15.080292 17.486984 0.27551728 -0.95991129 0.051581103 0
40.83099 15.346971 17.4625 0.27551809 -0.95991099 0.051581111 0
0.95864898 16.097944 17.490908 -0.99570173 -0.078492954 0.049161959 0
18.161364 16.561106 17.473717 0.9747057 0.2234921 0.00017263934 0
18.494375 15.897931 17.50041 0.83432686 0.55126983 -0.0005264341 0
23.493996 16.094151 17.48538 -0.89348441 0.44909397 -0.00051752786 0
41.541729 15.567182 17.551012 0.33331648 -0.94073492 0.062592067 0
42.514755 16.183683 17.486942 0.72542316 -0.67491931 0.13507503 0
0.9018079 17.474512 17.493372 -0.99863791 -0.004335172 0.0519959 0
18.026232 17.503309 17.529736 0.99997884 0.0065094149 -0.00014777532 0
23.793743 17.375761 17.469744 -0.9991321 0.041653268 0 0
23.874153 17.482098 17.437037 -0.99999839 -0.0016813446 -0.00064360251 0
43.050491 17.519457 17.483599 0.9829613 0.0048555736 0.18374868 0
0.95502514 18.87414 17.48633 -0.99616289 0.071820639 0.050012249 0
18.153084 18.402634 17.557356 0.9747057 -0.2234921 -0.00024209193 0
18.481859 19.088547 17.466423 0.82634515 -0.563164 -0.00028636458 0
23.481483 18.921673 17.50457 -0.87990177 -0.4751552 -0.00058106484 0
41.50811 19.44762 17.534636 0.32107371 0.94511795 0.06052877 0
42.592705 18.747181 17.48188 0.76248419 0.63003457 0.14722221 0
1.0989258 20.295662 17.490862 -0.98791975 0.14578675 0.052543417 0
19.193422 19.873133 17.539663 0.58682477 -0.80971372 -0.00060655066 0
20.277651 20.339392 17.487795 0.24548227 -0.969401 -0.00035547241 0
21.711567 20.324879 17.484196 -0.26308689 -0.96477205 0.0002331923 0
22.746283 19.845818 17.541365 -0.5974772 -0.80188584 -0.00030087045 0
36.21579 20.968716 17.543726 0.27551797 0.95991105 0.0515811 0
37.07119 20.726875 17.491835 0.27551726 0.95991129 0.051581103 0
38.468468 20.326193 17.510248 0.27551737 0.95991129 0.051581107 0
39.944271 19.906246 17.470245 0.27551743 0.95991123 0.051581092 0
40.84396 19.650768 17.436045 0.27551809 0.95991099 0.051581111 0
1.3033301 21.485043 17.460396 -0.98203665 0.18126692 0.052405808 0
1.4685298 22.183327 17.533991 -0.93879658 0.33999059 0.055384338 0
31.695652 22.261181 17.552046 0.27551833 0.95991093 0.051581088 0
32.856392 21.930099 17.534885 0.27551761 0.95991117 0.051581081 0
34.283897 21.522072 17.529676 0.2755174 0.95991123 0.051581096 0
35.553013 21.158443 17.540913 0.27551812 0.95991105 0.051581062 0
2.103945 23.116749 17.496628 -0.70319605 0.70818669 0.063141026 0
2.9869349 23.719049 17.671516 -0.40475887 0.91297448 0.051457677 0
26.452053 23.75099 17.736141 0.27551803 0.95991099 0.051581103 0
27.295643 23.522797 17.495836 0.27551758 0.95991111 0.051581081 0
28.677618 23.129063 17.467041 0.27551743 0.95991117 0.051581088 0
30.090057 22.723328 17.499123 0.27551761 0.95991111 0.051581081 0
31.020445 22.463133 17.390148 0.27551809 0.95991105 0.051581107 0
3.6927006 23.906187 17.425203 -0.14187625 0.98847514 0.05280222 0
4.8974242 24.010115 17.575706 -0.082841977 0.99520957 0.051914327 0
6.2529831 24.129772 17.448374 -0.08284197 0.99520957 0.051914323 0
7.7081208 24.248396 17.498514 -0.082841977 0.99520957 0.051914331 0
9.0824146 24.362045 17.515383 -0.082841985 0.99520963 0.051914342 0
10.476429 24.477915 17.520864 -0.082841977 0.99520957 0.051914327 0
11.893581 24.600084 17.443449 -0.08284197 0.99520952 0.051914323 0
13.284143 24.713547 17.489456 -0.08284197 0.99520957 0.051914323 0
14.662374 24.828384 17.489624 -0.082841977 0.99520957 0.051914331 0
16.115648 24.948895 17.50091 -0.082841977 0.99520957 0.051914331 0
17.46715 25.061256 17.506071 -0.08284197 0.99520952 0.051914323 0
18.721378 25.161678 17.583876 -0.082841992 0.99520957 0.051914364 0
21.896282 25.063673 17.5604 0.27551839 0.95991093 0.051581096 0
23.101433 24.721802 17.508183 0.27551758 0.95991111 0.051581081 0
24.55584 24.304495 17.532003 0.27551743 0.95991117 0.051581088 0
25.760904 23.963881 17.45723 0.27551776 0.95991111 0.051581074 0
19.308315 25.225866 17.293459 -0.082842067 0.99520957 0.051914435 0
20.283724 25.295494 17.504688 -0.06827829 0.99625003 0.053141158 0
21.228838 25.256992 17.516277 0.27390432 0.96033889 0.052208092 0
20.423668 9.7599621 18.770235 -0.055874746 -0.99709839 0.051698353 0
21.092951 9.769412 18.713871 0.2707994 -0.96116763 0.053144969 0
3.7980049 11.151364 18.857973 -0.10732993 -0.99282181 0.052773301 0
4.9154506 11.055076 18.843981 -0.08284197 -0.99520957 0.051914327 0
6.2955871 10.945753 18.952234 -0.082841977 -0.99520957 0.051914338 0
7.7099886 10.825712 18.910728 -0.082841977 -0.99520957 0.051914327 0
9.0956478 10.708714 18.881817 -0.082841977 -0.99520957 0.051914331 0
10.484573 10.59435 18.90799 -0.082841977 -0.99520957 0.051914331 0
11.904998 10.481711 19.01705 -0.082841977 -0.99520957 0.051914334 0
13.329422 10.357177 18.906052 -0.082841977 -0.99520957 0.051914334 0
14.717899 10.241303 18.902948 -0.08284197 -0.99520957 0.051914323 0
16.073061 10.127645 18.889042 -0.08284197 -0.99520952 0.051914323 0
17.528151 10.006681 18.894602 -0.08284197 -0.99520957 0.051914327 0
18.920254 9.8914442 18.909241 -0.082841977 -0.99520957 0.051914331 0
19.853188 9.8242559 19.109966 -0.082842074 -0.99520957 0.051914405 0
21.75869 9.9716644 18.930822 0.27551761 -0.95991117 0.051581085 0
