# .PCD v0.7 - Point Cloud Data file format
VERSION 0.7
FIELDS x y z normal_x normal_y normal_z curvature
SIZE 4 4 4 4 4 4 4
TYPE F F F F F F F
COUNT 1 1 1 1 1 1 1
WIDTH 713
HEIGHT 1
VIEWPOINT 0 0 0 1 0 0 0
POINTS 713
DATA ascii
25.814924 24.411774 8.9569998 0.27551812 0.95991105 0.051581062 0
26.823141 24.119125 9.0351562 0.27551863 0.95991087 0.051581118 0
14.064371 25.228321 8.9373245 -0.082842037 0.99520952 0.051914435 0
14.998788 25.301968 9.0175619 -0.082842 0.99520957 0.051914372 0
16.201956 25.402096 9.0202322 -0.082841992 0.99520957 0.051914364 0
17.40023 25.501476 9.0292549 -0.082841992 0.99520963 0.051914353 0
18.58588 25.60257 8.9857302 -0.082841992 0.99520957 0.051914357 0
19.801842 25.704378 8.976655 -0.082841985 0.99520957 0.051914353 0
21.036198 25.737778 8.9635029 0.13701573 0.98913312 0.053313963 0
22.211578 25.439281 9.015192 0.27551845 0.95991099 0.051581107 0
22.935347 25.236044 8.9458828 0.275518 0.95991105 0.051581107 0
16.683498 9.5923138 9.6769485 -0.082842067 -0.99520957 0.051914379 0
17.48325 9.5504866 10.148789 -0.082841992 -0.99520957 0.051914364 0
18.535967 9.464736 10.186345 -0.082841985 -0.99520963 0.051914349 0
19.856569 9.3548784 10.190065 -0.082841985 -0.99520963 0.051914353 0
21.041994 9.3283052 10.175447 0.13071874 -0.99006724 0.051764764 0
21.829407 9.5171242 10.221014 0.27551824 -0.95991093 0.051581129 0
3.3392384 10.743423 10.216213 -0.17177309 -0.98346078 0.05743527 0
4.2020912 10.660022 10.201497 -0.082841985 -0.99520952 0.051914357 0
5.439188 10.55865 10.234167 -0.082841985 -0.99520957 0.051914353 0
6.6077385 10.458831 10.187716 -0.082841992 -0.99520963 0.051914353 0
7.7861185 10.362885 10.230705 -0.082841985 -0.99520952 0.051914349 0
9.0476694 10.260254 10.278154 -0.082842 -0.99520957 0.051914372 0
10.150826 10.164715 10.209587 -0.082841992 -0.99520957 0.051914357 0
11.387523 10.06023 10.182368 -0.082841985 -0.99520957 0.051914353 0
12.582384 9.961216 10.192979 -0.082841985 -0.99520957 0.051914349 0
13.812822 9.8566418 10.154313 -0.082841992 -0.99520957 0.05191436 0
15.009768 9.7592382 10.198833 -0.082841985 -0.99520957 0.051914345 0
16.158014 9.6656199 10.238097 -0.082841985 -0.99520957 0.051914357 0
16.947115 9.6167107 10.558481 -0.082842045 -0.99520957 0.051914386 0
22.507837 9.7109346 10.216584 0.27551845 -0.95991087 0.051581126 0
23.363684 9.9559441 10.220348 0.27551812 -0.95991111 0.051581062 0
24.666744 10.327208 10.193545 0.27551821 -0.95991099 0.051581077 0
25.76366 10.641002 10.194332 0.27551839 -0.95991093 0.051581096 0
1.8686106 11.438183 10.180955 -0.69469541 -0.71647882 0.063690096 0
2.759027 10.904559 10.288357 -0.28849193 -0.95560902 0.059864193 0
26.347956 10.816188 10.342257 0.27551794 -0.95991105 0.051581081 0
27.077785 11.016257 10.182837 0.27551839 -0.95991093 0.0515811 0
28.210159 11.34306 10.236053 0.27551821 -0.95991099 0.051581077 0
29.3561 11.664817 10.125626 0.275518 -0.95991105 0.051581059 0
30.234745 11.918815 10.174656 0.27551824 -0.95991105 0.051581129 0
1.0703651 12.804897 10.207986 -0.96582687 -0.25383446 0.052408542 0
1.2992659 12.215377 10.302633 -0.89988184 -0.43245575 0.056521229 0
30.82625 12.087255 10.160812 0.27551836 -0.95991099 0.051581133 0
31.757195 12.355885 10.203856 0.27551812 -0.95991105 0.051581062 0
32.9781 12.704487 10.192554 0.27551791 -0.95991099 0.051581062 0
34.174061 13.046278 10.187203 0.2755183 -0.95991099 0.051581085 0
0.87827957 13.761268 10.221129 -0.98131597 -0.18531059 0.051758029 0
34.72295 13.2225 10.53985 0.275518 -0.95991105 0.0515811 0
35.401146 13.401385 10.262637 0.27551839 -0.95991093 0.051581096 0
36.564178 13.73418 10.26509 0.27551815 -0.95991099 0.051581066 0
37.813824 14.089426 10.224823 0.27551833 -0.95991093 0.051581088 0
38.667107 14.331108 10.180992 0.27551809 -0.95991099 0.051581111 0
0.67693889 15.008508 10.162386 -0.9939518 -0.097006671 0.051472962 0
18.968809 15.300989 10.206993 0.70694894 0.70715678 -0.012352092 0
19.758694 14.827455 10.248069 0.41291174 0.91076958 0.0016330407 0
21.01516 14.575197 10.172891 -0.015083818 0.99988592 -0.00078254094 0
22.186472 14.850602 10.182671 -0.42803392 0.90375727 0.0031341503 0
22.98332 15.362485 10.201055 -0.75695968 0.65337712 0.010507933 0
39.232407 14.494565 10.213358 0.27551842 -0.95991099 0.051581133 0
40.230556 14.778829 10.190707 0.27551824 -0.95991093 0.051581077 0
41.362041 15.103853 10.216017 0.27551815 -0.95991099 0.051581066 0
42.562351 15.4443 10.16022 0.28179479 -0.95804179 0.052418932 0
0.58620995 16.223143 10.178694 -0.99528533 -0.083589248 0.049191233 0
18.349489 16.165133 10.178504 0.89274371 0.45056313 0.0012667133 0
23.549807 16.1772 10.235108 -0.89476538 0.44653651 9.1713315e-05 0
43.106148 15.633382 10.455561 0.40803334 -0.90993339 0.074363865 0
43.831532 16.145109 10.165928 0.70967788 -0.69180351 0.13328618 0
0.5169096 17.415436 10.163451 -0.99862707 -0.0074418252 0.051851992 0
17.974548 17.506828 10.229536 0.9999907 -0.0013282174 0.0041050902 0
18.045748 17.335388 10.199327 0.99755931 0.069823489 0.00026472044 0
23.881582 17.463097 10.217254 -0.99998492 -0.0049360543 0.0024143122 0
44.360191 17.21822 10.494369 0.95874476 -0.22515012 0.17353937 0
44.494057 17.404224 10.019069 0.98171735 -0.053053543 0.18280116 0
0.57316256 18.664434 10.193463 -0.99603689 0.072931886 0.050906703 0
18.260225 18.669344 10.18055 0.91370922 -0.4063673 0.00098061364 0
23.630295 18.669302 10.222324 -0.91214079 -0.40987557 -0.0011132334 0
44.029984 18.658794 10.234766 0.78127468 0.60645181 0.14773636 0
44.451332 18.092472 9.8969803 0.92593306 0.33788398 0.16876751 0
0.65104729 19.758265 10.186498 -0.99477565 0.087614059 0.052395239 0
18.839659 19.543224 10.194802 0.74885756 -0.66273081 -0.00043453957 0
19.681536 20.13682 10.184593 0.43181267 -0.90196329 -4.5261845e-06 0
22.257593 20.11515 10.195158 -0.43793979 -0.89900416 0.00043704206 0
23.087732 19.506552 10.157393 -0.76589149 -0.64296985 2.4895677e-05 0
39.568333 20.392199 10.527667 0.275518 0.95991105 0.0515811 0
40.199791 20.227201 10.241373 0.27551815 0.95991099 0.051581066 0
41.404579 19.884884 10.199454 0.275518 0.95991105 0.051581059 0
42.653778 19.525408 10.187215 0.29984686 0.95228916 0.056896817 0
43.334099 19.286745 10.104546 0.47117612 0.87763381 0.088044927 0
0.82874519 20.98785 10.175152 -0.98182398 0.18251905 0.052042414 0
20.288618 20.418528 10.287325 0.27601683 -0.96112621 0.0071512377 0
21.02388 20.424803 10.187517 -0.0090535907 -0.99995887 -0.00060357008 0
21.615633 20.423767 10.27594 -0.21283647 -0.97688329 0.019993054 0
35.715626 21.507431 10.285468 0.27551824 0.95991099 0.051581129 0
36.590401 21.260305 10.228638 0.27551812 0.95991105 0.051581066 0
37.816517 20.908556 10.247542 0.27551791 0.95991099 0.051581062 0
39.056347 20.557178 10.188001 0.27551854 0.95991093 0.051581115 0
39.615101 20.41065 9.9437151 0.27551803 0.95991105 0.051581103 0
1.0497723 22.094168 10.192779 -0.96638936 0.2514613 0.053467356 0
1.2539723 22.697914 10.249216 -0.9000622 0.43206605 0.056630366 0
31.1814 22.7932 10.4906 0.27551803 0.95991105 0.051581103 0
31.808899 22.627945 10.229204 0.27551851 0.95991087 0.051581111 0
33.004604 22.289171 10.169855 0.2755183 0.95991093 0.051581085 0
34.191586 21.945131 10.252913 0.27551806 0.95991105 0.051581055 0
35.108322 21.689058 10.139994 0.27551848 0.95991093 0.051581126 0
1.7726158 23.443865 10.205682 -0.73780268 0.67184943 0.065310605 0
2.4390085 23.9863 10.477283 -0.31902906 0.94601661 0.057210196 0
27.340227 23.904505 10.259184 0.27551827 0.95991099 0.051581133 0
28.195414 23.663261 10.19739 0.27551812 0.95991111 0.051581062 0
29.366627 23.32827 10.197255 0.27551788 0.95991111 0.051581066 0
30.589283 22.980356 10.164006 0.27551812 0.95991105 0.051581062 0
31.2237 22.813568 9.8948603 0.275518 0.95991105 0.0515811 0
2.3624241 24.006479 9.790432 -0.33976734 0.93904167 0.052524425 0
3.0137959 24.16748 10.221745 -0.24480192 0.96778983 0.058777742 0
4.1897206 24.338133 10.217039 -0.082841985 0.99520957 0.051914357 0
5.3631368 24.438032 10.176893 -0.082841992 0.99520957 0.051914364 0
6.5578461 24.539633 10.137973 -0.082841985 0.99520952 0.05191436 0
7.7635031 24.637539 10.186783 -0.082841985 0.99520963 0.051914349 0
8.9546318 24.738232 10.159581 -0.082841985 0.99520957 0.051914357 0
10.191231 24.839577 10.191902 -0.082841992 0.99520957 0.05191436 0
11.428239 24.942558 10.193863 -0.082841985 0.99520963 0.051914353 0
12.594771 25.042656 10.13899 -0.082841985 0.99520957 0.051914345 0
13.800852 25.13727 10.251189 -0.082841992 0.99520963 0.051914353 0
14.604219 25.187662 10.565889 -0.082842067 0.99520957 0.051914379 0
23.445963 25.021175 10.208285 0.27551815 0.95991099 0.051581066 0
24.661734 24.673717 10.202908 0.27551818 0.95991093 0.05158107 0
25.761023 24.358768 10.212397 0.275518 0.95991111 0.051581062 0
26.711185 24.090586 10.146251 0.27551824 0.95991093 0.051581129 0
14.28524 25.203861 9.7524862 -0.082842067 0.99520957 0.051914379 0
15.145215 25.253481 10.171607 -0.082842 0.99520957 0.051914375 0
16.212366 25.339844 10.220245 -0.082841992 0.99520957 0.051914364 0
17.401958 25.436646 10.264676 -0.082841992 0.99520963 0.05191436 0
18.614428 25.54122 10.197525 -0.082841977 0.99520957 0.051914342 0
19.780807 25.636965 10.225068 -0.082841977 0.99520957 0.051914342 0
20.992373 25.676992 10.190415 0.11126358 0.99242198 0.052143753 0
22.193432 25.379908 10.199861 0.27551806 0.95991105 0.051581059 0
22.867718 25.210361 9.7716722 0.275518 0.95991105 0.051581103 0
17.796127 9.5800676 11.207094 -0.082842074 -0.99520957 0.051914405 0
18.641426 9.5185194 11.376163 -0.082841985 -0.99520952 0.051914357 0
19.823803 9.4205961 11.387756 -0.082841977 -0.99520952 0.051914338 0
21.00197 9.3856163 11.40942 0.12190823 -0.99107051 0.054015469 0
21.748465 9.5525589 11.295842 0.27551803 -0.95991105 0.051581103 0
3.4608777 10.779716 11.281028 -0.1209675 -0.99126828 0.052478924 0
4.2228441 10.721195 11.397517 -0.082842 -0.99520957 0.051914372 0
5.382659 10.623131 11.370753 -0.082841985 -0.99520957 0.051914353 0
6.5972061 10.521692 11.36639 -0.082841992 -0.99520957 0.051914368 0
7.8343158 10.42168 11.425099 -0.082841992 -0.99520957 0.051914364 0
9.0016212 10.322397 11.386943 -0.082841992 -0.99520963 0.05191436 0
10.14736 10.228612 11.419021 -0.082841985 -0.99520957 0.051914349 0
11.442596 10.121506 11.434854 -0.082841985 -0.99520957 0.051914349 0
12.618634 10.021585 11.398445 -0.082841985 -0.99520952 0.05191436 0
13.72186 9.9331942 11.465764 -0.082841985 -0.99520952 0.051914349 0
14.993936 9.822546 11.377574 -0.082841985 -0.99520957 0.051914349 0
16.212378 9.7240667 11.435568 -0.082841985 -0.99520952 0.051914349 0
17.266451 9.638073 11.4708 -0.082842 -0.99520957 0.051914375 0
22.334209 9.7259741 11.403563 0.27551863 -0.95991087 0.051581118 0
23.339291 10.011664 11.370537 0.27551815 -0.95991099 0.051581066 0
24.61482 10.37821 11.401785 0.27551827 -0.95991099 0.051581085 0
25.676682 10.682467 11.411469 0.27551857 -0.95991087 0.051581118 0
1.9224744 11.482985 11.386187 -0.68201631 -0.72856081 0.063662693 0
2.8627603 10.944889 11.457534 -0.28399751 -0.95710766 0.057361573 0
26.252506 10.849382 11.4521 0.27551797 -0.95991111 0.051581103 0
26.981409 11.057069 11.437078 0.27551839 -0.95991093 0.051581096 0
28.211443 11.407028 11.402828 0.27551824 -0.95991093 0.051581077 0
29.409348 11.749285 11.395773 0.275518 -0.95991105 0.051581059 0
30.136658 11.955216 11.357103 0.27551803 -0.95991105 0.051581103 0
1.1185633 12.864975 11.450155 -0.96843058 -0.24325901 0.054472081 0
1.3371745 12.283514 11.463844 -0.90045261 -0.43142045 0.055330113 0
30.74332 12.134488 11.462557 0.27551854 -0.95991093 0.051581115 0
31.821686 12.440871 11.424604 0.27551818 -0.95991093 0.05158107 0
32.99123 12.774383 11.406058 0.275518 -0.95991111 0.051581062 0
34.027477 13.06609 11.319798 0.27551857 -0.95991087 0.051581118 0
0.93331277 13.797047 11.402769 -0.98156905 -0.18390407 0.051976554 0
34.638889 13.248742 11.462315 0.27551806 -0.95991105 0.051581107 0
35.407745 13.463301 11.36395 0.2755186 -0.95991093 0.051581118 0
36.630249 13.813405 11.371811 0.27551782 -0.95991105 0.051581066 0
37.827183 14.158081 11.414319 0.27551824 -0.95991093 0.051581077 0
38.57798 14.360051 11.17971 0.275518 -0.95991105 0.051581103 0
0.74073839 15.011129 11.348055 -0.99310422 -0.10520028 0.051739112 0
18.935921 15.342132 11.420234 0.71541405 0.69869739 -0.0021879799 0
19.779629 14.818929 11.416279 0.39857557 0.91712916 -0.003421559 0
21.045835 14.575197 11.440091 -0.010173251 0.99994797 0.00076333177 0
22.208553 14.861274 11.423853 -0.43505639 0.90040272 -0.00090934918 0
22.997868 15.380696 11.436028 -0.76783627 0.64063823 -0.0031810296 0
39.144951 14.531768 11.354746 0.27551857 -0.95991093 0.051581126 0
40.218029 14.836919 11.322031 0.27551845 -0.95991093 0.051581107 0
41.41328 15.180924 11.360957 0.27551371 -0.95991224 0.051580232 0
42.406021 15.467453 11.40334 0.28356755 -0.95742822 0.054043595 0
0.648799 16.21483 11.42194 -0.99519551 -0.08461152 0.049262863 0
18.351191 16.158895 11.391524 0.88598883 0.46370646 -0.00028337532 0
23.561037 16.185303 11.410562 -0.90055978 0.43473217 0.00025190436 0
43.025047 15.690598 11.466312 0.48759922 -0.86823505 0.091732956 0
43.684937 16.219936 11.413218 0.72492057 -0.67441607 0.14018993 0
0.58206528 17.444477 11.421877 -0.99863476 -0.0033227566 0.052130129 0
17.973593 17.499289 11.385631 0.99994224 0.010304822 0.0030426581 0
18.047604 17.319643 11.371522 0.99783158 0.065817647 -0.00047586721 0
23.877073 17.419546 11.425982 -0.99991107 0.013335095 -0.00034938849 0
44.221142 17.388718 11.388541 0.97927499 -0.087598637 0.18261147 0
0.62785298 18.559729 11.433473 -0.99629158 0.069836348 0.05025848 0
18.228807 18.592552 11.394838 0.9268676 -0.37538782 0.00060954754 0
23.641624 18.655706 11.3929 -0.91739869 -0.39796463 0.0019336949 0
43.1651 19.184601 11.9871 0.50515807 0.85805613 0.092493609 0
43.803219 18.656708 11.380286 0.77605098 0.61334902 0.14679147 0
0.71426868 19.774786 11.364254 -0.99439949 0.092307523 0.051468063 0
18.866692 19.575705 11.379084 0.74297482 -0.66931927 0.00019989139 0
19.729624 20.159967 11.407708 0.43085101 -0.90242285 0.0006425429 0
22.22274 20.131935 11.340089 -0.43679363 -0.89956051 -0.0014938443 0
23.080484 19.515554 11.383061 -0.77095091 -0.63689363 -0.0011245294 0
39.476349 20.370911 11.401278 0.27551791 0.95991111 0.0515811 0
40.209476 20.159863 11.425891 0.27551824 0.95991093 0.051581077 0
41.401531 19.820404 11.398138 0.27551845 0.95991099 0.051581107 0
42.594193 19.466583 11.445584 0.3263835 0.94327772 0.060835697 0
43.272964 19.223032 11.046367 0.50459957 0.85838634 0.092478126 0
0.89512622 21.011738 11.355169 -0.98198992 0.18159989 0.052127149 0
20.321405 20.42238 11.361858 0.1562622 -0.98768413 0.0078829033 0
20.989296 20.424803 11.394536 -0.0047330246 -0.99998868 0.00056471786 0
21.632776 20.41489 11.443378 -0.25601849 -0.96657801 0.013476148 0
35.627823 21.470486 11.423894 0.27551854 0.95991099 0.051581126 0
36.594936 21.192396 11.450564 0.27551851 0.95991087 0.051581111 0
37.754009 20.865225 11.370558 0.27551815 0.95991093 0.051581066 0
38.916111 20.534033 11.348272 0.27551839 0.95991093 0.0515811 0
1.0829498 21.981907 11.376909 -0.97605371 0.21133657 0.051536545 0
1.2874733 22.618475 11.432524 -0.90127224 0.42994556 0.053433232 0
31.077957 22.768723 11.482201 0.27551794 0.95991105 0.051581088 0
31.787874 22.568752 11.425454 0.27551812 0.95991111 0.051581062 0
32.996414 22.225487 11.381159 0.27551818 0.95991093 0.05158107 0
34.208725 21.876966 11.413319 0.27551812 0.95991111 0.051581062 0
35.000866 21.653793 11.350848 0.27551806 0.95991105 0.051581107 0
1.8483261 23.422449 11.433267 -0.73043913 0.68005484 0.063119985 0
2.5535924 23.955486 11.503114 -0.29906106 0.95230263 0.060680855 0
27.193863 23.882658 11.42811 0.27551851 0.95991087 0.051581122 0
28.205198 23.595394 11.39108 0.27551821 0.95991099 0.051581077 0
29.388765 23.257753 11.374856 0.27551815 0.95991093 0.051581066 0
30.520142 22.934786 11.362774 0.2755186 0.95991087 0.051581115 0
3.1168091 24.12289 11.442149 -0.2417623 0.96828514 0.063046366 0
4.2162218 24.281746 11.331181 -0.082841977 0.99520957 0.051914334 0
5.3901248 24.378189 11.357535 -0.082841985 0.99520952 0.05191436 0
6.5563698 24.475727 11.350824 -0.082841985 0.99520952 0.05191436 0
7.8059998 24.576818 11.408596 -0.082841977 0.99520957 0.051914342 0
9.0020294 24.676727 11.404012 -0.082841985 0.99520957 0.051914345 0
10.166115 24.775873 11.363647 -0.082841992 0.99520957 0.051914368 0
11.422405 24.88002 11.373768 -0.082841977 0.99520952 0.051914345 0
12.636683 24.979691 11.402875 -0.082841985 0.99520952 0.05191436 0
13.819946 25.079948 11.371153 -0.082841985 0.99520963 0.051914349 0
14.871224 25.161789 11.480667 -0.082842007 0.99520957 0.051914386 0
15.6167 25.198799 11.9589 -0.082842067 0.99520963 0.051914383 0
22.691011 25.167789 11.480289 0.27551797 0.95991111 0.051581088 0
23.399502 24.972103 11.352186 0.27551827 0.95991099 0.051581085 0
24.591097 24.62612 11.446767 0.27551806 0.95991105 0.051581055 0
25.787746 24.28797 11.370966 0.27551773 0.95991111 0.051581074 0
26.594273 24.060764 11.306991 0.27551806 0.95991105 0.051581107 0
15.401423 25.219618 11.221581 -0.082842074 0.99520957 0.051914405 0
16.122482 25.271521 11.376944 -0.082841992 0.99520963 0.05191436 0
17.419271 25.377264 11.421148 -0.082841985 0.99520957 0.051914345 0
18.620573 25.477127 11.426066 -0.082841985 0.99520963 0.051914353 0
19.827612 25.578983 11.401677 -0.082841985 0.99520957 0.051914357 0
21.017427 25.606247 11.391899 0.13723123 0.98923427 0.050824977 0
22.134819 25.330418 11.415204 0.27551845 0.95991099 0.051581107 0
18.812168 9.5645809 12.522612 -0.082842007 -0.99520952 0.051914405 0
19.76885 9.4896517 12.613729 -0.082841992 -0.99520957 0.05191436 0
20.984943 9.4521503 12.623656 0.11959236 -0.99144888 0.052219294 0
21.666117 9.584322 12.310678 0.27551794 -0.95991099 0.051581085 0
4.3726583 10.76685 12.503142 -0.082842015 -0.99520957 0.051914416 0
5.3568988 10.692531 12.64955 -0.082841992 -0.99520963 0.05191436 0
6.586853 10.58816 12.6141 -0.082841985 -0.99520952 0.05191436 0
7.7708292 10.489172 12.607939 -0.082841992 -0.99520957 0.05191436 0
8.9309568 10.393173 12.620737 -0.082841992 -0.99520957 0.051914364 0
10.22749 10.286532 12.647325 -0.082841985 -0.99520957 0.051914349 0
11.417569 10.183593 12.575854 -0.082841985 -0.99520952 0.05191436 0
12.577519 10.088445 12.604703 -0.082841992 -0.99520957 0.051914357 0
13.81401 9.9850378 12.597694 -0.082842 -0.99520957 0.051914372 0
15.02431 9.8831644 12.578316 -0.082841977 -0.99520952 0.051914345 0
16.185949 9.7886724 12.622261 -0.082841985 -0.99520963 0.051914349 0
17.375175 9.6886024 12.603815 -0.082841985 -0.99520957 0.051914349 0
18.304436 9.6197529 12.767132 -0.082842074 -0.99520952 0.051914409 0
22.217707 9.7601223 12.641308 0.27551812 -0.95991105 0.051581062 0
23.393337 10.094826 12.612615 0.27551788 -0.95991105 0.051581062 0
24.621696 10.44206 12.537089 0.27551839 -0.95991093 0.051581096 0
25.499256 10.692709 12.530376 0.27551836 -0.95991093 0.051581133 0
1.9256173 11.574828 12.589099 -0.69740421 -0.71410495 0.060675494 0
2.9840388 10.982454 12.650004 -0.25807953 -0.96435046 0.058509413 0
3.8715498 10.820148 12.72264 -0.082842067 -0.99520963 0.051914439 0
26.138874 10.881059 12.629278 0.27551815 -0.95991105 0.051581115 0
26.998787 11.123303 12.561065 0.27551806 -0.95991105 0.051581059 0
28.231956 11.478694 12.610001 0.27551824 -0.95991093 0.051581077 0
29.396427 11.811872 12.611918 0.27551824 -0.95991093 0.051581077 0
30.047148 11.982429 12.326187 0.27551794 -0.95991099 0.051581085 0
1.1583488 12.951076 12.598166 -0.97654992 -0.2086584 0.053027861 0
1.3569008 12.389744 12.608274 -0.90944982 -0.41206327 0.05572151 0
29.9867 12.0012 12.9878 0.27551803 -0.95991105 0.051581103 0
30.613398 12.156098 12.540817 0.27551806 -0.95991105 0.051581055 0
31.827524 12.505242 12.574934 0.27551812 -0.95991111 0.051581062 0
32.978519 12.837585 12.632061 0.2755183 -0.95991099 0.051581085 0
33.924416 13.107801 12.625767 0.2755186 -0.95991093 0.051581122 0
1.003868 13.749893 12.581945 -0.9815293 -0.18412749 0.051935956 0
34.51186 13.275692 12.623259 0.27551821 -0.95991105 0.051581122 0
35.409557 13.531307 12.602163 0.27551821 -0.95991099 0.051581074 0
36.602173 13.873405 12.619823 0.27551824 -0.95991093 0.051581077 0
37.777344 14.204933 12.535226 0.27551839 -0.95991093 0.051581096 0
38.458633 14.381356 12.196667 0.275518 -0.95991105 0.051581096 0
0.80480903 15.043461 12.622588 -0.99302399 -0.10588479 0.051882621 0
18.969193 15.298746 12.704349 0.71918452 0.69481826 0.0011212071 0
19.774227 14.820676 12.609324 0.40761247 0.9131549 0.00040450366 0
21.010834 14.575197 12.597748 -0.012200625 0.99992371 0.0019207664 0
22.142843 14.829677 12.602867 -0.42551243 0.90494764 -0.0030072576 0
22.996431 15.378842 12.673187 -0.7645328 0.64458424 0.00084916776 0
38.3895 14.410733 13.098199 0.275518 -0.95991105 0.0515811 0
38.98209 14.555411 12.643224 0.2755183 -0.95991093 0.051581085 0
40.236546 14.914485 12.647753 0.27551845 -0.95991099 0.051581107 0
41.4006 15.242332 12.554136 0.27551806 -0.95991105 0.051581055 0
42.299881 15.499818 12.554931 0.28511316 -0.95690715 0.055129558 0
0.71021336 16.181545 12.604263 -0.99520278 -0.084834419 0.048727538 0
18.358854 16.136339 12.581715 0.88768637 0.4604426 -0.0023515616 0
23.536676 16.149364 12.618042 -0.88671213 0.46231976 -0.0014482334 0
42.930042 15.772435 12.620211 0.50800663 -0.85593414 0.096467718 0
43.571529 16.311983 12.589575 0.77116936 -0.61994112 0.14481302 0
0.64567482 17.410666 12.625877 -0.99863404 -0.0047902591 0.052031178 0
17.9744 17.491741 12.514837 0.99996442 0.0040421025 -0.0074112751 0
18.046509 17.27989 12.681494 0.99626935 0.08629819 -0.00018604388 0
23.873686 17.409111 12.585159 -0.99883687 0.048034873 -0.0041813552 0
43.998753 17.367289 12.574914 0.97701633 -0.10005858 0.1882215 0
0.68712318 18.566956 12.606871 -0.99598038 0.074660115 0.049486972 0
18.252359 18.640642 12.594045 0.91811967 -0.39630127 -0.0012887688 0
23.645378 18.614307 12.600741 -0.92416799 -0.38198528 -0.0008368452 0
43.101482 19.141216 12.719992 0.52995592 0.84221613 0.099088855 0
43.644726 18.593035 12.575804 0.80801159 0.56896228 0.15296797 0
0.78467458 19.838442 12.613901 -0.99361223 0.10026374 0.051787343 0
18.848167 19.555035 12.664008 0.75765908 -0.65265 -0.00084378972 0
19.759079 20.17416 12.619556 0.43095309 -0.90237433 8.6094788e-06 0
22.237467 20.124834 12.577896 -0.43847811 -0.89873922 0.0022016538 0
23.07526 19.522158 12.62552 -0.7720474 -0.63556194 -0.0019566843 0
39.374641 20.334469 12.60345 0.27551809 0.95991105 0.051581107 0
40.198158 20.100168 12.580572 0.27551803 0.95991099 0.051581055 0
41.366127 19.766233 12.577819 0.27551812 0.95991105 0.051581062 0
42.524261 19.420815 12.570612 0.34055054 0.93808275 0.063451886 0
0.95689559 20.992203 12.595886 -0.98220521 0.18039106 0.052268036 0
20.316826 20.421947 12.595615 0.13034442 -0.99146134 0.0038369251 0
20.969074 20.424803 12.56962 -0.012356886 -0.9999221 -0.0017436652 0
21.62742 20.418201 12.57788 -0.26824841 -0.96278018 0.033122819 0
35.471592 21.450529 12.609794 0.27551812 0.95991105 0.051581062 0
36.585388 21.132805 12.593951 0.27551812 0.95991111 0.051581062 0
37.810577 20.781681 12.606271 0.27551788 0.95991105 0.051581066 0
38.770985 20.506184 12.620734 0.27551842 0.95991099 0.051581133 0
1.1295863 21.895155 12.623137 -0.98004597 0.19274662 0.048565842 0
1.3280848 22.555002 12.591766 -0.90787798 0.41579884 0.053561185 0
30.97229 22.730537 12.737293 0.27551815 0.95991105 0.051581115 0
31.847008 22.4891 12.576525 0.27551848 0.95991087 0.051581111 0
33.007393 22.156992 12.580156 0.27551848 0.95991093 0.051581107 0
34.170658 21.821787 12.625384 0.27551845 0.95991093 0.051581107 0
34.873825 21.627987 12.49091 0.27551794 0.95991111 0.051581092 0
1.8565421 23.324259 12.659145 -0.74619538 0.66285241 0.061799463 0
2.6802945 23.915686 12.723123 -0.30458051 0.95065314 0.059070125 0
27.04525 23.858837 12.644873 0.27551845 0.95991099 0.051581107 0
28.185694 23.536106 12.581304 0.275518 0.95991105 0.051581059 0
29.419956 23.180246 12.632998 0.27551833 0.95991093 0.051581088 0
30.365847 22.913134 12.56976 0.27551842 0.95991099 0.051581133 0
3.2565496 24.102486 12.535536 -0.25948504 0.96416885 0.055190805 0
4.1877503 24.211506 12.621599 -0.082841992 0.99520963 0.051914353 0
5.4482188 24.317223 12.609031 -0.082841992 0.99520957 0.051914357 0
6.6584649 24.416273 12.64319 -0.082841985 0.99520957 0.051914357 0
7.8035793 24.513758 12.603996 -0.082841977 0.99520957 0.051914342 0
9.0261221 24.616367 12.590084 -0.082841985 0.99520952 0.05191436 0
10.248182 24.714834 12.654155 -0.082841992 0.99520963 0.05191436 0
11.429408 24.819065 12.543855 -0.082842 0.99520957 0.051914375 0
12.626449 24.913519 12.64483 -0.082841992 0.99520963 0.05191436 0
13.80301 25.014008 12.598315 -0.082841985 0.99520963 0.051914349 0
14.986302 25.112257 12.605107 -0.082841985 0.99520957 0.051914345 0
15.869655 25.178179 12.751526 -0.082842074 0.99520957 0.051914427 0
22.548798 25.14374 12.66763 0.27551809 0.95991099 0.051581107 0
23.393023 24.903929 12.637027 0.27551779 0.95991111 0.051581074 0
24.588476 24.563219 12.6146 0.27551845 0.95991099 0.051581107 0
25.801201 24.216854 12.604931 0.27551815 0.95991099 0.051581066 0
26.505484 24.02808 12.3724 0.27551794 0.95991105 0.051581081 0
16.450529 25.237835 12.537452 -0.08284203 0.99520957 0.051914431 0
17.4132 25.315729 12.581619 -0.082841985 0.99520957 0.051914345 0
18.579536 25.410576 12.626371 -0.082841985 0.99520952 0.05191436 0
19.806686 25.514961 12.586183 -0.082841992 0.99520957 0.05191436 0
21.047197 25.541992 12.593851 0.14708677 0.98774678 0.052170191 0
22.033627 25.29707 12.557904 0.27551848 0.95991093 0.051581129 0
19.0748 9.5953655 13.524142 -0.082842067 -0.99520957 0.051914372 0
19.809517 9.5471611 13.771818 -0.082841985 -0.99520952 0.05191436 0
20.896263 9.5031328 13.764138 0.069665104 -0.99600101 0.055935286 0
4.6846085 10.786174 13.365013 -0.082842082 -0.99520963 0.051914386 0
5.4238043 10.743908 13.732514 -0.082841985 -0.99520952 0.05191436 0
6.6061711 10.648383 13.789656 -0.082841977 -0.99520952 0.051914345 0
7.8164062 10.54571 13.755083 -0.082841985 -0.99520957 0.051914364 0
8.9978037 10.447246 13.754858 -0.082841992 -0.99520957 0.05191436 0
10.201785 10.350571 13.824471 -0.082841985 -0.99520957 0.051914353 0
11.391132 10.249721 13.791369 -0.082841985 -0.99520952 0.051914349 0
12.591781 10.15213 13.838253 -0.082841985 -0.99520952 0.051914357 0
13.811534 10.050926 13.846608 -0.082841977 -0.99520957 0.051914342 0
14.965908 9.9550142 13.851967 -0.082841977 -0.99520957 0.051914342 0
16.250328 9.8440504 13.777318 -0.082841992 -0.99520963 0.051914353 0
17.453636 9.7459221 13.818094 -0.082841985 -0.99520957 0.051914345 0
18.56295 9.6536379 13.8211 -0.082841992 -0.99520963 0.05191436 0
19.337328 9.6082382 14.184927 -0.082842074 -0.99520963 0.051914383 0
21.495644 9.6221561 13.899281 0.27551794 -0.95991111 0.051581092 0
22.205097 9.8222237 13.846761 0.27551836 -0.95991099 0.051581096 0
23.383371 10.155814 13.78373 0.27551812 -0.95991111 0.051581062 0
24.658302 10.522824 13.826491 0.27551821 -0.95991099 0.051581074 0
25.441494 10.742105 13.73969 0.27551809 -0.95991099 0.051581107 0
1.9935023 11.609716 13.783827 -0.6844877 -0.72644138 0.061315086 0
2.9632137 11.056043 13.800498 -0.28421521 -0.95721853 0.054354098 0
4.1737952 10.854296 13.850788 -0.082860596 -0.99520802 0.051915195 0
4.9080548 10.8095 14.162724 -0.082842074 -0.99520957 0.051914383 0
26.038042 10.919109 13.856513 0.27551848 -0.95991093 0.051581126 0
27.024927 11.198261 13.799079 0.27551851 -0.95991087 0.051581115 0
28.152876 11.521007 13.801253 0.27551806 -0.95991105 0.051581055 0
29.359369 11.862317 13.731755 0.27551857 -0.95991087 0.051581115 0
1.175734 13.096907 13.481186 -0.98046899 -0.18985337 0.051343895 0
1.3764783 12.547778 13.873707 -0.93396574 -0.35317314 0.054559097 0
29.895741 12.026933 13.936958 0.27551794 -0.95991105 0.051581088 0
30.623941 12.230201 13.84479 0.2755183 -0.95991099 0.051581085 0
31.782217 12.556926 13.760882 0.2755183 -0.95991093 0.051581085 0
32.995335 12.906981 13.816978 0.27551815 -0.95991099 0.051581066 0
33.8186 13.138212 13.739098 0.27551809 -0.95991099 0.051581111 0
1.067245 13.768345 13.854838 -0.98191738 -0.18195418 0.052257553 0
34.395966 13.308075 13.825385 0.27551854 -0.95991099 0.051581126 0
35.397938 13.593756 13.808707 0.27551776 -0.95991117 0.051581077 0
36.599918 13.936073 13.781398 0.27551812 -0.95991105 0.051581062 0
37.689934 14.245977 13.746823 0.27551857 -0.95991093 0.051581118 0
0.86747301 15.037004 13.820699 -0.99362093 -0.10026325 0.051621184 0
18.939312 15.337174 13.793452 0.72595358 0.68774354 0.00046135692 0
19.800138 14.80814 13.800312 0.40881833 0.91261572 -0.00017799081 0
21.028164 14.575197 13.757226 -0.0044925697 0.99998981 0.00040957768 0
22.244677 14.878633 13.752034 -0.4327673 0.90150338 0.0020273954 0
22.973087 15.349694 13.84922 -0.75579995 0.65479559 0.0030250533 0
38.268009 14.423083 13.962713 0.27551794 -0.95991111 0.051581096 0
39.006054 14.625524 13.803563 0.27551815 -0.95991099 0.051581066 0
40.205471 14.966779 13.770246 0.27551824 -0.95991093 0.051581077 0
41.402554 15.312386 13.828859 0.27551845 -0.95991099 0.051581107 0
42.19611 15.53456 13.738086 0.29177299 -0.95488411 0.055362683 0
0.76916456 16.184242 13.799634 -0.99523485 -0.0842878 0.04902235 0
18.337496 16.185421 13.763329 0.89181554 0.4523977 -0.0011205125 0
23.546686 16.169786 13.747008 -0.8915174 0.45298544 -0.00092603802 0
42.793976 15.828854 13.832071 0.52373493 -0.84652841 0.095348999 0
43.452835 16.446501 13.794226 0.84691823 -0.50778347 0.15775128 0
0.70892662 17.430382 13.839231 -0.9986316 -0.0031910317 0.052199565 0
17.971365 17.506519 13.847219 0.99978203 -0.020860583 0.0008517367 0
18.042723 17.331446 13.812627 0.99829632 0.058347326 0.00028198338 0
23.876404 17.406807 13.787555 -0.99935561 0.035879064 0.00099690165 0
43.768177 17.392786 13.780212 0.97952193 -0.074761905 0.18694261 0
0.74985319 18.595995 13.805721 -0.99631006 0.069727995 0.050043214 0
18.238155 18.607784 13.804315 0.91651583 -0.39999628 -0.0013346402 0
23.636887 18.651516 13.851705 -0.91383272 -0.40608951 0.00098311843 0
42.981457 19.073294 13.866891 0.56915987 0.8150326 0.10853028 0
43.541145 18.454041 13.693319 0.85502493 0.49224034 0.1631927 0
0.84417635 19.791946 13.825506 -0.99361449 0.099800915 0.052630123 0
18.870026 19.580732 13.771435 0.74172413 -0.67070496 0.00043014245 0
19.665644 20.129162 13.840016 0.43289259 -0.90144539 -0.00012678052 0
22.228256 20.129263 13.751729 -0.43780622 -0.89906561 -0.0025860362 0
23.089525 19.50436 13.778504 -0.77012461 -0.63787603 -0.0047178157 0
39.235462 20.306984 13.838037 0.27551836 0.95991093 0.051581133 0
40.208939 20.03108 13.791221 0.27551353 0.95991236 0.051580183 0
41.405598 19.690716 13.756029 0.2755183 0.95991093 0.051581085 0
42.415749 19.37582 13.841583 0.36752525 0.92745328 0.068960547 0
1.013569 20.958714 13.784852 -0.98266077 0.17779389 0.05260415 0
20.321529 20.421858 13.844847 0.098338202 -0.99514365 -0.0043314388 0
20.957434 20.424803 13.812125 -0.004346923 -0.99999005 0.0010492159 0
21.635485 20.413929 13.728543 -0.21593992 -0.9763763 -0.0077061346 0
34.725018 21.581251 14.129101 0.27551797 0.95991105 0.051581088 0
35.402565 21.404545 13.815458 0.275518 0.95991105 0.051581059 0
36.559708 21.074024 13.807213 0.27551812 0.95991111 0.051581062 0
37.872177 20.698214 13.814319 0.27551836 0.95991099 0.051581096 0
38.633785 20.483271 13.761123 0.27551812 0.95991105 0.051581111 0
1.1617316 21.751888 13.77563 -0.98046565 0.18986957 0.051348258 0
1.3372388 22.373453 13.857456 -0.93689454 0.3453756 0.054261889 0
30.897688 22.690294 13.86693 0.27551821 0.95991105 0.051581122 0
31.81871 22.433331 13.748047 0.2755183 0.95991099 0.051581085 0
33.012722 22.091505 13.753476 0.275518 0.95991099 0.051581059 0
34.178288 21.755039 13.809878 0.27551782 0.95991105 0.05158107 0
1.901215 23.273661 13.787511 -0.7363556 0.67385733 0.060801078 0
2.749743 23.867708 13.806917 -0.33612412 0.93970519 0.063046396 0
26.318371 23.979046 14.253791 0.27551797 0.95991099 0.051581088 0
26.983517 23.813879 13.79364 0.27551839 0.95991093 0.051581096 0
28.185263 23.467495 13.842172 0.27551794 0.95991105 0.051581066 0
29.369503 23.129139 13.834998 0.27551815 0.95991099 0.051581066 0
30.259474 22.878836 13.757095 0.27551812 0.95991099 0.051581107 0
3.35727 24.064301 13.767423 -0.22068347 0.97413117 0.048654202 0
4.1578817 24.147409 13.793178 -0.082841985 0.99520957 0.051914357 0
5.3989439 24.249044 13.827238 -0.082841985 0.99520957 0.051914353 0
6.6414442 24.354719 13.786736 -0.082841985 0.99520957 0.051914357 0
7.7488112 24.445477 13.815759 -0.082841985 0.99520957 0.051914353 0
8.9965048 24.549421 13.816177 -0.082841992 0.99520957 0.051914357 0
10.207016 24.649836 13.824983 -0.082841985 0.99520963 0.051914349 0
11.452821 24.752592 13.844956 -0.082841977 0.99520957 0.051914342 0
12.522906 24.843884 13.804733 -0.082841977 0.99520957 0.051914342 0
13.836662 24.957165 13.732574 -0.082841992 0.99520957 0.051914364 0
15.007365 25.049923 13.823792 -0.082841985 0.99520957 0.051914353 0
16.148979 25.149258 13.743981 -0.082842 0.99520957 0.051914375 0
16.899971 25.190956 14.141195 -0.082842074 0.99520952 0.051914379 0
22.480339 25.09868 13.853492 0.27551827 0.95991093 0.051581133 0
23.413002 24.835285 13.791639 0.27551815 0.95991099 0.051581066 0
24.583174 24.50001 13.801959 0.275518 0.95991105 0.051581062 0
25.793539 24.154699 13.785328 0.2755186 0.95991093 0.051581118 0
16.6712 25.211664 13.384672 -0.082842074 0.99520957 0.051914383 0
17.494419 25.259466 13.780148 -0.082841985 0.99520957 0.051914353 0
18.616873 25.349997 13.837339 -0.082841992 0.99520963 0.05191436 0
19.761591 25.449158 13.765844 -0.082841985 0.99520957 0.051914353 0
21.037663 25.478445 13.820213 0.14406161 0.98818153 0.052378021 0
21.839571 25.289295 13.718953 0.27551845 0.95991093 0.051581129 0
20.115105 9.5760374 14.805106 -0.082842052 -0.99520957 0.051914435 0
20.802557 9.5419626 14.915672 0.019315751 -0.99871671 0.046817876 0
5.7391887 10.777408 14.869301 -0.082842067 -0.99520963 0.051914439 0
6.6080666 10.712284 15.007851 -0.082841977 -0.99520957 0.051914342 0
7.800971 10.611856 14.988449 -0.082842 -0.99520957 0.051914372 0
9.0126572 10.511979 15.009294 -0.082841985 -0.99520952 0.051914349 0
10.165145 10.415297 14.99707 -0.082841977 -0.99520957 0.051914338 0
11.422533 10.310394 14.994827 -0.082841985 -0.99520957 0.051914345 0
12.590458 10.213614 15.005269 -0.082842 -0.99520957 0.051914375 0
13.790722 10.113215 14.998096 -0.082841985 -0.99520957 0.051914345 0
15.004617 10.012941 15.014818 -0.082841977 -0.99520957 0.051914342 0
16.256971 9.905467 14.955696 -0.082841985 -0.99520957 0.051914364 0
17.405516 9.8112612 14.984292 -0.082841985 -0.99520957 0.051914357 0
18.590694 9.7106543 14.949277 -0.082841985 -0.99520957 0.051914353 0
19.628302 9.6324911 15.107163 -0.082842022 -0.99520963 0.051914424 0
21.382374 9.6503382 15.01068 0.27551806 -0.95991099 0.051581103 0
22.14455 9.8706026 15.052045 0.27551821 -0.95991099 0.051581074 0
23.36754 10.218834 15.022926 0.27551836 -0.95991099 0.051581096 0
24.564283 10.558227 14.96945 0.27551794 -0.95991105 0.051581066 0
25.315086 10.765662 14.835299 0.27551794 -0.95991111 0.051581092 0
2.0389314 11.660217 14.918765 -0.68272412 -0.72812593 0.060994968 0
3.0287988 11.109355 15.003061 -0.30459753 -0.95070821 0.058088295 0
4.1898336 10.910865 14.951939 -0.082905121 -0.99520123 0.051974401 0
5.1839795 10.83472 15.07938 -0.082842015 -0.99520957 0.051914405 0
25.927555 10.950087 15.004583 0.27551866 -0.95991093 0.051581118 0
27.011789 11.261889 15.035305 0.2755183 -0.95991093 0.051581085 0
28.21661 11.605968 15.02542 0.27551806 -0.95991105 0.051581055 0
29.228287 11.893616 14.993682 0.27551848 -0.95991093 0.051581126 0
1.4219766 12.61295 15.028855 -0.93224365 -0.35752594 0.055651158 0
29.806597 12.060843 15.027055 0.27551809 -0.95991099 0.051581107 0
30.567377 12.276569 14.992361 0.27551812 -0.95991105 0.051581066 0
31.817469 12.631432 14.942674 0.27551815 -0.95991099 0.051581066 0
33.002712 12.975361 15.032785 0.27551839 -0.95991093 0.0515811 0
33.707066 13.171233 14.929914 0.27551791 -0.95991105 0.051581096 0
1.1145321 13.820214 14.935737 -0.98218876 -0.18047999 0.052271396 0
1.2228695 13.303012 15.156644 -0.98046285 -0.18988301 0.05135189 0
34.31218 13.350103 15.036242 0.27551854 -0.95991093 0.051581115 0
35.41761 13.665327 15.018492 0.27551812 -0.95991111 0.051581062 0
36.56847 13.990548 14.945775 0.27551836 -0.95991099 0.051581096 0
37.608841 14.29037 14.986917 0.27551848 -0.95991093 0.051581129 0
0.93430996 14.988649 14.991343 -0.99287122 -0.10714868 0.052210342 0
18.958279 15.312142 15.009645 0.71530646 0.69880772 -0.0020938101 0
19.732662 14.840909 14.964087 0.40153322 0.91584438 -0.00030654809 0
20.996023 14.575197 14.997222 -0.0068725813 0.99997616 -0.00061787741 0
22.222498 14.867996 15.006746 -0.42819002 0.90368748 -0.0015139262 0
22.985312 15.365218 14.95132 -0.76270235 0.64673257 -0.0046961601 0
38.199352 14.462874 15.052829 0.27551809 -0.95991105 0.051581107 0
39.015625 14.695294 15.033449 0.275518 -0.95991111 0.051581062 0
40.149609 15.016323 14.972207 0.27551803 -0.95991099 0.051581055 0
41.408554 15.378204 15.004807 0.27573386 -0.95985192 0.051529102 0
42.063553 15.562807 14.946971 0.30978477 -0.94921708 0.054956932 0
0.82772237 16.183121 14.995833 -0.9952116 -0.084763341 0.048672277 0
18.347954 16.155872 14.977045 0.8959949 0.44406256 -0.0012761934 0
23.55401 16.18224 15.017715 -0.89151287 0.45299369 0.0012203963 0
42.66716 15.910302 15.054485 0.56625742 -0.8174938 0.10514943 0
43.312309 16.601557 15.027754 0.89967507 -0.40583256 0.16088726 0
0.76784128 17.3876 14.953381 -0.99860197 -0.0062438115 0.052488633 0
17.975285 17.497589 14.927782 0.99999648 3.5349283e-05 -0.0026495981 0
18.044991 17.317495 14.918225 0.99654198 0.083090506 0.00016313506 0
23.878656 17.398472 15.017095 -0.99927783 0.037993453 -0.00060878764 0
43.535339 17.399069 14.979373 0.97852761 -0.08337231 0.18850149 0
0.81337982 18.614485 15.039062 -0.99622893 0.070920318 0.049981117 0
18.257946 18.639528 15.034994 0.91741192 -0.39793792 -0.00077974232 0
23.646854 18.632652 14.979539 -0.9198454 -0.39227498 0.0021934945 0
42.919266 18.930302 15.04241 0.67701358 0.72420728 0.13105896 0
43.372196 18.331718 14.969789 0.88966697 0.42389092 0.16973244 0
0.90370291 19.793411 14.970228 -0.99393928 0.096809156 0.052084286 0
18.866634 19.573582 15.0625 0.72227144 -0.69160646 -0.0021062617 0
19.715363 20.153105 15.036222 0.43230996 -0.90172458 -0.0010130117 0
22.218679 20.133888 14.973764 -0.43711615 -0.89940286 0.0020009221 0
23.063557 19.536974 14.949166 -0.76521415 -0.6437754 0.00066675647 0
39.135853 20.272551 14.992332 0.27551857 0.95991087 0.051581115 0
40.218472 19.961124 15.024741 0.27551836 0.95991099 0.051581096 0
41.400833 19.625563 14.976238 0.2756817 0.9598617 0.051624503 0
42.327515 19.329668 14.93566 0.40688744 0.91033721 0.075689189 0
1.0830694 20.991478 14.989591 -0.98263335 0.17795473 0.052571759 0
1.2077862 21.567211 15.350388 -0.98046291 0.18988296 0.051351894 0
20.313688 20.422461 14.932804 0.16415012 -0.98638546 -0.0099228444 0
21.030411 20.424803 14.986611 -0.01018776 -0.99994773 0.00083363371 0
21.637133 20.413332 14.995167 -0.27340978 -0.96189767 7.3315212e-05 0
34.651817 21.558908 14.923231 0.27551803 0.95991105 0.051581103 0
35.405609 21.342434 14.939295 0.27551827 0.95991099 0.051581085 0
36.588406 21.000101 15.012531 0.27551848 0.95991087 0.051581111 0
37.768978 20.66375 14.988047 0.27551815 0.95991099 0.051581066 0
38.546188 20.442936 14.960818 0.27551803 0.95991099 0.051581103 0
1.1837233 21.640335 14.614633 -0.98046285 0.18988296 0.05135189 0
1.3394786 22.183907 14.99712 -0.95327479 0.29756844 0.052156176 0
30.731438 22.674595 15.027373 0.27551836 0.95991099 0.051581096 0
31.795572 22.373428 14.96827 0.27551851 0.95991087 0.051581111 0
33.016945 22.023594 14.977133 0.27551803 0.95991099 0.051581055 0
34.021427 21.736519 14.97291 0.27551863 0.95991093 0.051581122 0
1.9411677 23.208967 15.019328 -0.73261529 0.67794371 0.060557202 0
2.9260495 23.847525 15.097897 -0.34220749 0.93778807 0.058715574 0
26.239027 23.956188 15.089588 0.27551803 0.95991099 0.051581103 0
27.029305 23.737871 14.947589 0.27551833 0.95991093 0.051581088 0
28.146624 23.417778 14.956862 0.27551851 0.95991087 0.051581111 0
29.399086 23.062937 14.894406 0.27551836 0.95991099 0.051581096 0
30.167738 22.839928 14.952271 0.27551806 0.95991105 0.051581107 0
3.468832 24.02673 14.879086 -0.15995304 0.98591858 0.048780773 0
4.2080922 24.088184 14.998941 -0.08311896 0.99518502 0.051943734 0
5.4179764 24.187775 15.022397 -0.082841985 0.99520963 0.051914349 0
6.5792594 24.288368 14.949806 -0.082841985 0.99520957 0.051914357 0
7.7639561 24.38117 15.062268 -0.082841992 0.99520957 0.05191436 0
8.9611044 24.483927 15.005359 -0.082841985 0.99520963 0.051914349 0
10.217744 24.589684 14.98571 -0.082841992 0.99520963 0.05191436 0
11.371181 24.683325 15.032757 -0.082841985 0.99520957 0.051914345 0
12.620547 24.790062 14.983075 -0.082841985 0.99520957 0.051914353 0
13.830023 24.890633 14.987103 -0.082841985 0.99520957 0.051914345 0
15.00093 24.989761 14.957556 -0.082841977 0.99520957 0.051914334 0
16.24012 25.093204 14.954278 -0.082841985 0.99520963 0.051914349 0
17.219784 25.166241 15.117595 -0.08284203 0.99520957 0.051914439 0
22.344957 25.071621 15.060283 0.27551857 0.95991087 0.051581115 0
23.350994 24.787699 14.989916 0.27551803 0.95991099 0.051581055 0
24.64492 24.41633 15.012878 0.275518 0.95991105 0.051581062 0
25.673296 24.127192 14.921046 0.2755186 0.95991093 0.051581118 0
17.748154 25.223196 14.872037 -0.082842067 0.99520952 0.051914427 0
18.595539 25.287672 14.988753 -0.082841977 0.99520957 0.051914338 0
19.808321 25.38784 15.005823 -0.082842 0.99520957 0.051914375 0
20.978233 25.424274 14.978492 0.10259047 0.99335933 0.052081559 0
21.78322 25.24201 14.882204 0.27551803 0.95991105 0.051581103 0
20.788244 9.5829887 15.928551 -0.003025441 -0.99852163 0.054271571 0
6.7264471 10.762979 16.159365 -0.082842007 -0.99520957 0.051914398 0
7.780899 10.677999 16.214426 -0.082841985 -0.99520957 0.051914345 0
8.9929056 10.575299 16.182016 -0.082841985 -0.99520957 0.051914353 0
10.235656 10.471948 16.18605 -0.082841977 -0.99520957 0.051914338 0
11.404694 10.375098 16.196863 -0.082841977 -0.99520952 0.051914345 0
12.597643 10.275891 16.20075 -0.082841992 -0.99520963 0.05191436 0
13.784042 10.175768 16.176876 -0.082841977 -0.99520952 0.051914345 0
14.961052 10.078873 16.199533 -0.082841985 -0.99520957 0.051914357 0
16.133867 9.9805422 16.188238 -0.082842 -0.99520957 0.051914375 0
17.384914 9.8779612 16.219955 -0.082841985 -0.99520963 0.051914349 0
18.578457 9.7762365 16.176928 -0.082841985 -0.99520963 0.051914349 0
19.791245 9.6764917 16.202038 -0.082841977 -0.99520957 0.051914342 0
21.102392 9.6738548 16.304466 0.18018578 -0.98226738 0.051805861 0
22.162622 9.9396448 16.223833 0.27551797 -0.95991111 0.051581066 0
23.437231 10.303412 16.208818 0.27551788 -0.95991105 0.051581066 0
24.61528 10.639403 16.191038 0.27551815 -0.95991099 0.051581066 0
25.231281 10.794199 15.79836 0.275518 -0.95991105 0.051581103 0
2.1197519 11.688873 16.195894 -0.66322881 -0.74545234 0.06654577 0
2.9842927 11.194896 16.18189 -0.34674704 -0.93616891 0.057915427 0
4.1850033 10.97716 16.204832 -0.083421409 -0.99515849 0.051966611 0
5.3809295 10.878788 16.22946 -0.082841985 -0.99520957 0.051914357 0
6.2352343 10.823004 16.522417 -0.082842052 -0.99520957 0.051914386 0
25.142126 10.810749 16.569824 0.27551803 -0.95991105 0.051581103 0
25.794727 10.97817 16.216717 0.27551845 -0.95991099 0.051581107 0
27.02346 11.328656 16.198908 0.27551848 -0.95991087 0.051581111 0
28.157759 11.655231 16.237883 0.27551812 -0.95991105 0.051581066 0
29.11849 11.928162 16.20351 0.27551833 -0.95991093 0.051581137 0
1.4924878 12.598175 16.162394 -0.92379379 -0.37893561 0.054889679 0
29.708841 12.097232 16.207355 0.27551821 -0.95991105 0.051581122 0
30.626133 12.358099 16.17977 0.27551848 -0.95991093 0.051581107 0
31.783613 12.68953 16.186281 0.27551815 -0.95991099 0.051581066 0
32.994102 13.033925 16.152281 0.27551821 -0.95991099 0.051581074 0
33.633102 13.190599 15.67355 0.27551803 -0.95991105 0.051581103 0
1.1347997 14.054252 16.124905 -0.98323935 -0.17444143 0.053015165 0
1.249602 13.456691 16.235968 -0.981121 -0.18637656 0.051627856 0
33.546291 13.212514 16.530975 0.27551797 -0.95991105 0.051581088 0
34.215874 13.387465 16.226994 0.275518 -0.95991105 0.051581059 0
35.416031 13.727507 16.16732 0.27551806 -0.95991105 0.051581055 0
36.631458 14.078029 16.220257 0.27551839 -0.95991093 0.0515811 0
37.477688 14.317854 16.179163 0.27551815 -0.95991105 0.051581115 0
0.9949072 14.996174 16.170715 -0.99257582 -0.11028459 0.05129024 0
18.951151 15.324325 16.190994 0.70749372 0.70671684 -0.0019991761 0
19.81921 14.799907 16.237827 0.39467594 0.91882038 -7.2218805e-05 0
21.047564 14.575197 16.204905 -0.006686883 0.99997741 0.00072056358 0
22.200094 14.857198 16.195217 -0.42995906 0.90284503 -0.0024756978 0
22.97072 15.347017 16.072084 -0.7654776 0.64346254 -7.7010744e-05 0
38.099934 14.49963 16.248871 0.27551842 -0.95991093 0.051581129 0
38.980476 14.750784 16.235966 0.275518 -0.95991105 0.051581059 0
40.189041 15.09477 16.204388 0.27551851 -0.95991087 0.051581111 0
41.341782 15.423893 16.192873 0.28006262 -0.95858479 0.051770601 0
42.0028 15.588 15.6856 0.33366489 -0.94173265 0.042513184 0
0.88351434 16.208317 16.172972 -0.99588591 -0.076103054 0.049189098 0
18.34074 16.169697 16.18557 0.89388222 0.44829789 0.0018838022 0
23.565971 16.184437 16.169498 -0.89353573 0.44899169 0.00066480576 0
41.962761 15.631138 16.427614 0.38470465 -0.92025554 0.071638376 0
42.673763 16.115046 16.19544 0.68638992 -0.71565467 0.1292565 0
43.246216 16.768101 15.776458 0.90545976 -0.39194784 0.16284819 0
0.83111417 17.405798 16.178818 -0.99862528 -0.0051771039 0.052159876 0
17.973913 17.499889 16.228926 0.99997342 -0.0064484775 -0.0033935634 0
18.044037 17.352613 16.21114 0.99813586 0.061030485 5.3254982e-05 0
23.877645 17.369984 16.206421 -0.9991098 0.042180147 -0.00065710326 0
43.162514 17.086758 16.621105 0.93695486 -0.30017403 0.1789165 0
43.312729 17.471167 16.186064 0.98208851 -0.023974065 0.18688892 0
0.86926782 18.62468 16.153553 -0.99641001 0.06873057 0.04942812 0
18.256266 18.635695 16.228386 0.9165051 -0.40002233 -0.00067154161 0
23.648653 18.621147 16.231752 -0.9263956 -0.37654391 0.00242453 0
42.810925 18.762699 16.263407 0.73921591 0.6591599 0.13808727 0
43.254448 18.179281 15.986167 0.91612267 0.35963401 0.17715132 0
0.97387356 19.837925 16.230511 -0.99305785 0.10556749 0.051879909 0
18.884167 19.596581 16.217829 0.73843294 -0.67432344 -0.0021734193 0
19.727081 20.158745 16.195795 0.43251616 -0.90162617 -5.7881658e-05 0
22.226835 20.12995 16.186298 -0.43711022 -0.89940071 -0.0036157987 0
23.08165 19.514212 16.161308 -0.77457881 -0.6324755 -0.0015256397 0
38.386002 20.393101 16.71545 0.27551803 0.95991105 0.051581103 0
39.047901 20.230787 16.220045 0.27551824 0.95991093 0.051581077 0
40.209484 19.899885 16.195148 0.27551812 0.95991105 0.051581066 0
41.351055 19.569752 16.256702 0.27860388 0.95897812 0.052353188 0
42.191895 19.288521 16.18449 0.42394441 0.90209633 0.080581181 0
1.117969 20.832541 16.186117 -0.98329741 0.17408055 0.053124715 0
1.2279609 21.420563 16.270782 -0.98146808 0.18450874 0.051738933 0
20.315922 20.421658 16.310555 0.14775042 -0.98898691 -0.0086370381 0
21.023071 20.424803 16.131365 -0.0077991583 -0.99996811 0.0017389692 0
21.62705 20.417351 16.180883 -0.23730357 -0.97103298 0.027965352 0
34.538368 21.519693 16.238001 0.27551809 0.95991099 0.051581107 0
35.392811 21.278568 16.178007 0.27551839 0.95991093 0.0515811 0
36.617355 20.929398 16.157747 0.27551815 0.95991099 0.051581066 0
37.776249 20.597927 16.157427 0.27551815 0.95991099 0.051581066 0
38.462429 20.415888 15.896456 0.275518 0.95991105 0.0515811 0
1.4208056 22.212713 16.233231 -0.94778645 0.31433779 0.053784236 0
30.621801 22.642054 16.199827 0.27551821 0.95991099 0.051581077 0
31.802534 22.304613 16.194332 0.27551812 0.95991105 0.051581066 0
