# .PCD v0.7 - Point Cloud Data file format
VERSION 0.7
FIELDS x y z normal_x normal_y normal_z curvature
SIZE 4 4 4 4 4 4 4
TYPE F F F F F F F
COUNT 1 1 1 1 1 1 1
WIDTH 720
HEIGHT 1
VIEWPOINT 0 0 0 1 0 0 0
POINTS 720
DATA ascii
28.963062 9.011241 10 0.00097751524 0.00097751524 0.99999899 0
30.998327 9.0281944 10 0.00097751524 0.00097751524 0.99999899 0
32.94313 9.0071735 10 0.00097751548 0.00097751548 0.99999911 0
34.992741 9.0090809 10 0.00097751548 0.00097751548 0.99999911 0
36.992931 8.9879265 10 0.00097751524 0.00097751524 0.99999899 0
39.007942 8.9912853 10 0.00097751536 0.00097751536 0.99999905 0
41.042366 9.0072813 10 0.026433924 0.011404618 0.99958551 0
42.228695 8.673604 10 0.34232628 0.1269224 0.93096912 0
-6.5573068 10.325562 10 -0.23423354 0.35331333 0.90570658 0
-4.8950968 10.709683 10 -0.058885831 0.1392878 0.98849952 0
-3.008198 10.990115 10 -0.017298978 0.065188624 0.99772298 0
-0.97617579 10.990083 10 0.00022988323 0.0074535962 0.99997222 0
0.98553872 11.007649 10 0.0015913909 0.008545164 0.99996221 0
3.015682 11.003137 10 0.0090105971 0.057986885 0.99827665 0
5.048389 11.013505 10 0.00059714046 0.10643189 0.99431986 0
6.98452 11.029922 10 0.0010313054 0.10397863 0.99457902 0
9.0129166 10.970718 10 -0.0015395448 0.089776486 0.99596071 0
10.986722 11.015161 10.005169 -0.012178168 0.14439669 0.98944497 0
13.01521 10.959933 10.075363 -0.048691157 0.28729779 0.95660293 0
15.021915 10.902161 10.196502 -0.024420226 0.45991716 0.88762593 0
16.979784 10.92807 10.1654 0.036687765 0.42459083 0.90464169 0
18.98481 10.958559 10.050718 0.043190319 0.24224186 0.96925408 0
20.983013 11.003422 10.001458 0.0081267236 0.11036436 0.99385804 0
22.99773 10.999355 10 -0.0064063468 0.043650322 0.99902636 0
25.016064 11.018141 10 0.00097751536 0.00097751536 0.99999905 0
27.031767 10.982849 10 0.00097751548 0.00097751548 0.99999911 0
28.966587 11.013661 10 0.00097751536 0.00097751536 0.99999905 0
30.990772 11.004714 10 0.00097751524 0.00097751524 0.99999899 0
33.003887 11.011186 10 0.00097751524 0.00097751524 0.99999899 0
34.971573 10.941792 10 0.00097751524 0.00097751524 0.99999899 0
37.002262 10.988627 10 0.00097751536 0.00097751536 0.99999905 0
38.988266 11.003525 10 0.00097751536 0.00097751536 0.99999911 0
40.783264 10.932532 10 0.13519751 0.061921027 0.98888195 0
-2.5232577 12.105379 10 -0.11823238 0.53146923 0.83878577 0
-0.93416268 12.218311 10 -0.036188468 0.43541926 0.89950013 0
0.960527 12.221649 10 0.029156582 0.38964242 0.92050457 0
2.4751639 12.124897 10 0.11254659 0.51573187 0.8493256 0
23.453268 12.219891 10 -0.17801598 0.37242788 0.91082805 0
25.120136 12.906435 10 -0.083182611 0.059037454 0.994784 0
26.968105 12.993762 10 0.00097751536 0.00097751536 0.99999911 0
29.008917 12.989494 10 0.00097751536 0.00097751536 0.99999911 0
31.006252 13.01603 10 0.00097751536 0.00097751536 0.99999905 0
33.013805 12.977402 10 0.00097751524 0.00097751524 0.99999899 0
34.996922 12.985127 10 0.00097751536 0.00097751536 0.99999905 0
36.93977 13.018256 10 0.00097751548 0.00097751548 0.99999911 0
38.989632 12.987535 10 0.027305862 0.016187856 0.99949604 0
40.370384 12.62503 10 0.30137408 0.18356653 0.9356693 0
25.474485 14.986181 10 -0.19254088 0.015668657 0.98116386 0
26.971998 14.997316 10 0.00097751548 0.00097751548 0.99999911 0
28.991602 14.988052 10 0.00097751536 0.00097751536 0.99999911 0
30.967648 14.997885 10 0.00097751536 0.00097751536 0.99999911 0
32.988235 14.975927 10 0.00097751536 0.00097751536 0.99999905 0
35.000729 15.009995 10 0.00097751536 0.00097751536 0.99999911 0
37.00156 14.994957 10 0.0014153093 0.0013740659 0.99999809 0
38.696205 14.809155 10 0.16691896 0.12440124 0.97809124 0
25.509413 17.062698 10 -0.18523045 0.0015268216 0.98269385 0
27.0305 16.995424 10 0.00097751536 0.00097751536 0.99999905 0
28.96921 16.999083 10 0.00097751548 0.00097751548 0.99999911 0
30.973061 16.995981 10 0.00097751536 0.00097751536 0.99999905 0
33.033592 16.996857 10 0.00097751548 0.00097751548 0.99999911 0
35.009037 16.984278 10 0.00097751536 0.00097751536 0.99999905 0
36.833332 16.861612 10 0.096516334 0.08385323 0.99179292 0
38.222095 16.158802 10 0.41568854 0.37782758 0.8273145 0
25.496197 19.005871 10 -0.19686717 0.00012814649 0.98043013 0
26.988239 18.992979 10 0.00097751536 0.00097751536 0.99999905 0
29.027216 18.993872 10 0.00097751524 0.00097751524 0.99999899 0
31.009192 19.00021 10 0.00097751536 0.00097751536 0.99999905 0
33.004292 19.000471 10 0.001550584 0.0016646531 0.99999744 0
34.843185 18.830263 10 0.093207471 0.10826451 0.98974299 0
36.236507 18.329618 10 0.42196357 0.36024991 0.83196563 0
25.529121 20.939211 10 -0.22346564 0.037038781 0.9740079 0
26.976355 21.039824 10 0.00097751536 0.00097751536 0.99999911 0
29.024553 21.001013 10 0.00097751536 0.00097751536 0.99999905 0
30.995481 20.99688 10 0.015083635 0.024010591 0.99959791 0
32.853191 20.705057 10 0.13242057 0.18802588 0.97319633 0
34.157124 20.164877 10 0.30024603 0.35708985 0.88449943 0
25.767801 22.342409 10 -0.3655588 0.26633963 0.89186889 0
27.102007 22.757952 10 -0.056010097 0.13077302 0.98982894 0
28.911472 22.758785 10 0.047417637 0.14059104 0.9889316 0
30.656578 22.345343 10 0.1609716 0.28730929 0.94421476 0
11.096059 -8.496644 12.951825 -0.47799054 -0.87276828 0.098997757 0
12.994633 -9.2791729 13.012175 -0.2831291 -0.95393026 0.099271946 0
14.998135 -9.6530237 12.999142 -0.077209629 -0.9920609 0.099266492 0
16.98354 -9.6068716 12.966542 0.12651403 -0.98698127 0.099308014 0
19.013474 -9.1121378 13.009723 0.33568656 -0.93673462 0.099210277 0
20.618288 -8.3828688 12.970025 0.49960297 -0.86056328 0.099134587 0
9.0275669 -6.9571972 12.960522 -0.69150823 -0.7155177 0.099251576 0
10.134287 -7.8847189 13.19172 -0.57724231 -0.81054997 0.09899573 0
21.618576 -7.7101078 13.061613 0.60290074 -0.79166645 0.098868042 0
22.715448 -6.7320657 12.957101 0.71539426 -0.69165909 0.099089146 0
7.4346309 -4.9569845 12.997455 -0.85462606 -0.50968963 0.099150702 0
8.0897493 -5.8952866 13.333765 -0.78855258 -0.60680956 0.099835142 0
23.693878 -5.5470328 13.055501 0.81578755 -0.56976825 0.09927094 0
24.322708 -4.5327287 12.954722 0.87983912 -0.4648495 0.09898559 0
6.5540781 -3.025666 13.00614 -0.94515443 -0.31115344 0.099331565 0
24.95978 -2.9924109 12.967191 0.94629437 -0.30771056 0.099202715 0
5.9787226 -0.32006294 12.193598 -0.99461418 -0.033013072 0.098248295 0
6.1281085 -1.0148324 13.084009 -0.9896273 -0.10399878 0.099105872 0
25.385624 -0.99082541 12.963675 0.98983854 -0.10176992 0.099310629 0
5.9780459 0.3933354 12.164846 -0.99436665 0.039678033 0.098288141 0
6.1286478 1.0598083 13.031664 -0.9890815 0.10890435 0.099285752 0
25.375896 1.0234437 13.018839 0.98948771 0.10528997 0.09913604 0
6.544209 3.000144 12.989972 -0.94609129 0.30830416 0.099296167 0
24.952009 3.0144408 12.977356 0.94564116 0.30968943 0.099273048 0
7.42589 4.9512434 12.943047 -0.85525411 0.50865185 0.099063762 0
8.0808134 5.8795476 13.359251 -0.78975421 0.60531163 0.099429168 0
23.703188 5.5293112 13.079569 0.81706446 0.56798387 0.098994747 0
24.309906 4.5644579 12.922899 0.8778609 0.46853688 0.099163383 0
9.0304699 6.9588256 12.961759 -0.69116968 0.71584284 0.099265307 0
10.155704 7.8959146 13.223612 -0.57520026 0.81197703 0.099187054 0
21.616316 7.7080374 13.091154 0.60237771 0.79202652 0.099171445 0
22.724852 6.7240143 12.944175 0.71641636 0.69060946 0.099026546 0
11.124806 8.5111132 12.963079 -0.47636262 0.87364453 0.099115662 0
12.995283 9.2793808 13.018878 -0.28321266 0.95391309 0.099198587 0
14.998297 9.6525545 13.00339 -0.077184372 0.99206674 0.099227861 0
17.003191 9.6024704 12.989347 0.12864254 0.98671752 0.099195525 0
19.023802 9.107419 13.019524 0.33676934 0.93634689 0.099201262 0
20.636166 8.3750668 12.948541 0.50159514 0.85940236 0.099145435 0
11.299029 -8.3878222 14.936728 -0.46642584 -0.8789354 0.099596873 0
12.995832 -9.069664 15.02312 -0.28916809 -0.95206517 0.099768519 0
14.969776 -9.4498491 15.014338 -0.081935175 -0.99163562 0.099727094 0
17.010628 -9.3990479 14.994463 0.13228908 -0.98617911 0.099751264 0
19.00691 -8.9049597 14.98717 0.34166604 -0.93449539 0.099913672 0
20.439127 -8.2624893 14.951942 0.49124885 -0.86531854 0.099491194 0
9.1424723 -6.7929544 15.0165 -0.69369131 -0.71333939 0.099695712 0
10.317594 -7.7740488 15.133633 -0.56989706 -0.81566238 0.099559963 0
21.456709 -7.5770564 15.05867 0.5987426 -0.7946974 0.099816434 0
22.576212 -6.5951409 14.965341 0.71562314 -0.69135892 0.099531427 0
7.5356593 -4.7586446 14.936483 -0.8609944 -0.49872303 0.099819124 0
8.1932707 -5.7301288 15.145702 -0.79296839 -0.60105669 0.09965945 0
23.583433 -5.3519201 15.025003 0.82162118 -0.56122828 0.09980692 0
24.190962 -4.3767591 14.891328 0.88310748 -0.45846865 0.099637777 0
6.7648811 -3.0201459 15.01563 -0.94312948 -0.31707886 0.099838883 0
24.742573 -3.0088301 14.977716 0.9435938 -0.31570151 0.09981636 0
6.3230686 -1.0354139 14.980347 -0.98905051 -0.10864463 0.099877477 0
25.179611 -0.99774802 14.998767 0.98949957 -0.10469583 0.099645875 0
6.3189702 0.98680323 15.001438 -0.98963553 0.10340528 0.099643715 0
25.181566 0.97861582 15.001605 0.98971969 0.1025225 0.099720068 0
6.7701607 3.0412965 14.991649 -0.94231486 0.31949446 0.099830158 0
24.736504 3.0322227 14.960991 0.94270611 0.31833547 0.099838607 0
7.5354772 4.7562957 14.948861 -0.86106789 0.49861097 0.099745668 0
8.2022514 5.7445774 15.129183 -0.79189533 0.60244721 0.099796049 0
23.574356 5.3648872 15.017159 0.82055402 0.56278503 0.099820234 0
24.199127 4.3514123 14.934535 0.88483626 0.45513216 0.099596679 0
9.1694794 6.8270044 14.966491 -0.69048059 0.71644235 0.099734165 0
10.30837 7.7749958 15.072404 -0.57054222 0.81521308 0.099545628 0
21.44416 7.5882959 15.042667 0.59724337 0.79580051 0.10000978 0
22.565357 6.6142044 14.91715 0.71411049 0.69287413 0.09985856 0
11.289528 8.3811026 14.948386 -0.46754444 0.87832755 0.099714749 0
12.988358 9.0727644 14.984492 -0.28975281 0.95188707 0.099770881 0
14.987272 9.4487877 15.032577 -0.080067322 0.99178022 0.099805579 0
16.988232 9.4008198 15.007656 0.12973909 0.98652101 0.099719584 0
19.002644 8.9056263 14.999758 0.34145409 0.93458033 0.099843808 0
20.445988 8.2627859 14.913007 0.49177349 0.86501324 0.099553861 0
11.494149 -8.2707825 16.922264 -0.45542553 -0.88462424 0.10013746 0
12.992519 -8.8623905 16.988089 -0.29561403 -0.95005703 0.10001998 0
15.046716 -9.255538 16.988955 -0.075205535 -0.99214411 0.099970743 0
17.033165 -9.1922102 17.002277 0.13762017 -0.98541456 0.10009456 0
18.996296 -8.6921024 17.010292 0.34820309 -0.93205953 0.10009748 0
20.264122 -8.1507359 16.806307 0.48235241 -0.87022555 0.10021811 0
9.3218088 -6.7006245 16.97724 -0.68882233 -0.71796191 0.10027201 0
10.509249 -7.6596818 17.111032 -0.5617826 -0.8212316 0.099894792 0
21.240652 -7.4775462 17.06912 0.58866143 -0.80216908 0.10001292 0
22.454172 -6.4421234 16.953714 0.71753699 -0.68931133 0.099952936 0
7.6596899 -4.5849056 16.927313 -0.86574805 -0.4904114 0.099884689 0
8.3366518 -5.5983224 17.042803 -0.79382282 -0.59984964 0.10012901 0
23.435246 -5.1929183 17.045053 0.82431608 -0.55721676 0.10006233 0
24.080215 -4.1891117 16.747431 0.88912749 -0.44657674 0.10010757 0
6.9673195 -2.9800208 17.039837 -0.94217318 -0.31987125 0.099961065 0
24.537275 -2.997052 16.957905 0.94169629 -0.32122451 0.10011404 0
6.5209179 -0.97935086 17.014055 -0.98941374 -0.10514202 0.10002871 0
24.974113 -1.0069741 17.033215 0.98908299 -0.10811474 0.10013023 0
6.5299945 1.0364389 17.032814 -0.98871857 0.11152215 0.099991746 0
24.978516 0.98958552 17.008673 0.98929369 0.1062792 0.10001349 0
6.9622154 2.9816809 16.99715 -0.94232541 0.31936082 0.1001578 0
24.516945 3.0275586 17.0396 0.94039994 0.32503229 0.1000095 0
7.6698179 4.6028967 16.926563 -0.8642469 0.49301931 0.10004658 0
8.3134918 5.5676484 17.040474 -0.79675359 0.59598166 0.099947907 0
23.447128 5.1730809 17.059874 0.82574505 0.55507159 0.10020269 0
24.081223 4.1866474 16.74597 0.88892239 0.44701615 0.099967398 0
9.3060293 6.6864877 16.979033 -0.69036555 0.71650463 0.10008282 0
10.497592 7.6609712 17.040518 -0.56245333 0.82075357 0.100049 0
21.253977 7.465816 17.07691 0.59012175 0.80110735 0.099917151 0
22.460615 6.4347506 16.951485 0.71840703 0.68840629 0.09994068 0
11.495931 8.2690363 16.948853 -0.45518106 0.88473606 0.10026087 0
12.984959 8.8563366 17.015131 -0.29662943 0.94974822 0.099946573 0
14.994659 9.2483006 17.025414 -0.081220463 0.9916631 0.1000374 0
17.029039 9.191287 17.008427 0.13762923 0.98541409 0.10008573 0
19.014917 8.6855097 17.002502 0.3506369 0.93115574 0.10001379 0
20.24614 8.1523466 16.879087 0.4801192 0.87148303 0.10001402 0
11.668916 -8.1447124 18.871229 -0.44549856 -0.88977093 0.099190585 0
12.974915 -8.6445551 19.003042 -0.30420557 -0.9473775 0.099673837 0
14.983426 -9.0500479 18.984539 -0.084038839 -0.99148089 0.099513814 0
16.994333 -8.9946718 19.005466 0.13632351 -0.98564291 0.099618882 0
19.020676 -8.4670486 19.016041 0.35864475 -0.92814803 0.099574395 0
20.089346 -8.0608788 18.440071 0.47140217 -0.87634343 0.099005453 0
9.4303999 -6.5383167 18.955076 -0.69152296 -0.71548688 0.099370956 0
10.682384 -7.5344949 19.062504 -0.55540967 -0.8255946 0.099567369 0
19.963341 -7.9807529 19.749388 0.46387461 -0.88027996 0.099636979 0
21.094494 -7.3285713 19.032515 0.58639181 -0.80387318 0.099662378 0
22.314959 -6.3051233 18.935675 0.71773624 -0.68918431 0.099396527 0
7.7703996 -4.3903017 18.880339 -0.87199152 -0.47931981 0.099414617 0
8.430047 -5.3760376 19.06394 -0.80198753 -0.58899671 0.099493161 0
23.307243 -5.0202866 19.00242 0.82875842 -0.55066353 0.099645212 0
24.010609 -4.0228033 18.1292 0.89472681 -0.43514147 0.10057763 0
7.1880207 -3.0298934 18.962515 -0.93798506 -0.33206946 0.099568583 0
23.943535 -3.8466904 19.477518 0.90062004 -0.42314041 0.099175401 0
24.340639 -2.9580142 18.968994 0.94082588 -0.32393607 0.099559665 0
6.7240577 -1.0104517 18.990894 -0.98883021 -0.11095679 0.09951552 0
24.765467 -1.0294616 19.057491 0.98858917 -0.11320223 0.099381655 0
6.7237749 0.98654079 19.010201 -0.98911738 0.10821017 0.099686541 0
24.768587 1.0480685 19.011581 0.98833567 0.11529373 0.099498257 0
7.1952853 3.0306838 19.032179 -0.937837 0.33252141 0.099454582 0
23.939198 3.871454 19.399858 0.8994633 0.42547712 0.099674158 0
24.355623 2.9149549 18.962032 0.94255352 0.3188521 0.099630497 0
7.7766995 4.3937635 18.917463 -0.87144655 0.48034075 0.099265181 0
8.4493771 5.4068036 19.042044 -0.79948163 0.5924238 0.099313304 0
23.305567 5.0207124 19.017101 0.82864714 0.55083418 0.099627458 0
24.010969 4.0355749 18.042616 0.89417499 0.43662521 0.099042781 0
9.434617 6.5395803 18.982069 -0.69143546 0.71557415 0.099351026 0
10.67611 7.5234365 19.112698 -0.5563612 0.82499415 0.099231362 0
19.971296 7.978168 19.728903 0.46492898 0.87971961 0.099671446 0
21.073376 7.3477793 18.993616 0.58394915 0.80564773 0.099674858 0
22.286968 6.3363385 18.922569 0.7142697 0.69278431 0.099342078 0
11.697473 8.1535587 18.919308 -0.44241738 0.89131427 0.099125214 0
13.009872 8.6597633 18.970789 -0.300248 0.94862688 0.099790491 0
15.003729 9.0522585 18.989061 -0.081962571 0.99165374 0.099523857 0
16.998106 8.9904823 19.042397 0.13694331 0.98557508 0.099439137 0
18.986797 8.4879665 18.955244 0.35482341 0.92961717 0.099560268 0
20.095087 8.055685 18.466705 0.47248134 0.87576926 0.098942555 0
11.877257 -8.0631819 20.546909 -0.43159866 -0.89650416 0.10001405 0
12.985511 -8.4358673 21.015188 -0.30988878 -0.94555026 0.099517055 0
15.016844 -8.85252 20.984272 -0.082189992 -0.99163169 0.099556133 0
17.024725 -8.786972 21.024183 0.14296052 -0.98472184 0.099424139 0
18.835505 -8.3338308 20.982086 0.34552246 -0.93311995 0.099505447 0
9.5779581 -6.4130378 20.92791 -0.69005865 -0.71690243 0.09934748 0
10.925476 -7.4460497 21.044125 -0.54102194 -0.83508801 0.099616021 0
12.036947 -7.9931808 21.861202 -0.41870898 -0.90267563 0.099294789 0
19.799524 -7.90095 21.207438 0.45389491 -0.88550889 0.099264413 0
21.03899 -7.122014 20.993647 0.59330761 -0.798783 0.099658653 0
22.181395 -6.1642261 20.901726 0.71765035 -0.68932778 0.099021442 0
7.8911161 -4.2073698 20.847372 -0.87739152 -0.4694553 0.09897396 0
8.5704556 -5.2154274 21.063517 -0.80486488 -0.58506852 0.099435411 0
23.056005 -5.0262618 21.040205 0.81980473 -0.56392616 0.099536672 0
7.3987813 -3.0176005 20.99612 -0.93585426 -0.33805183 0.099487409 0
23.836405 -3.6786096 21.137699 0.90563941 -0.41221929 0.099460512 0
24.228817 -2.6909988 20.940086 0.94846576 -0.3008329 0.099560417 0
6.9207034 -1.0013126 20.949722 -0.98866111 -0.11232787 0.099657357 0
24.577637 -1.0047861 20.968327 0.98860425 -0.11282108 0.099665143 0
6.9294128 1.0086092 21.027409 -0.98857301 0.11319346 0.09955208 0
24.574093 1.0185201 20.988129 0.98851001 0.11373831 0.099556267 0
7.4018216 3.0140867 21.034149 -0.93586773 0.33800548 0.099518739 0
23.848213 3.6595211 21.09955 0.90681094 0.40971449 0.099135496 0
24.225952 2.7076674 20.923681 0.94777942 0.30300447 0.099511236 0
7.8890672 4.2022953 20.84976 -0.87755352 0.46903086 0.099548243 0
8.5694332 5.2145014 21.064684 -0.80515021 0.58465111 0.099579826 0
23.060789 5.032239 20.972507 0.81980497 0.56392413 0.099545866 0
9.5821953 6.4164805 20.93265 -0.68933457 0.71758449 0.099450111 0
10.882245 7.4197836 21.028873 -0.54591531 0.83188236 0.099740602 0
12.011026 7.9777017 21.88479 -0.42331481 0.90075839 0.097154029 0
19.797253 7.907136 21.159208 0.45301768 0.88591772 0.099622808 0
21.040308 7.1180577 21.025185 0.59357131 0.79860169 0.099541701 0
22.186146 6.1788716 20.765097 0.71814895 0.68872964 0.099566914 0
11.867208 8.0552225 20.563066 -0.43192378 0.89641112 0.09944316 0
12.981427 8.436614 21.000921 -0.31064183 0.94531411 0.099412739 0
14.989702 8.8482332 21.008947 -0.0854491 0.99134892 0.099628709 0
16.983904 8.7929249 21.011723 0.13836694 0.98535955 0.099605292 0
18.840324 8.3336439 20.964857 0.34608006 0.93291587 0.099481203 0
13.155807 -8.2932625 22.949438 -0.29683602 -0.949736 0.09944734 0
14.974196 -8.6476469 22.997496 -0.089191079 -0.99102807 0.09954045 0
16.994665 -8.5895462 23.019615 0.14273749 -0.98472941 0.099668629 0
18.58699 -8.2228498 22.941099 0.32448798 -0.94063109 0.099602684 0
9.728363 -6.2862959 22.921383 -0.68814486 -0.71872324 0.099465951 0
10.961386 -7.2298527 23.029345 -0.54945606 -0.82957023 0.099554889 0
12.203539 -7.9131594 23.276476 -0.40712374 -0.9079085 0.099761784 0
19.587608 -7.7964325 23.059391 0.43944189 -0.89274132 0.099517822 0
21.020113 -6.8855815 22.991026 0.60474378 -0.79017746 0.099521033 0
22.056774 -6.0751896 22.435522 0.71697229 -0.68995738 0.099546723 0
7.9733257 -4.0562797 22.298523 -0.88142377 -0.46161395 0.10002349 0
8.6956711 -5.0416679 23.002775 -0.80961651 -0.57842529 0.099726066 0
21.971857 -5.9682527 23.790253 0.71592301 -0.69112855 0.098972939 0
22.807482 -5.0396481 23.000301 0.80972403 -0.57827598 0.099719405 0
7.5947766 -2.982291 22.957197 -0.93443698 -0.34194487 0.099505462 0
8.0492525 -3.9049065 23.668961 -0.88794893 -0.4492107 0.098774977 0
23.746519 -3.3759279 23.106064 0.91678619 -0.38680097 0.09943898 0
24.114645 -2.4032273 22.938213 0.95641333 -0.27465761 0.099180602 0
7.1290188 -1.0128191 23.005383 -0.98821551 -0.11627968 0.099544473 0
24.370424 -1.0239328 22.990778 0.98804021 -0.11764456 0.099680819 0
7.1273584 1.0099072 22.996449 -0.9882524 0.11595147 0.099560499 0
24.373238 0.99320668 22.999063 0.98850018 0.11376531 0.099623986 0
7.5969405 2.9922431 22.958395 -0.93410665 0.34280205 0.099656284 0
8.0368929 3.8988194 23.573643 -0.88774639 0.44943157 0.099587075 0
23.75065 3.3877628 23.025948 0.91623205 0.38808611 0.099539131 0
24.126221 2.3907475 22.861883 0.95683271 0.27313039 0.099352539 0
7.9703574 4.0770874 22.160242 -0.88021249 0.46357539 0.10160609 0
8.689126 5.0315208 23.019873 -0.81038523 0.57734758 0.099727437 0
21.970039 5.9748602 23.745665 0.71641225 0.69069457 0.098460808 0
22.810785 5.0336242 23.003075 0.81020546 0.57760185 0.099715665 0
9.7154894 6.2706141 22.950018 -0.68995357 0.717058 0.098953784 0
10.970792 7.232183 23.039343 -0.54851788 0.83017963 0.099649183 0
12.17921 7.9076142 23.22328 -0.40956461 0.90686852 0.099228427 0
19.579269 7.7949677 23.106604 0.4392873 0.89283848 0.099328063 0
21.053268 6.8630877 22.965591 0.60834819 0.7873705 0.099800542 0
22.058922 6.0642796 22.482296 0.71782786 0.68907428 0.099497393 0
13.155767 8.2968807 22.929033 -0.296909 0.94971246 0.09945485 0
14.959008 8.6435986 23.019831 -0.090858847 0.99088532 0.099453405 0
16.999678 8.5882864 23.007322 0.14332424 0.98465443 0.099568307 0
18.623753 8.2138672 22.905407 0.32907292 0.93906903 0.099300288 0
13.431449 -8.1837425 24.875767 -0.27136827 -0.95732564 0.099433191 0
15.032771 -8.450285 24.999256 -0.084085979 -0.99146718 0.099610917 0
17.014751 -8.3893461 24.971392 0.14859445 -0.98386103 0.099685229 0
18.341801 -8.1061172 24.872648 0.30296981 -0.94785607 0.098885357 0
9.8489199 -6.1384039 24.847704 -0.68905461 -0.7179324 0.098877735 0
10.943316 -6.9724274 25.024519 -0.56504029 -0.81902367 0.099648125 0
12.479555 -7.8214025 25.180304 -0.3838352 -0.91803175 0.099439912 0
19.297821 -7.7076612 25.042025 0.41594997 -0.90390325 0.099722579 0
20.934488 -6.7113919 24.948055 0.60828471 -0.7874409 0.099632591 0
8.9441738 -5.0383067 25.023521 -0.79964119 -0.59212613 0.099802852 0
21.882881 -5.8460937 25.272596 0.72084862 -0.68593299 0.099363953 0
22.680334 -4.8859134 24.977907 0.81320024 -0.5733946 0.099619724 0
7.7188916 -2.7696979 24.922119 -0.94062221 -0.32451317 0.099604152 0
8.1372471 -3.7385447 25.175447 -0.89342153 -0.43807358 0.099445581 0
23.652279 -3.0717862 25.027851 0.92732322 -0.36078358 0.099533573 0
24.041698 -2.1449733 24.357819 0.96341187 -0.24873944 0.099831365 0
7.3281646 -1.0086529 24.984789 -0.98791778 -0.11868304 0.099663556 0
23.970812 -1.8755244 25.683805 0.97003841 -0.22163506 0.099515371 0
24.182434 -0.94553697 24.978138 0.98885453 -0.11081007 0.099437781 0
7.3299441 1.0207596 24.995155 -0.98776823 0.12000061 0.099568084 0
23.962442 1.8974506 25.711823 0.96924245 0.22475275 0.1002761 0
24.181984 0.97660178 24.940716 0.98842674 0.11447048 0.099544361 0
7.7120104 2.7436538 24.949125 -0.94161612 0.32164294 0.099523187 0
8.132144 3.7397633 25.124296 -0.89325243 0.4384293 0.099397041 0
23.644882 3.0859137 25.040903 0.92668611 0.36245978 0.099377349 0
24.038761 2.1544964 24.35985 0.96317637 0.24975073 0.099578023 0
8.9768667 5.076972 25.048456 -0.79614836 0.59685349 0.099567831 0
21.876122 5.8591695 25.22744 0.71943259 0.68745291 0.09912245 0
22.665401 4.9051156 24.998095 0.8111465 0.57628047 0.099710628 0
9.8549185 6.146461 24.830486 -0.68911487 0.71782935 0.099205367 0
10.987292 7.0031323 25.035967 -0.559484 0.8228423 0.099539779 0
12.44177 7.814518 25.094788 -0.38780221 0.91632646 0.099776268 0
19.335114 7.6940255 25.008612 0.42044318 0.901833 0.099622995 0
20.912626 6.7230697 24.995878 0.60582268 0.78934526 0.099563934 0
13.406501 8.1752796 24.887058 -0.27461329 0.9564032 0.099400163 0
15.010201 8.4480047 25.008074 -0.086874247 0.99122006 0.099677503 0
17.008654 8.3885317 24.991421 0.14797476 0.98396647 0.099566534 0
18.319183 8.1194611 24.818014 0.30006093 0.94873011 0.099371679 0
13.7201 -8.0707588 26.769163 -0.2429634 -0.964948 0.099217474 0
14.974154 -8.2442389 27.009302 -0.093394637 -0.99064255 0.099523008 0
16.947466 -8.2028828 26.930943 0.14377834 -0.98458803 0.099570811 0
18.117737 -8.0352325 26.23358 0.27954262 -0.95489991 0.10011119 0
9.9502869 -6.0460291 26.230968 -0.69001555 -0.71682411 0.10020854 0
11.004833 -6.7765999 26.999544 -0.57062221 -0.81513417 0.099732906 0
12.801578 -7.7334952 27.097834 -0.35450542 -0.92973733 0.09957093 0
17.832684 -7.9704866 27.625803 0.25085092 -0.96296173 0.09888611 0
19.067966 -7.5855865 26.998604 0.39886045 -0.91158044 0.099656433 0
20.758097 -6.6037245 26.95582 0.60136861 -0.79274338 0.099567808 0
9.1707716 -5.0071082 27.022354 -0.79173368 -0.60269451 0.099584587 0
10.064885 -5.9618139 27.630842 -0.68629652 -0.72073638 0.097653031 0
21.751438 -5.7139587 27.117414 0.72108012 -0.68571603 0.099181056 0
22.522366 -4.7655182 27.040476 0.8136552 -0.5727911 0.099376082 0
7.8226461 -2.4763932 26.902573 -0.94972122 -0.29688746 0.099435948 0
8.217598 -3.4377608 27.135971 -0.90545815 -0.41270542 0.099094816 0
23.466461 -3.0085912 26.961821 0.92702454 -0.36149997 0.09971641 0
7.5284786 -0.98988169 27.004509 -0.98788625 -0.11913356 0.099438332 0
23.911379 -1.2656339 27.25437 0.98327553 -0.15250334 0.099558413 0
24.061817 -0.56854588 26.616938 0.99274343 -0.067508183 0.099514745 0
7.5334377 1.0251849 27.0068 -0.98734242 0.12332299 0.099731661 0
23.908333 1.2682695 27.285986 0.98324424 0.1528393 0.099352598 0
24.058636 0.59666878 26.623663 0.99249464 0.070926584 0.099617913 0
7.8374076 2.5329883 26.867748 -0.94763148 0.30344346 0.099581964 0
8.2302303 3.4801848 27.080223 -0.90301853 0.41789618 0.099600852 0
23.463894 2.9994407 27.00597 0.92736244 0.36064693 0.099663749 0
9.1699352 5.011261 26.990681 -0.79149812 0.60297519 0.099757686 0
10.046855 5.9507041 27.57922 -0.68951231 0.71739811 0.099563405 0
21.745487 5.7328 27.030817 0.71905142 0.68781638 0.099366561 0
22.539526 4.7479763 27.005999 0.81528455 0.57047641 0.099336594 0
9.9366016 6.0277524 26.255981 -0.69076693 0.71607846 0.10036262 0
10.99545 6.7711053 26.983692 -0.57182413 0.81429678 0.099689186 0
12.774796 7.7219553 27.105793 -0.35803896 0.92839634 0.099440299 0
17.869705 7.9603872 27.62994 0.25566402 0.96163803 0.099439822 0
19.037958 7.5961227 27.010315 0.3951236 0.91320556 0.09966474 0
20.77203 6.5899 26.981098 0.60329837 0.79128414 0.09950085 0
13.708849 8.076889 26.677876 -0.24424462 0.9645763 0.099684805 0
14.985988 8.245203 27.002611 -0.091676265 0.99078608 0.099692114 0
16.947523 8.201438 26.947367 0.14406537 0.98454756 0.099555247 0
18.130312 8.0273905 26.282103 0.28360173 0.95381504 0.099029861 0
13.978947 -8.0023909 28.047539 -0.21779865 -0.97065175 0.10197509 0
15.202112 -8.082798 28.851208 -0.066804789 -0.99279678 0.099456839 0
16.552034 -8.0793753 28.741465 0.097875446 -0.99021101 0.099511534 0
11.117657 -6.6246128 28.951279 -0.570351 -0.81534141 0.099589653 0
12.969432 -7.5811543 29.025063 -0.34271356 -0.93414009 0.099647813 0
14.463406 -7.9458971 29.461824 -0.15906864 -0.98224282 0.099479839 0
17.406927 -7.8941822 29.241211 0.20468533 -0.97377956 0.099283494 0
19.009224 -7.3910031 28.98303 0.40142339 -0.91045588 0.099646077 0
20.622158 -6.4610395 28.977531 0.59914273 -0.79445606 0.099335298 0
9.3206005 -4.8982506 28.943321 -0.7913872 -0.60312182 0.099751905 0
10.163323 -5.8435397 29.161131 -0.68810821 -0.71879089 0.09923055 0
21.599876 -5.5913124 29.021206 0.71914941 -0.68770075 0.099457756 0
22.4272 -4.5687203 29.001917 0.82129824 -0.56175786 0.099485315 0
7.9377222 -2.2497246 28.702818 -0.956402 -0.27489802 0.098623097 0
8.3198385 -3.1650569 29.073677 -0.91542554 -0.38991585 0.099808022 0
23.244442 -3.0171063 28.991362 0.92265803 -0.3725177 0.099663325 0
7.7356815 -1.0291945 28.993837 -0.98687369 -0.12711582 0.099608488 0
23.76955 -0.99865705 29.002178 0.98738503 -0.1230877 0.099600367 0
7.735045 0.99113065 29.045918 -0.98751444 0.12211299 0.099517465 0
23.768353 1.0045447 28.996899 0.98727775 0.12391433 0.099638231 0
7.9283204 2.2346869 28.653351 -0.9568637 0.27312279 0.099075213 0
8.3366146 3.2044153 29.083479 -0.91320616 0.39515641 0.099528246 0
23.238239 3.0274251 29.016279 0.92277277 0.37226641 0.099539563 0
9.298667 4.8573661 29.01811 -0.79501545 0.59835386 0.099614248 0
10.157922 5.8344083 29.187737 -0.6882742 0.71861917 0.099323161 0
21.624565 5.5557508 29.088913 0.72306716 0.68361545 0.09921582 0
22.427999 4.5794215 28.935287 0.82057953 0.56277674 0.099657066 0
11.114223 6.6217833 28.960991 -0.57082635 0.81501639 0.099525906 0
13.015374 7.6064348 28.956087 -0.33650303 0.93638015 0.099789225 0
14.427811 7.9402723 29.447699 -0.16392262 0.98143804 0.099542789 0
17.364592 7.9018779 29.24589 0.19903827 0.9749431 0.09934558 0
19.056671 7.3692245 29.000792 0.40764326 0.90768331 0.099689424 0
20.622128 6.4626913 28.966537 0.59895182 0.79458773 0.099432796 0
13.998596 8.0110559 28.013561 -0.21492676 0.97156948 0.099293649 0
15.213928 8.0839186 28.853661 -0.066112943 0.99284112 0.099476822 0
16.549929 8.0792084 28.745493 0.098072089 0.99019033 0.099524163 0
11.285657 -6.5035009 30.974215 -0.56338602 -0.8201853 0.099459589 0
13.009894 -7.3830366 31.036245 -0.3462421 -0.93284202 0.099609941 0
14.997211 -7.8438983 31.006836 -0.095038697 -0.99047965 0.099586785 0
17.022207 -7.7769132 30.992167 0.16076203 -0.9819392 0.099754728 0
19.031364 -7.161211 31.004166 0.41446465 -0.9046005 0.099584281 0
20.444067 -6.3621902 30.88859 0.59075516 -0.80067867 0.099608831 0
9.4306908 -4.7171617 31.00655 -0.79731524 -0.59531897 0.099416956 0
10.283314 -5.6853833 31.106665 -0.68953949 -0.71740091 0.09935388 0
21.456543 -5.4353857 31.07184 0.71995002 -0.68689728 0.099217534 0
22.297781 -4.4253674 30.936716 0.82435417 -0.55721986 0.099730469 0
8.4857798 -3.0400386 31.028307 -0.9178887 -0.38413304 0.099609487 0
23.022671 -3.0245757 31.011679 0.91872811 -0.38211909 0.099617071 0
7.8926606 -0.78352404 30.920616 -0.99011582 -0.098657206 0.09968657 0
8.0663328 -1.6588457 31.377779 -0.97265154 -0.21005309 0.099129781 0
23.562164 -1.0230116 31.021425 0.98659456 -0.12930098 0.09956196 0
7.8886147 0.78619826 30.861694 -0.9900834 0.099080674 0.099588089 0
8.069068 1.6962659 31.329786 -0.97159773 0.21481241 0.099264488 0
23.562735 1.0100996 31.027384 0.98679453 0.12780046 0.099517182 0
8.4599133 2.9903364 30.991343 -0.92063659 0.37747747 0.099694237 0
23.030725 3.0031192 31.010464 0.9198879 0.37929529 0.099705525 0
9.4452543 4.740531 30.97472 -0.7951991 0.59811085 0.099608332 0
10.320965 5.7176051 31.134132 -0.68501282 0.7217474 0.099187404 0
21.465925 5.4277267 31.051903 0.72144926 0.68528092 0.099504083 0
22.29047 4.4328375 30.951143 0.82353878 0.55855036 0.099022061 0
11.298601 6.5108814 30.998585 -0.56161046 0.82138574 0.099594921 0
12.966936 7.3685102 31.015583 -0.35166961 0.93082261 0.099487297 0
14.976374 7.8460517 30.971279 -0.097747579 0.99021727 0.09957476 0
17.012358 7.777844 31.002407 0.1595099 0.98215616 0.099628784 0
19.007713 7.1655455 31.047152 0.41182959 0.90581101 0.099512786 0
20.460112 6.3393159 30.972466 0.59365845 0.7985639 0.099324808 0
15.812267 8.0009212 30.016117 0.0053782132 0.99496943 0.10003477 0
11.452806 -6.384306 32.972572 -0.55556077 -0.82550496 0.099467933 0
12.972216 -7.1527805 33.039474 -0.3603867 -0.9274627 0.099671513 0
14.977862 -7.6397042 33.012852 -0.099955693 -0.98998386 0.099703409 0
17.011774 -7.5771527 32.988388 0.16351743 -0.98150104 0.099587746 0
19.026457 -6.9420266 32.997696 0.42475155 -0.89981222 0.099619463 0
20.294573 -6.2260327 32.908947 0.58645147 -0.80384183 0.099564649 0
9.5473108 -4.5610523 32.925232 -0.80176765 -0.5892747 0.099619791 0
10.440755 -5.5577068 33.066753 -0.68715584 -0.71969211 0.099297993 0
21.312624 -5.2811046 33.090843 0.72165531 -0.68503922 0.099673532 0
22.179865 -4.2610636 32.867622 0.82911396 -0.55015945 0.099472165 0
8.6816559 -2.9983296 32.990791 -0.91592598 -0.38875356 0.099750184 0
22.804531 -3.0223036 33.008324 0.91498482 -0.39098838 0.099654585 0
7.9816365 -0.32685235 32.24342 -0.99409628 -0.042549796 0.09981136 0
8.1425591 -1.0383694 33.044861 -0.98589724 -0.13451801 0.099557117 0
23.370523 -0.98108298 32.972126 0.98685193 -0.12713997 0.099792913 0
7.974545 0.28619823 32.19622 -0.99428684 0.036251538 0.10039672 0
8.1510658 1.0856628 33.06646 -0.98499537 0.14095028 0.099584594 0
23.365181 0.98594457 33.017517 0.98675537 0.12787831 0.099805005 0
8.6995811 3.0291462 33.025009 -0.91425127 0.39268923 0.099698015 0
22.808815 3.0115199 33.015247 0.91530871 0.390212 0.099722899 0
9.561964 4.5664282 33.016426 -0.80063844 0.59085953 0.099313468 0
10.444962 5.5641723 33.055634 -0.68669021 0.72011542 0.099450566 0
21.313334 5.2861466 33.042423 0.72116137 0.68556046 0.099665411 0
22.18008 4.2618785 32.856182 0.82931721 0.54981697 0.09967117 0
11.447704 6.3869853 32.918262 -0.55593884 0.82525063 0.099465586 0
13.003249 7.1710105 32.98682 -0.35591879 0.9291786 0.099744365 0
15.010334 7.6436019 33.014141 -0.09605813 0.99038017 0.09959963 0
17.015932 7.5760927 32.987774 0.16416439 0.9813894 0.099623524 0
19.011858 6.9444933 33.028576 0.42318183 0.90054435 0.099684209 0
20.293388 6.2226014 32.948944 0.58705974 0.80342609 0.099334881 0
11.612366 -6.2611008 34.928177 -0.54861474 -0.83012676 0.099556804 0
13.017404 -6.9612942 34.999943 -0.36390027 -0.92608643 0.099702068 0
15.034393 -7.4470878 35.008877 -0.09488818 -0.99048173 0.099710837 0
17.019777 -7.3691263 35.015545 0.16893663 -0.98057628 0.099651419 0
19.0431 -6.7132635 34.970982 0.4383902 -0.89321101 0.099940106 0
20.138535 -6.1111784 34.782642 0.58094072 -0.8078692 0.099273622 0
9.701992 -4.4468441 34.902283 -0.8014341 -0.58977008 0.099371821 0
10.596012 -5.4203491 35.057407 -0.68577927 -0.72094274 0.099741764 0
21.155094 -5.1417146 35.051952 0.72078717 -0.6859352 0.099793658 0
22.077188 -4.1108217 34.5676 0.83406353 -0.54268897 0.099129379 0
8.9158268 -3.0328293 34.996899 -0.90951061 -0.40358394 0.09955164 0
21.998516 -3.9953251 35.864262 0.8384307 -0.53642309 0.096354812 0
22.610636 -2.9819586 34.965763 0.91261649 -0.39645788 0.099761494 0
8.3394051 -1.0246118 34.986164 -0.98560548 -0.13650475 0.099740952 0
23.15844 -1.0362446 35.006721 0.98536432 -0.1382495 0.09972053 0
8.335845 0.99330366 34.992989 -0.98622507 0.13204537 0.099619918 0
23.163675 0.99778831 35.008385 0.98607141 0.13335092 0.099401958 0
8.9103203 3.0098817 35.027084 -0.91063523 0.40101394 0.099656448 0
22.587366 3.0272064 34.970768 0.9097603 0.40296841 0.099762797 0
9.6797209 4.4114547 34.925228 -0.80527198 0.58448082 0.0995958 0
10.625875 5.451232 35.044624 -0.68118274 0.72531998 0.099503793 0
21.180712 5.1181207 35.052879 0.72422403 0.68230927 0.099767737 0
22.065981 4.1314807 34.555508 0.83280003 0.54456717 0.099452168 0
11.640749 6.2831264 34.90617 -0.54483348 0.83264393 0.099300414 0
13.000541 6.9504204 35.023785 -0.366045 0.92524689 0.099645585 0
14.998741 7.4422822 35.003689 -0.10021564 0.9899475 0.09980382 0
17.002014 7.3775058 34.97694 0.16622506 0.98104924 0.099557303 0
19.00341 6.7312002 34.999809 0.43300796 0.89584351 0.099841833 0
20.139189 6.1100035 34.790958 0.57996422 0.80848449 0.09997201 0
11.784321 -6.1425142 36.904896 -0.54030728 -0.83559787 0.099218629 0
12.965895 -6.7252865 36.989143 -0.38066524 -0.91932452 0.099682048 0
14.966176 -7.2352285 37.030655 -0.10720608 -0.98923308 0.099622644 0
16.981117 -7.1730504 37.020161 0.16843508 -0.98066884 0.099590883 0
18.96628 -6.5286136 36.994617 0.43978128 -0.89256769 0.099575482 0
20.024181 -6.0219431 36.180916 0.5737642 -0.8132413 0.097125284 0
9.8076048 -4.2592087 36.899097 -0.80929649 -0.57889527 0.099595442 0
10.777887 -5.3033156 37.064194 -0.68052655 -0.72591627 0.099645346 0
19.922161 -5.9382358 37.452675 0.57196826 -0.81416583 0.099931836 0
21.00596 -5.0162287 36.971489 0.71982127 -0.68693191 0.099909529 0
9.1413441 -3.0409322 37.006245 -0.90378451 -0.41620174 0.099748023 0
21.917927 -3.8527467 37.302856 0.84370285 -0.52763814 0.098810084 0
22.430765 -2.9071589 36.955494 0.91228372 -0.39725345 0.099639855 0
8.5408468 -1.0053394 37.009712 -0.98547494 -0.13753729 0.09961167 0
22.961996 -0.99081373 37.005047 0.98576087 -0.13548702 0.099593095 0
8.5377502 1.0086552 36.986374 -0.98542899 0.13783526 0.099655904 0
22.962837 1.0163554 36.957016 0.98525095 0.13904656 0.099733047 0
9.1349392 3.0269349 37.005219 -0.90467232 0.41427189 0.099733911 0
21.909569 3.8498461 37.388268 0.84404725 0.52713186 0.098571457 0
22.436001 2.8955131 36.95002 0.91353101 0.39443088 0.099424869 0
9.815239 4.270968 36.891396 -0.80760056 0.5812307 0.099760354 0
10.737667 5.2708249 37.020538 -0.68577141 0.72094566 0.099774078 0
19.900988 5.9489512 37.496437 0.57003295 0.81553423 0.099831834 0
20.979187 5.0424623 36.967949 0.71598625 0.69090813 0.10004864 0
11.762007 6.1375751 36.819912 -0.54240483 0.83420384 0.09950418 0
12.984842 6.7335148 36.981339 -0.37824294 0.92031252 0.099785075 0
15.012477 7.2438993 36.988708 -0.10091063 0.9898774 0.099799432 0
17.007761 7.1709991 36.993641 0.17158614 0.98010683 0.099743851 0
18.965918 6.5260148 37.029446 0.43992573 0.89249229 0.099613279 0
20.030849 6.0369387 36.032524 0.57784933 0.81014991 0.098728262 0
11.912728 -6.0527339 38.371758 -0.53356409 -0.8399204 0.09921246 0
12.978968 -6.5150986 38.964657 -0.3896746 -0.91552597 0.099829689 0
14.999973 -7.0406055 39.004185 -0.10530865 -0.98943985 0.099593893 0
17.001152 -6.9713397 38.970657 0.17580339 -0.979361 0.099725716 0
18.801626 -6.4035692 38.919834 0.4282375 -0.89815474 0.099652797 0
9.9103355 -4.0966444 38.695183 -0.81468159 -0.57128662 0.099626511 0
10.89135 -5.1242294 39.023159 -0.68468982 -0.72197801 0.099737503 0
12.03045 -5.9620008 39.776848 -0.52725071 -0.84387392 0.099415563 0
19.767345 -5.8386168 39.144634 0.56397873 -0.81975031 0.099686347 0
20.868855 -4.8826895 38.973495 0.72000414 -0.68676156 0.099762894 0
9.364687 -3.0506318 38.974449 -0.89766341 -0.4292334 0.099795587 0
21.805901 -3.6797023 39.13636 0.85036808 -0.51663226 0.099825941 0
22.306448 -2.7070708 38.967186 0.91969037 -0.37987566 0.0993177 0
8.7393036 -0.99831426 38.98354 -0.98506641 -0.14037174 0.099698529 0
22.757589 -1.0108864 38.998989 0.98479062 -0.14222097 0.099803865 0
8.7395506 1.0124066 38.966911 -0.98479199 0.14235446 0.099598564 0
22.754997 1.0044911 39.037876 0.9849112 0.1415484 0.099568263 0
9.3597803 3.0231435 39.055119 -0.89935887 0.42568859 0.099713281 0
21.806814 3.6971695 39.042866 0.8493914 0.5182479 0.099766448 0
22.310463 2.703032 38.944221 0.92012662 0.3787201 0.099690281 0
9.9280519 4.1136479 38.749725 -0.81224918 0.57491475 0.098611437 0
10.917531 5.1461368 39.025723 -0.68137985 0.72507787 0.099917397 0
12.04296 5.9687505 39.768337 -0.52420396 0.84570193 0.099992834 0
19.775681 5.8325138 39.150261 0.56550121 0.81873554 0.099400759 0
20.847479 4.9030275 38.979397 0.71710074 0.68980569 0.099672645 0
11.926329 6.0525651 38.440186 -0.53060746 0.841685 0.10011056 0
12.994718 6.5179896 39.010834 -0.38751483 0.91646075 0.099659152 0
14.979299 7.039597 38.992798 -0.10860486 0.9890728 0.099699803 0
16.997385 6.9696894 38.985886 0.17564215 0.97939372 0.09968891 0
18.774578 6.4122491 38.957817 0.42459005 0.89986926 0.09979295 0
13.136514 -6.3719654 40.968395 -0.37769809 -0.92056489 0.099520728 0
14.967401 -6.8338513 41.001728 -0.11319669 -0.98854774 0.099799737 0
17.017208 -6.7634935 40.97897 0.18341509 -0.97794032 0.099958546 0
18.609867 -6.2770519 40.961498 0.41237539 -0.90557253 0.099422686 0
11.009198 -4.9628649 40.989998 -0.68738168 -0.71938169 0.099982001 0
12.189567 -5.8971553 41.144909 -0.51357722 -0.85223031 0.099709094 0
19.586542 -5.7235112 41.066311 0.55393982 -0.82659435 0.099460818 0
20.736401 -4.737586 41.013615 0.72142178 -0.68529761 0.099588685 0
9.5142021 -2.9087744 40.9814 -0.90180659 -0.42047575 0.099723719 0
10.085335 -3.8693271 41.433125 -0.82123274 -0.56192201 0.099098094 0
21.70232 -3.4625871 41.077938 0.85995096 -0.50057191 0.099559896 0
22.200651 -2.4751682 40.882446 0.92903048 -0.35633165 0.099650674 0
8.9432487 -1.0229068 40.960865 -0.9839018 -0.14825113 0.099794321 0
22.551079 -1.0118502 41.039326 0.98415101 -0.14666812 0.099675938 0
8.9457684 1.0061177 41.00864 -0.98425281 0.14589781 0.099801973 0
22.553944 1.0036026 41.010773 0.98434871 0.14535975 0.09963958 0
9.5217533 2.9264119 40.970772 -0.90059853 0.42304426 0.099778555 0
10.081942 3.8761017 41.371708 -0.82175452 0.5611704 0.09903197 0
21.70223 3.4661322 41.066708 0.85977477 0.50087923 0.099535905 0
22.191311 2.4885192 40.923916 0.92820585 0.35848343 0.099616535 0
10.994009 4.9513097 40.977077 -0.68925583 0.71758461 0.099993639 0
12.1883 5.8953533 41.151714 -0.5146479 0.85162044 0.099399097 0
19.57126 5.7327986 41.073936 0.55183399 0.82798266 0.099618629 0
20.748072 4.7342038 40.958817 0.72219616 0.68445081 0.099798672 0
13.161783 6.3803978 40.985683 -0.37404183 0.9220401 0.099673368 0
15.024297 6.8418484 40.988407 -0.10505218 0.98944354 0.099827252 0
16.983065 6.7704301 40.988445 0.17800342 0.97896284 0.099732399 0
18.60191 6.2851276 40.921318 0.41158554 0.90590411 0.099675335 0
13.365181 -6.2546902 42.995167 -0.35434869 -0.92979854 0.099557042 0
15.009554 -6.6358294 43.022873 -0.11030328 -0.98888558 0.099691935 0
17.027613 -6.5536447 43.015106 0.19052836 -0.97661573 0.099602692 0
18.393745 -6.1660538 42.908417 0.39220491 -0.91447735 0.099531293 0
11.135688 -4.822885 42.978214 -0.6877259 -0.71908849 0.09972389 0
12.36991 -5.770071 43.117821 -0.50314498 -0.85847175 0.099355139 0
19.408188 -5.6008396 43.010052 0.54421371 -0.83301824 0.099559218 0
20.586094 -4.6229749 42.971428 0.71899569 -0.68784332 0.099583015 0
9.628686 -2.7109218 42.938084 -0.90997756 -0.40251148 0.099625975 0
10.185161 -3.7120795 43.121758 -0.82723397 -0.55301273 0.099302359 0
21.607067 -3.2059445 43.075256 0.87297261 -0.47750056 0.099559337 0
22.086561 -2.2484434 42.787155 0.93747044 -0.33347306 0.099724598 0
9.1401596 -0.97909367 42.982121 -0.98426557 -0.1458385 0.099762358 0
22.34864 -1.0091977 43.031002 0.98355466 -0.15058511 0.099721044 0
9.1458206 1.0026286 42.992085 -0.98372203 0.14938763 0.099871971 0
22.35652 1.0134062 42.957165 0.98359913 0.15031172 0.099695303 0
9.6460695 2.7453723 42.95504 -0.90742916 0.40824559 0.099538378 0
10.193546 3.7199388 43.147594 -0.82698435 0.55336875 0.099398114 0
21.600138 3.2134948 43.090988 0.87199765 0.47928622 0.099523075 0
22.075508 2.2555959 42.867332 0.93697447 0.33512905 0.098830119 0
11.164415 4.8504786 42.974823 -0.68343371 0.72314197 0.099920355 0
12.390438 5.7865701 43.081692 -0.49996483 0.86035019 0.099159829 0
19.383425 5.6101403 43.068691 0.54076946 0.83527035 0.099458329 0
20.581999 4.6211958 43.00808 0.71928245 0.68754148 0.099596322 0
13.378559 6.2661085 42.935268 -0.35191047 0.93070853 0.099702314 0
14.977565 6.6334262 43.007668 -0.11525823 0.98834437 0.09945371 0
17.039232 6.5477886 43.050846 0.19264458 0.97620612 0.099546611 0
18.398087 6.1621394 42.929993 0.3929995 0.91417384 0.099184677 0
13.59856 -6.1484218 44.866314 -0.32864591 -0.93918383 0.099627391 0
15.004725 -6.436409 44.994812 -0.11440839 -0.98842573 0.09962564 0
17.017538 -6.3529997 44.984951 0.19483878 -0.97572792 0.099964291 0
18.170317 -6.0729561 44.666939 0.36825249 -0.92448139 0.098611407 0
11.275552 -4.6950822 44.953438 -0.68627399 -0.72046924 0.099760354 0
12.61287 -5.6691666 45.123772 -0.48221967 -0.87039036 0.099422067 0
19.145437 -5.5091553 45.052952 0.52205157 -0.84705704 0.09978275 0
20.464954 -4.4731593 44.948723 0.72189397 -0.68478441 0.099696212 0
9.7672787 -2.5452642 44.958683 -0.91534257 -0.39016178 0.099607557 0
10.282314 -3.5028994 45.028564 -0.83824998 -0.53611976 0.099561892 0
21.468403 -3.0250726 45.016735 0.87942791 -0.46543521 0.099882253 0
22.019825 -2.0355237 44.123318 0.9477517 -0.30274707 0.10055368 0
9.351078 -1.0184678 44.981953 -0.98261809 -0.15653704 0.099788867 0
21.952435 -1.8048017 45.441101 0.95544618 -0.27802649 0.099115655 0
22.178888 -0.9054063 44.904739 0.98526376 -0.13879612 0.099954918 0
9.3487272 1.0088769 44.984684 -0.9828729 0.15491015 0.099817835 0
21.953735 1.7863966 45.479546 0.95579726 0.27649906 0.099999458 0
22.177128 0.9127183 44.917786 0.98514479 0.13987283 0.099625506 0
9.7622051 2.5312014 44.962002 -0.91640592 0.38776031 0.099207081 0
10.294083 3.5099871 45.087257 -0.83662623 0.53864926 0.099566519 0
21.467752 3.0300267 45.004097 0.87910688 0.466032 0.099926263 0
22.015924 2.0248408 44.20919 0.94740927 0.30438322 0.098825723 0
11.260336 4.6736212 45.005192 -0.68949974 0.71740943 0.09956795 0
12.594486 5.6706047 45.021568 -0.48390922 0.86942273 0.09967915 0
19.174505 5.4988899 44.999428 0.52613318 0.8445096 0.099936411 0
20.46316 4.4731297 44.968246 0.72165161 0.68506235 0.099541806 0
13.588241 6.1475902 44.83099 -0.32935748 0.93893027 0.099667095 0
14.977642 6.4358683 44.967686 -0.11870667 0.98790181 0.099793404 0
17.00091 6.3595667 44.96534 0.19215481 0.9762733 0.099834926 0
18.189943 6.0713024 44.606495 0.37029174 0.92357457 0.099468969 0
13.82032 -6.0501842 46.537449 -0.30271167 -0.9479323 0.09894371 0
15.006122 -6.2387033 46.97488 -0.11816669 -0.98796326 0.099825993 0
16.865849 -6.1969662 46.888241 0.17661817 -0.97920221 0.099845178 0
11.400089 -4.54633 46.976456 -0.68773645 -0.71908802 0.099653818 0
12.872211 -5.5725574 47.050694 -0.45647675 -0.88409841 0.099995136 0
14.040321 -5.9848795 47.81028 -0.27431458 -0.95638537 0.10039223 0
17.778458 -5.9319611 47.34494 0.32321101 -0.94108403 0.099476263 0
19.045334 -5.3308926 47.001972 0.52310675 -0.84637707 0.10002605 0
20.316853 -4.3468719 46.951035 0.71996832 -0.68681896 0.099625461 0
9.8683586 -2.3079617 46.837029 -0.92673123 -0.36239454 0.099194109 0
10.419913 -3.3240612 47.05201 -0.84416687 -0.52670699 0.099810265 0
21.245701 -3.0305066 46.966427 0.87126571 -0.48054737 0.099851236 0
9.5567675 -1.0293152 47.010468 -0.98148578 -0.16358493 0.099627338 0
21.881411 -1.2805016 47.225842 0.97409761 -0.2029752 0.099674322 0
22.062004 -0.53719997 46.617775 0.99146801 -0.084019437 0.099658661 0
9.5577421 1.0114119 47.022671 -0.9819634 0.16051605 0.099913031 0
21.879179 1.3069079 47.199715 0.97323376 0.2071142 0.099597506 0
22.063137 0.52977747 46.61359 0.99156225 0.08286871 0.099684775 0
9.8721323 2.3148975 46.847393 -0.92568928 0.36493483 0.099608906 0
10.396362 3.2846613 47.059319 -0.84803629 0.5204618 0.099769674 0
21.214388 3.0752499 46.978336 0.86701733 0.48808572 0.10026608 0
11.406629 4.5533547 46.963654 -0.68696058 0.71983021 0.09964738 0
12.90221 5.5837898 47.08543 -0.45171919 0.88655102 0.099884368 0
14.05245 5.9780149 47.906967 -0.27038103 0.95717424 0.1034964 0
17.791822 5.933321 47.286934 0.32582843 0.94015533 0.099718876 0
19.023926 5.3422093 47.025387 0.51998419 0.84831321 0.09990593 0
20.328575 4.3431211 46.886593 0.72178864 0.68494409 0.099361598 0
13.839787 6.0487566 46.610165 -0.30121893 0.94845784 0.098462231 0
15.003266 6.2362161 46.976959 -0.11849495 0.98791468 0.099917233 0
16.841949 6.1995192 46.899567 0.17248107 0.97996229 0.099620707 0
15.294792 -6.0879521 48.834881 -0.073697492 -0.99227941 0.099750973 0
16.477949 -6.0766749 48.770016 0.11804613 -0.9880476 0.099131294 0
11.540484 -4.4117122 48.978081 -0.68689114 -0.71991223 0.099533297 0
12.976962 -5.4005828 49.008099 -0.45459306 -0.88507968 0.099895291 0
14.395291 -5.9180565 49.274708 -0.22236614 -0.96990108 0.099223197 0
17.348034 -5.8553205 49.209641 0.26171166 -0.95999193 0.099611305 0
19.045036 -5.089107 49.038513 0.54100227 -0.8350606 0.099951789 0
20.18819 -4.1954641 48.96563 0.72334158 -0.68330467 0.099356279 0
9.9597731 -2.1135235 48.414474 -0.93547839 -0.33905581 0.099604882 0
10.514344 -3.0680563 49.050842 -0.85838628 -0.50320077 0.099810079 0
20.999847 -3.0413179 49.012234 0.86090195 -0.4988586 0.099939622 0
9.7485161 -0.9752301 48.981606 -0.98208463 -0.15983404 0.099813879 0
10.021769 -1.9183981 49.646797 -0.94440043 -0.31307244 0.10046607 0
21.736073 -1.0172219 49.052711 0.98089063 -0.1671375 0.099592499 0
9.7509308 0.98936307 48.997826 -0.98169935 0.16210544 0.09994106 0
10.02749 1.893996 49.776226 -0.94454151 0.31304708 0.099210881 0
21.747139 0.99279785 48.983662 0.98153335 0.16310591 0.099943325 0
9.9592743 2.1231463 48.379715 -0.93433529 0.34232333 0.099158123 0
10.5233 3.0830672 49.032112 -0.8571133 0.50535887 0.09984526 0
21.03709 2.9893765 48.977348 0.86632091 0.4893918 0.099919155 0
11.582238 4.459034 48.926693 -0.67898577 0.72735739 0.0996475 0
12.977058 5.397573 49.034634 -0.4549287 0.88490385 0.099925436 0
14.456532 5.9236803 49.338123 -0.21170892 0.97225022 0.099543057 0
17.338558 5.8629484 49.159264 0.25963736 0.96051419 0.10000464 0
19.03739 5.0971484 49.00835 0.53915447 0.83624154 0.10006265 0
20.196081 4.203001 48.852303 0.72269481 0.68401277 0.099190846 0
15.290768 6.0830379 48.889343 -0.074760422 0.99223858 0.09936519 0
16.505465 6.0736117 48.765484 0.12269659 0.98749691 0.098971419 0
11.700087 -4.3018031 50.925755 -0.68201005 -0.72453022 0.099590376 0
12.980746 -5.1762609 50.991455 -0.46945846 -0.87727565 0.099981271 0
15.005948 -5.8298926 51.012611 -0.12616336 -0.98698074 0.09975902 0
17.015356 -5.7367711 51.024189 0.21447556 -0.97160637 0.099907354 0
