# .PCD v0.7 - Point Cloud Data file format
VERSION 0.7
FIELDS x y z normal_x normal_y normal_z curvature
SIZE 4 4 4 4 4 4 4
TYPE F F F F F F F
COUNT 1 1 1 1 1 1 1
WIDTH 736
HEIGHT 1
VIEWPOINT 0 0 0 1 0 0 0
POINTS 736
DATA ascii
11.527737 -10.493981 10.020948 -0.046697643 -0.11515171 0.99224973 0
12.513221 -10.471888 10.085831 -0.086206645 -0.27618307 0.95723104 0
13.491359 -10.445725 10.201657 -0.096178956 -0.4502382 0.88771343 0
14.504166 -10.459506 10.300718 -0.065709904 -0.56009144 0.82582068 0
15.495427 -10.430397 10.382707 -0.017713197 -0.63437349 0.77282375 0
16.47658 -10.445532 10.347538 0.043669462 -0.60469455 0.79525936 0
17.471333 -10.442189 10.265362 0.085780285 -0.52359241 0.8476395 0
18.493708 -10.453674 10.143906 0.096328571 -0.36745149 0.92504066 0
19.487062 -10.484671 10.045374 0.066565111 -0.1878327 0.97994286 0
20.502636 -10.52295 10.004642 0.022123408 -0.047432739 0.99862945 0
21.459333 -10.511295 10.000009 0.0032812711 -0.0046316762 0.99998385 0
22.487509 -10.459954 10 0.00097751536 0.00089878932 0.99999911 0
23.465899 -10.544072 10 0.00097751524 0.00097751524 0.99999899 0
24.507715 -10.526087 10 0.00097751524 0.00097751524 0.99999899 0
25.513472 -10.464173 10 0.00097751536 0.00097751536 0.99999911 0
26.507666 -10.500703 10 0.00097751536 0.00097751536 0.99999905 0
27.511789 -10.501272 10 0.00097751524 0.00097751524 0.99999899 0
28.501263 -10.547781 10 0.00097751524 0.00097751524 0.99999899 0
29.474409 -10.524423 10 0.00097751536 0.00097751536 0.99999905 0
30.47481 -10.462973 10 0.00097751536 0.00097751536 0.99999899 0
31.528015 -10.46981 10 0.00097751536 0.00097751536 0.99999905 0
32.50407 -10.464106 10 0.00097751536 0.00097751536 0.99999911 0
33.458858 -10.476413 10 0.00097751548 0.00097751548 0.99999911 0
34.54541 -10.51081 10 0.00097751536 0.00097751536 0.99999905 0
35.504417 -10.534163 10 0.00097751524 0.00097751524 0.99999899 0
36.501328 -10.511469 10 0.00097751536 0.00097751536 0.99999905 0
37.520588 -10.493948 10 0.00097751524 0.00097751524 0.99999899 0
38.488102 -10.503585 10 0.00097751536 0.00097751536 0.99999905 0
39.506622 -10.486233 10 0.00097751536 0.00097751536 0.99999905 0
40.527622 -10.493246 10 0.0022175047 9.8249177e-05 0.99999762 0
41.421547 -10.469555 10 0.29106864 -0.13715352 0.94681996 0
-8.1856327 -9.2188187 10 -0.3428044 -0.37755597 0.86019564 0
-7.4892235 -9.4793377 10 -0.15223238 -0.20358649 0.96714932 0
-6.513957 -9.4844999 10 -0.0032898034 -0.0043641445 0.99998504 0
-5.4908252 -9.5201941 10 0.00097751536 0.00097751536 0.99999911 0
-4.5003343 -9.4817505 10 0.00097751536 0.00097751536 0.99999911 0
-3.4724793 -9.4823551 10 0.00097751524 0.00097751524 0.99999899 0
-2.4680226 -9.490696 10 0.00097751536 0.00097751536 0.99999905 0
-1.5327042 -9.5617399 10 0.00097751536 0.00097751536 0.99999911 0
-0.50252861 -9.5025778 10 0.00097751524 0.00097751524 0.99999899 0
0.5248155 -9.4766912 10 0.00097751524 0.00097751524 0.99999899 0
1.5365626 -9.5302858 10 0.00097751524 0.00097751524 0.99999899 0
2.5209687 -9.450532 10 0.00097751536 0.00097751536 0.99999905 0
3.5038707 -9.5064411 10 0.00097751524 0.00097751524 0.99999899 0
4.517148 -9.5271511 10 0.00097751536 0.00097751536 0.99999905 0
5.4923415 -9.5208759 10 0.00097751536 0.00097751536 0.99999905 0
6.5403996 -9.5100193 10 0.00097751536 0.00097751536 0.99999905 0
7.5006976 -9.4752617 10 0.00096514169 0.00096514169 0.99999905 0
8.4839897 -9.5132208 10.000053 -0.0031353603 -0.0044813026 0.99998504 0
9.4859791 -9.4876699 10.015571 -0.057000224 -0.086705521 0.99460208 0
10.513045 -9.4734163 10.136814 -0.17891584 -0.32285389 0.92938399 0
11.494755 -9.4536858 10.434598 -0.27845785 -0.61710322 0.73596531 0
12.428837 -9.6344023 10.599774 -0.25731927 -0.74593413 0.61430371 0
13.423547 -9.816206 10.721493 -0.19522768 -0.82598871 0.52879947 0
14.425148 -9.9230804 10.845242 -0.11721823 -0.88879013 0.44307119 0
15.533316 -9.9690647 10.927309 -0.019321427 -0.91998309 0.39148161 0
16.54405 -9.9544754 10.89276 0.073463544 -0.90753257 0.41350654 0
17.517559 -9.8836937 10.792887 0.1536486 -0.86373401 0.4799538 0
18.544512 -9.7347078 10.675086 0.22782564 -0.79416096 0.56338608 0
19.546293 -9.5331841 10.532773 0.27713284 -0.69347692 0.66504663 0
20.477039 -9.4633207 10.271217 0.23785169 -0.47721544 0.84598589 0
21.506958 -9.5212336 10.045601 0.10271777 -0.17001852 0.98007286 0
22.481514 -9.5024891 10.002367 0.022106297 -0.030222232 0.99929863 0
23.491991 -9.5119677 10 0.0013695845 0.00028206856 0.99999905 0
24.495655 -9.5169153 10 0.00097751536 0.00097751536 0.99999911 0
25.507521 -9.5122356 10 0.00097751524 0.00097751524 0.99999899 0
26.485367 -9.4699793 10 0.00097751536 0.00097751536 0.99999905 0
27.502781 -9.5371552 10 0.00097751524 0.00097751524 0.99999899 0
28.488983 -9.5101414 10 0.00097751536 0.00097751536 0.99999905 0
29.475273 -9.4871254 10 0.00097751536 0.00097751536 0.99999905 0
30.525145 -9.511569 10 0.00097751524 0.00097751524 0.99999899 0
31.493895 -9.533988 10 0.00097751536 0.00097751536 0.99999905 0
32.45396 -9.4993448 10 0.00097751524 0.00097751524 0.99999899 0
33.512012 -9.5307426 10 0.00097751536 0.00097751536 0.99999905 0
34.49839 -9.4791918 10 0.00097751536 0.00097751536 0.99999905 0
35.48019 -9.558013 10 0.00097751548 0.00097751548 0.99999911 0
36.518932 -9.5016594 10 0.00097751524 0.00097751524 0.99999899 0
37.488716 -9.4813032 10 0.00097751536 0.00097751536 0.99999905 0
38.494408 -9.5160503 10 0.00097751536 0.00097751536 0.99999905 0
39.45689 -9.4770622 10 0.00097751548 0.00097751548 0.99999911 0
40.489494 -9.4986315 10 0.00097751548 0.00097751548 0.99999911 0
41.490932 -9.5093613 10 0.083210267 -0.036250602 0.99587244 0
42.132442 -9.3845491 10 0.42715484 -0.1630861 0.88934898 0
-9.1535702 -8.2568951 10 -0.368209 -0.30291924 0.87901193 0
-8.487957 -8.4609289 10 -0.1343888 -0.12667425 0.98279876 0
-7.4934263 -8.4896431 10 0.00077676191 0.00080549112 0.99999934 0
-6.5080905 -8.5277891 10 0.00097751536 0.00097751536 0.99999905 0
-5.489006 -8.5236368 10 0.00097751536 0.00097751536 0.99999905 0
-4.4515862 -8.5179262 10 0.00097751536 0.00097751536 0.99999905 0
-3.5163805 -8.5162039 10 0.00097751536 0.00097751536 0.99999911 0
-2.5093734 -8.4791079 10 0.00097751536 0.00097751536 0.99999911 0
-1.4866339 -8.4700108 10 0.00097751536 0.00097751536 0.99999905 0
-0.49463886 -8.5179539 10 0.00097751524 0.00097751524 0.99999899 0
0.46605372 -8.5219278 10 0.00097751524 0.00097751524 0.99999899 0
1.4831938 -8.4811583 10 0.00097751524 0.00097751524 0.99999899 0
2.4606264 -8.4832916 10 0.00097751524 0.00097751524 0.99999899 0
3.5001564 -8.4964638 10 0.00097751524 0.00097751524 0.99999899 0
4.4986296 -8.5222406 10 0.00097751524 0.00097751524 0.99999899 0
5.5019054 -8.5090752 10 0.00097751536 0.00097751536 0.99999905 0
6.5102897 -8.5038872 10 0.00096448173 0.00096448173 0.99999899 0
7.4902673 -8.5269203 10.000196 -0.0074941344 -0.0076761511 0.99994254 0
8.5087051 -8.4695377 10.039 -0.1224243 -0.14296225 0.98212737 0
9.5531044 -8.4587736 10.34604 -0.35477948 -0.48465618 0.79952472 0
10.434811 -8.6776581 10.619193 -0.41688028 -0.68136358 0.60162652 0
11.202189 -8.9230108 10.846598 -0.40439534 -0.7974661 0.44778603 0
20.678484 -8.8021317 10.722911 0.41538805 -0.74259728 0.52535892 0
21.520922 -8.5207033 10.506035 0.40926516 -0.60272974 0.68499553 0
22.498714 -8.5318451 10.119118 0.20928112 -0.26620045 0.94092441 0
23.486513 -8.490324 10.00731 0.046098083 -0.052128084 0.99757582 0
24.5441 -8.5160341 10 0.0011682536 0.00049015385 0.99999917 0
25.515726 -8.4816961 10 0.00097751536 0.00097751536 0.99999905 0
26.502899 -8.5095863 10 0.00097751548 0.00097751548 0.99999911 0
27.50507 -8.4792328 10 0.00097751536 0.00097751536 0.99999905 0
28.489302 -8.4266968 10 0.00097751536 0.00097751536 0.99999911 0
29.491943 -8.5058947 10 0.00097751536 0.00097751536 0.99999905 0
30.509468 -8.4773111 10 0.00097751524 0.00097751524 0.99999899 0
31.501865 -8.5156803 10 0.00097751548 0.00097751548 0.99999911 0
32.499599 -8.5011883 10 0.00097751536 0.00097751536 0.99999911 0
33.499905 -8.5086546 10 0.00097751536 0.00097751536 0.99999911 0
34.484196 -8.5195637 10 0.00097751524 0.00097751524 0.99999899 0
35.501091 -8.4913406 10 0.00097751536 0.00097751536 0.99999905 0
36.480774 -8.511735 10 0.00097751536 0.00097751536 0.99999905 0
37.483517 -8.4448032 10 0.00097751536 0.00097751536 0.99999905 0
38.535988 -8.4863195 10 0.00097751536 0.00097751536 0.99999905 0
39.520119 -8.4929142 10 0.00097751524 0.00097751524 0.99999899 0
40.490513 -8.5112057 10 0.00097751524 0.00097751524 0.99999893 0
41.492222 -8.5000544 10 0.0081149889 -0.0018362928 0.99996531 0
42.281506 -8.4584217 10 0.3242065 -0.11604593 0.93884152 0
-10.104572 -7.1517234 10 -0.47249919 -0.3948155 0.78795004 0
-9.397871 -7.4842806 10 -0.15173034 -0.11784337 0.98137188 0
-8.5193996 -7.5121136 10 0.00016899893 0.00020593496 0.99999994 0
-7.5182238 -7.4881067 10 0.00097751536 0.00097751536 0.99999905 0
-6.517395 -7.49932 10 0.00097751536 0.00097751536 0.99999905 0
-5.4640083 -7.51543 10 0.00097751536 0.00097751536 0.99999905 0
-4.5439973 -7.492002 10 0.00097751536 0.00097751536 0.99999905 0
-3.4741518 -7.4911957 10 0.00097751536 0.00097751536 0.99999911 0
-2.4955742 -7.5057015 10 0.00097751536 0.00097751536 0.99999911 0
-1.5043446 -7.4800019 10 0.00097751536 0.00097751536 0.99999911 0
-0.50696629 -7.4525199 10 0.00097751536 0.00097751536 0.99999905 0
0.49493217 -7.5035191 10 0.00097751536 0.00097751536 0.99999905 0
1.4964015 -7.5149651 10 0.00097751536 0.00097751536 0.99999911 0
2.4826589 -7.4603581 10 0.00097751548 0.00097751548 0.99999911 0
3.4915228 -7.5113101 10 0.00097751536 0.00097751536 0.99999905 0
4.5016069 -7.4805088 10 0.00097751524 0.00097751524 0.99999899 0
5.530282 -7.5075908 10 0.00097751524 0.00097751524 0.99999899 0
6.4834046 -7.4972048 10.000066 -0.006186333 -0.0047025685 0.99996978 0
7.4993501 -7.4818397 10.042367 -0.14369662 -0.12889796 0.98119146 0
8.53895 -7.4889483 10.408354 -0.45656836 -0.47454944 0.75256103 0
9.2877941 -7.7332063 10.747349 -0.55007565 -0.65846252 0.51365727 0
21.879639 -7.9027305 10.871839 0.55308145 -0.71938407 0.42022309 0
22.573524 -7.5811844 10.586237 0.52418089 -0.5808695 0.622756 0
23.497608 -7.4764981 10.160912 0.29304308 -0.28145936 0.91373205 0
24.479351 -7.4972925 10.005455 0.047190927 -0.040777933 0.99805319 0
25.488535 -7.4967399 10 0.0012463022 0.00054228748 0.99999905 0
26.46228 -7.4827251 10 0.00097751536 0.00097751536 0.99999911 0
27.496803 -7.4751592 10 0.00097751524 0.00097751524 0.99999899 0
28.502207 -7.462522 10 0.00097751536 0.00097751536 0.99999905 0
29.511826 -7.502872 10 0.00097751536 0.00097751536 0.99999905 0
30.457199 -7.4469242 10 0.00097751536 0.00097751536 0.99999905 0
31.516272 -7.5378852 10 0.00097751548 0.00097751548 0.99999911 0
32.505066 -7.4650846 10 0.00097751536 0.00097751536 0.99999905 0
33.469955 -7.5156288 10 0.00097751536 0.00097751536 0.99999905 0
34.545296 -7.5052538 10 0.00097751536 0.00097751536 0.99999911 0
35.491821 -7.4995522 10 0.00097751548 0.00097751548 0.99999911 0
36.521404 -7.5023022 10 0.00097751536 0.00097751536 0.99999911 0
37.538376 -7.5370932 10 0.00097751524 0.00097751524 0.99999899 0
38.526375 -7.4580631 10 0.00097751536 0.00097751536 0.99999905 0
39.489651 -7.5117035 10 0.00097751524 0.00097751524 0.99999899 0
40.455719 -7.5608869 10 0.00097751536 0.00097751536 0.99999905 0
41.528065 -7.4983349 10 0.00097751536 0.00097751536 0.99999905 0
42.464481 -7.4470925 10 0.21774191 -0.0658447 0.97378284 0
43.029018 -7.0070944 10 0.66332269 -0.2066087 0.7192468 0
-10.359357 -6.4189715 10 -0.28992134 -0.18686062 0.93863136 0
-9.4742231 -6.5068145 10 -0.0072520007 -0.0063165561 0.99995381 0
-8.5150528 -6.5275164 10 0.00097751536 0.00097751536 0.99999911 0
-7.4994025 -6.4744439 10 0.00097751536 0.00097751536 0.99999905 0
-6.4857469 -6.4826026 10 0.00097751524 0.00097751524 0.99999899 0
-5.4853101 -6.4904652 10 0.00097751536 0.00097751536 0.99999905 0
-4.5018072 -6.4910393 10 0.00097751536 0.00097751536 0.99999905 0
-3.5083368 -6.4975514 10 0.00097751536 0.00097751536 0.99999905 0
-2.4947312 -6.4682817 10 0.00097751536 0.00097751536 0.99999905 0
-1.5046886 -6.4759593 10 0.00097751548 0.00097751548 0.99999911 0
-0.50923133 -6.5095148 10 0.00097751536 0.00097751536 0.99999911 0
0.52357721 -6.502738 10 0.00097751524 0.00097751524 0.99999899 0
1.4818265 -6.5272422 10 0.00097751548 0.00097751548 0.99999911 0
2.5336366 -6.5246658 10 0.00097751524 0.00097751524 0.99999899 0
3.4751225 -6.4986391 10 0.00097751536 0.00097751536 0.99999911 0
4.4964051 -6.4902425 10 0.00097751548 0.00097751548 0.99999911 0
5.5140548 -6.5036483 10 -0.00089033245 -0.00037549142 0.99999946 0
6.4892673 -6.4779119 10.022252 -0.10285191 -0.071690023 0.99210989 0
7.5293941 -6.4833832 10.347318 -0.47612879 -0.37418032 0.79579556 0
8.2533102 -6.7197027 10.758227 -0.6429531 -0.57942021 0.50088269 0
22.959805 -6.9106407 10.904364 0.6676259 -0.63040304 0.39606532 0
23.537504 -6.58604 10.590083 0.59747601 -0.50570762 0.62232 0
24.465502 -6.4677763 10.123487 0.28133726 -0.20893775 0.93658656 0
25.491175 -6.5200071 10.000857 0.020715138 -0.012860675 0.99970263 0
26.515862 -6.4574189 10 0.00097751536 0.00097751536 0.99999905 0
27.479454 -6.4667544 10 0.00097751536 0.00097751536 0.99999899 0
28.457975 -6.5184374 10 0.00097751548 0.00097751548 0.99999911 0
29.510582 -6.5053325 10 0.00097751536 0.00097751536 0.99999905 0
30.534145 -6.4996076 10 0.00097751524 0.00097751524 0.99999899 0
31.512344 -6.5049605 10 0.00097751536 0.00097751536 0.99999905 0
32.514942 -6.4868078 10 0.00097751524 0.00097751524 0.99999899 0
33.510319 -6.519578 10 0.00097751536 0.00097751536 0.99999905 0
34.531605 -6.5060625 10 0.00097751536 0.00097751536 0.99999905 0
35.488476 -6.4775972 10 0.00097751536 0.00097751536 0.99999911 0
36.535526 -6.5046945 10 0.00097751536 0.00097751536 0.99999905 0
37.516251 -6.4626832 10 0.00097751536 0.00097751536 0.99999905 0
38.452038 -6.4526191 10 0.00097751536 0.00097751536 0.99999905 0
39.526894 -6.4758797 10 0.00097751536 0.00097751536 0.99999911 0
40.488361 -6.4587765 10 0.00097751524 0.00097751524 0.99999899 0
41.536858 -6.4970717 10 0.00097751536 0.00097751536 0.99999905 0
42.53286 -6.466763 10 0.10793622 -0.023784358 0.9938733 0
43.084824 -6.4022255 10 0.54123235 -0.10512097 0.83427638 0
-11.141295 -5.2876782 10 -0.39304963 -0.18808457 0.90007567 0
-10.524355 -5.4818654 10 -0.092631929 -0.049548183 0.99446684 0
-9.4814005 -5.4902649 10 0.00097751536 0.00097751536 0.99999905 0
-8.5375624 -5.4864864 10 0.00097751536 0.00097751536 0.99999905 0
-7.4460754 -5.4849706 10 0.00097751536 0.00097751536 0.99999911 0
-6.4568124 -5.4869347 10 0.00097751536 0.00097751536 0.99999899 0
-5.4892755 -5.5044971 10 0.00097751548 0.00097751548 0.99999911 0
-4.5328746 -5.4880099 10 0.00097751536 0.00097751536 0.99999911 0
-3.4626591 -5.555563 10 0.00097751536 0.00097751536 0.99999905 0
-2.443306 -5.4758396 10 0.00097751524 0.00097751524 0.99999899 0
-1.4929851 -5.4935627 10 0.00097751536 0.00097751536 0.99999905 0
-0.5148741 -5.5272899 10 0.00097751536 0.00097751536 0.99999905 0
0.51758355 -5.4908199 10 0.00097751536 0.00097751536 0.99999905 0
1.4904903 -5.4824357 10 0.00097751536 0.00097751536 0.99999905 0
2.4916272 -5.5144157 10 0.00097751536 0.00097751536 0.99999905 0
3.4975462 -5.4767294 10 0.00097751536 0.00097751536 0.99999905 0
4.4627652 -5.4741087 10 0.00093892927 0.00093892927 0.99999911 0
5.500329 -5.4934654 10.002782 -0.03478149 -0.017815407 0.99923617 0
6.5361543 -5.5019069 10.180481 -0.36899498 -0.22077179 0.90283024 0
7.3049192 -5.5806451 10.6822 -0.69432592 -0.45837194 0.55480331 0
23.877092 -5.8510675 10.841775 0.72978622 -0.52387887 0.43927553 0
24.477339 -5.5274386 10.466639 0.5922457 -0.37702027 0.71211004 0
25.517212 -5.5078797 10.032983 0.13646218 -0.078230731 0.98755151 0
26.465914 -5.5075126 10 0.0029058468 -0.00064669084 0.99999553 0
27.526352 -5.47401 10 0.00097751536 0.00097751536 0.99999905 0
28.534292 -5.5228987 10 0.00097751524 0.00097751524 0.99999899 0
29.501717 -5.5334859 10 0.00097751536 0.00097751536 0.99999905 0
30.499981 -5.4877567 10 0.00097751536 0.00097751536 0.99999911 0
31.510399 -5.4907198 10 0.00097751536 0.00097751536 0.99999905 0
32.48418 -5.4938393 10 0.00097751536 0.00097751536 0.99999911 0
33.508934 -5.4887071 10 0.00097751524 0.00097751524 0.99999899 0
34.532391 -5.4925704 10 0.00097751536 0.00097751536 0.99999911 0
35.523312 -5.5059013 10 0.00097751536 0.00097751536 0.99999905 0
36.487518 -5.4788013 10 0.00097751536 0.00097751536 0.99999905 0
37.531288 -5.4840627 10 0.00097751536 0.00097751536 0.99999905 0
38.482738 -5.5018253 10 0.00097751548 0.00097751548 0.99999911 0
39.455414 -5.5211115 10 0.00097751536 0.00097751536 0.99999905 0
40.4856 -5.5311809 10 0.00097751536 0.00097751536 0.99999905 0
41.499367 -5.4884014 10 0.00097751536 0.00097751536 0.99999905 0
42.495716 -5.47966 10 0.022856455 -0.004703877 0.99972779 0
43.204815 -5.4809809 10 0.42276463 -0.087233841 0.90203124 0
-11.34681 -4.4396462 10 -0.31215942 -0.11876525 0.94257694 0
-10.480634 -4.5114112 10 -0.003014609 -0.00067086396 0.99999523 0
-9.4981871 -4.5365043 10 0.00097751536 0.00097751536 0.99999911 0
-8.5024891 -4.4601016 10 0.00097751548 0.00097751548 0.99999911 0
-7.544951 -4.4945002 10 0.00097751536 0.00097751536 0.99999905 0
-6.5051837 -4.5326295 10 0.00097751536 0.00097751536 0.99999905 0
-5.4921732 -4.477067 10 0.00097751524 0.00097751524 0.99999899 0
-4.4805012 -4.5189476 10 0.00097751524 0.00097751524 0.99999899 0
-3.5282323 -4.5137782 10 0.00097751524 0.00097751524 0.99999899 0
-2.5246799 -4.444562 10 0.00097751524 0.00097751524 0.99999899 0
-1.4980385 -4.5280232 10 0.00097751548 0.00097751548 0.99999911 0
-0.50507587 -4.5169744 10 0.00097751536 0.00097751536 0.99999905 0
0.49521333 -4.4909129 10 0.00097751536 0.00097751536 0.99999905 0
1.5345678 -4.5167747 10 0.00097751536 0.00097751536 0.99999911 0
2.486675 -4.4948425 10 0.00097751536 0.00097751536 0.99999911 0
3.5073321 -4.5118189 10 0.00097751536 0.00097751536 0.99999905 0
4.5084038 -4.4946027 10 -0.0011851016 -0.00010033134 0.99999923 0
5.5165191 -4.4995995 10.037682 -0.16296448 -0.071516573 0.98403656 0
6.4910989 -4.5302453 10.48593 -0.64134806 -0.31518745 0.69952101 0
7.0498199 -4.9341846 10.863883 -0.78274137 -0.44627523 0.43376768 0
24.776033 -4.5924721 10.67697 0.74219245 -0.37311652 0.55671763 0
25.449133 -4.4943871 10.206849 0.41852379 -0.19322851 0.88741231 0
26.503418 -4.5028973 10.002186 0.033159319 -0.013764302 0.99935532 0
27.503248 -4.5177193 10 0.00097751536 0.00097751536 0.99999911 0
28.498222 -4.5045795 10 0.00097751536 0.00097751536 0.99999905 0
29.490543 -4.4981489 10 0.00097751524 0.00097751524 0.99999899 0
30.513826 -4.5024462 10 0.00097751536 0.00097751536 0.99999905 0
31.439606 -4.5357418 10 0.00097751536 0.00097751536 0.99999911 0
32.498772 -4.5225291 10 0.00097751536 0.00097751536 0.99999905 0
33.521049 -4.5095997 10 0.00097751536 0.00097751536 0.99999911 0
34.514286 -4.4804325 10 0.00097751536 0.00097751536 0.99999905 0
35.442505 -4.5155377 10 0.00097751536 0.00097751536 0.99999905 0
36.51482 -4.5213137 10 0.00097751524 0.00097751524 0.99999899 0
37.50671 -4.5313611 10 0.00097751536 0.00097751536 0.99999911 0
38.48307 -4.4809823 10 0.00097751536 0.00097751536 0.99999911 0
39.48428 -4.4937382 10 0.00097751524 0.00097751524 0.99999899 0
40.472458 -4.469337 10 0.00097751524 0.00097751524 0.99999899 0
41.490211 -4.4983068 10 0.00097751548 0.00097751548 0.99999911 0
42.513382 -4.4980841 10 0.001606694 0.00083769549 0.99999839 0
43.302509 -4.4310727 10 0.30466387 -0.059935708 0.95057231 0
-12.039153 -3.1054108 10 -0.68931848 -0.20578776 0.69461596 0
-11.472469 -3.4699032 10 -0.2041131 -0.065313466 0.97676605 0
-10.464725 -3.4728785 10 0.00097751524 0.00097751524 0.99999899 0
-9.5388861 -3.529356 10 0.00097751536 0.00097751536 0.99999905 0
-8.5441732 -3.4709179 10 0.00097751524 0.00097751524 0.99999899 0
-7.5080504 -3.560792 10 0.00097751524 0.00097751524 0.99999899 0
-6.4600697 -3.4519126 10 0.00097751524 0.00097751524 0.99999899 0
-5.4791231 -3.4988298 10 0.00097751524 0.00097751524 0.99999899 0
-4.4748292 -3.4683948 10 0.00097751548 0.00097751548 0.99999911 0
-3.4680781 -3.5135341 10 0.00097751524 0.00097751524 0.99999899 0
-2.5003459 -3.4882569 10 0.00097751536 0.00097751536 0.99999911 0
-1.5094073 -3.4758239 10 0.00097751524 0.00097751524 0.99999899 0
-0.42317778 -3.4752758 10 0.00097751524 0.00097751524 0.99999899 0
0.49187285 -3.5043724 10 0.00097751536 0.00097751536 0.99999905 0
1.503197 -3.4925306 10 0.00097751536 0.00097751536 0.99999905 0
2.4748774 -3.5063982 10 0.00097751536 0.00097751536 0.99999911 0
3.5412757 -3.4874187 10 0.00097751536 0.00097751536 0.99999905 0
4.5087204 -3.4997957 10.000171 -0.016490052 -0.0048006512 0.99985248 0
5.5318875 -3.4937313 10.14608 -0.36464816 -0.12458025 0.92277384 0
6.2751646 -3.5542674 10.682242 -0.77906567 -0.29181567 0.55488753 0
24.944807 -3.8886223 10.909575 0.84382945 -0.35436943 0.40295669 0
25.48707 -3.5011437 10.457807 0.65413594 -0.23560287 0.71874708 0
26.50279 -3.4901683 10.018721 0.11459032 -0.037293352 0.99271256 0
27.507349 -3.5264304 10 0.0010070154 0.00069818238 0.99999928 0
28.509378 -3.472115 10 0.00097751536 0.00097751536 0.99999905 0
29.493219 -3.5062087 10 0.00097751524 0.00097751524 0.99999899 0
30.539211 -3.4861939 10 0.00097751536 0.00097751536 0.99999905 0
31.524021 -3.4749081 10 0.00097751536 0.00097751536 0.99999905 0
32.478104 -3.5088246 10 0.00097751524 0.00097751524 0.99999899 0
33.510403 -3.4627502 10 0.00097751536 0.00097751536 0.99999905 0
34.506607 -3.544852 10 0.00097751524 0.00097751524 0.99999899 0
35.535465 -3.5359116 10 0.00097751536 0.00097751536 0.99999899 0
36.553749 -3.5192971 10 0.00097751536 0.00097751536 0.99999905 0
37.510014 -3.4888628 10 0.00097751536 0.00097751536 0.99999899 0
38.522106 -3.4922223 10 0.00097751536 0.00097751536 0.99999905 0
39.480515 -3.4870005 10 0.00097751548 0.00097751548 0.99999911 0
40.486904 -3.4563358 10 0.00097751548 0.00097751548 0.99999911 0
41.481316 -3.5271487 10 0.00097751524 0.00097751524 0.99999899 0
42.514011 -3.4796231 10 0.00097751524 0.00097751524 0.99999899 0
43.3675 -3.4704695 10 0.25589892 -0.031462718 0.96619147 0
-12.136191 -2.4551065 10 -0.60836256 -0.1105371 0.78592408 0
-11.476979 -2.5124242 10 -0.060035396 -0.010774397 0.99813813 0
-10.483712 -2.480685 10 0.00097751524 0.00097751524 0.99999899 0
-9.4934511 -2.4990051 10 0.00097751524 0.00097751524 0.99999899 0
-8.509511 -2.4863131 10 0.00097751536 0.00097751536 0.99999905 0
-7.4974146 -2.5009551 10 0.00097751536 0.00097751536 0.99999911 0
-6.4943595 -2.4833474 10 0.00097751536 0.00097751536 0.99999911 0
-5.5429482 -2.5305336 10 0.00097751536 0.00097751536 0.99999905 0
-4.5023346 -2.4849994 10 0.00097751536 0.00097751536 0.99999905 0
-3.4923635 -2.4869378 10 0.00097751536 0.00097751536 0.99999911 0
-2.4796226 -2.4909751 10 0.00097751536 0.00097751536 0.99999905 0
-1.4962353 -2.52827 10 0.00097751536 0.00097751536 0.99999905 0
-0.4997572 -2.4745398 10 0.00097751536 0.00097751536 0.99999905 0
0.48188266 -2.526799 10 0.00097751548 0.00097751548 0.99999911 0
1.4793034 -2.4751856 10 0.00097751536 0.00097751536 0.99999911 0
2.496994 -2.5076776 10 0.00097751536 0.00097751536 0.99999905 0
3.4730814 -2.4702988 10 0.00096364995 0.00096364995 0.99999911 0
4.4958487 -2.5315483 10.005122 -0.055786978 -0.012734164 0.99836153 0
5.5457945 -2.4666088 10.331136 -0.57443959 -0.13761462 0.80689609 0
6.0907092 -2.668582 10.834167 -0.85905236 -0.23531869 0.45459235 0
25.640129 -2.5325484 10.578535 0.75107342 -0.19246912 0.63154119 0
26.47875 -2.4479537 10.07784 0.26184604 -0.058826998 0.96331507 0
27.488464 -2.5050399 10 0.0042485562 -0.000255922 0.99999088 0
28.532974 -2.5107894 10 0.00097751524 0.00097751524 0.99999893 0
29.502045 -2.4598906 10 0.00097751524 0.00097751524 0.99999899 0
30.516533 -2.5056412 10 0.00097751536 0.00097751536 0.99999911 0
31.46743 -2.4759035 10 0.00097751524 0.00097751524 0.99999899 0
32.493423 -2.4714303 10 0.00097751524 0.00097751524 0.99999899 0
33.498638 -2.5010352 10 0.00097751536 0.00097751536 0.99999905 0
34.482052 -2.4381361 10 0.00097751524 0.00097751524 0.99999899 0
35.497284 -2.4959414 10 0.00097751536 0.00097751536 0.99999911 0
36.475643 -2.527508 10 0.00097751536 0.00097751536 0.99999905 0
37.484371 -2.5074971 10 0.00097751536 0.00097751536 0.99999905 0
38.523762 -2.4893811 10 0.00097751524 0.00097751524 0.99999899 0
39.483532 -2.4407895 10 0.00097751524 0.00097751524 0.99999899 0
40.464729 -2.5302305 10 0.00097751524 0.00097751524 0.99999899 0
41.512924 -2.5093369 10 0.00097751536 0.00097751536 0.99999911 0
42.483093 -2.5278506 10 0.00097751536 0.00097751536 0.99999905 0
43.456764 -2.4454932 10 0.23160656 -0.027416116 0.97242314 0
-12.202488 -1.4365376 10 -0.45593372 -0.042797521 0.88898414 0
-11.501029 -1.5240163 10 -0.022352278 -0.0025346137 0.99974692 0
-10.52794 -1.4876307 10 0.00097751524 0.00097751524 0.99999899 0
-9.5080366 -1.5169572 10 0.00097751524 0.00097751524 0.99999899 0
-8.4905348 -1.5208604 10 0.00097751536 0.00097751536 0.99999905 0
-7.5321164 -1.4843338 10 0.00097751536 0.00097751536 0.99999911 0
-6.4928007 -1.4654905 10 0.00097751524 0.00097751524 0.99999899 0
-5.5196133 -1.5277163 10 0.00097751524 0.00097751524 0.99999899 0
-4.4881182 -1.5186023 10 0.00097751536 0.00097751536 0.99999905 0
-3.5002565 -1.5083554 10 0.00097751536 0.00097751536 0.99999911 0
-2.490222 -1.502937 10 0.00097751536 0.00097751536 0.99999905 0
-1.5133686 -1.5404426 10 0.00097751524 0.00097751524 0.99999899 0
-0.51160884 -1.5244864 10 0.00097751536 0.00097751536 0.99999911 0
0.52758288 -1.5127423 10 0.00097751524 0.00097751524 0.99999893 0
1.524937 -1.5094769 10 0.00097751524 0.00097751524 0.99999899 0
2.5254538 -1.4663079 10 0.00097751536 0.00097751536 0.99999899 0
3.4657383 -1.5348309 10 0.00082050054 0.00087760971 0.99999934 0
4.4874234 -1.4775091 10.016271 -0.10525551 -0.01559886 0.9943229 0
5.5271254 -1.5095885 10.473177 -0.69702244 -0.10314651 0.70959175 0
25.767313 -1.5181847 10.663177 0.81342614 -0.12330914 0.56844759 0
26.484322 -1.5191077 10.131228 0.350651 -0.04952519 0.9351958 0
27.517166 -1.4956245 10.000012 0.010784219 -0.0015379067 0.99994069 0
28.477718 -1.4881128 10 0.00097751536 0.00097751536 0.99999905 0
29.508865 -1.4587061 10 0.00097751548 0.00097751548 0.99999911 0
30.481218 -1.5427982 10 0.00097751536 0.00097751536 0.99999905 0
31.468414 -1.4792442 10 0.00097751524 0.00097751524 0.99999899 0
32.503109 -1.468562 10 0.00097751524 0.00097751524 0.99999899 0
33.487335 -1.4886943 10 0.00097751524 0.00097751524 0.99999899 0
34.53009 -1.4790057 10 0.00097751524 0.00097751524 0.99999899 0
35.509396 -1.5328639 10 0.00097751548 0.00097751548 0.99999911 0
36.534153 -1.4576447 10 0.00097751536 0.00097751536 0.99999905 0
37.550961 -1.5480429 10 0.00097751536 0.00097751536 0.99999911 0
38.502491 -1.4856262 10 0.00097751524 0.00097751524 0.99999899 0
39.482357 -1.5230539 10 0.00097751536 0.00097751536 0.99999899 0
40.469479 -1.4813493 10 0.00097751524 0.00097751524 0.99999899 0
41.488052 -1.5176315 10 0.00097751524 0.00097751524 0.99999899 0
42.514179 -1.5060235 10 0.00097751536 0.00097751536 0.99999899 0
43.465134 -1.4769659 10 0.226448 -0.0014813364 0.97402215 0
-12.226628 -0.4856475 10 -0.41688037 -0.029969621 0.90846717 0
-11.495331 -0.47319379 10 -0.0081002424 0.00055887352 0.9999671 0
-10.492405 -0.50350547 10 0.00097751524 0.00097751524 0.99999899 0
-9.5281944 -0.50325304 10 0.00097751524 0.00097751524 0.99999899 0
-8.4935827 -0.51050609 10 0.00097751536 0.00097751536 0.99999905 0
-7.5103216 -0.46435136 10 0.00097751524 0.00097751524 0.99999899 0
-6.5002294 -0.48542094 10 0.00097751536 0.00097751536 0.99999905 0
-5.4619012 -0.44474891 10 0.00097751536 0.00097751536 0.99999905 0
-4.4462185 -0.49757051 10 0.00097751536 0.00097751536 0.99999911 0
-3.4721713 -0.52922451 10 0.00097751524 0.00097751524 0.99999899 0
-2.457989 -0.48827967 10 0.00097751524 0.00097751524 0.99999899 0
-1.4928758 -0.52630448 10 0.00097751536 0.00097751536 0.99999905 0
-0.5118894 -0.52475989 10 0.00097751536 0.00097751536 0.99999911 0
0.52196389 -0.44857505 10 0.00097751536 0.00097751536 0.99999905 0
1.4925104 -0.49709663 10 0.00097751536 0.00097751536 0.99999905 0
2.4590056 -0.51493865 10 0.00097751536 0.00097751536 0.99999905 0
3.4766803 -0.52654433 10 0.00065636943 0.00081697124 0.9999994 0
4.4983692 -0.48739919 10.026169 -0.14021139 -0.0053751511 0.99010706 0
5.4787145 -0.50415087 10.514606 -0.73192412 -0.036462087 0.68040991 0
25.825367 -0.51907885 10.717906 0.84688759 -0.042799722 0.5300467 0
26.471045 -0.52724826 10.174078 0.42655259 -0.020954952 0.90422004 0
27.483274 -0.4956046 10.000424 0.020557255 -0.00059113099 0.99978852 0
28.4876 -0.54303527 10 0.00097751536 0.00097751536 0.99999905 0
29.482672 -0.4987523 10 0.00097751524 0.00097751524 0.99999899 0
30.490156 -0.47530895 10 0.00097751548 0.00097751548 0.99999911 0
31.483555 -0.46658602 10 0.00097751536 0.00097751536 0.99999905 0
32.512363 -0.51146299 10 0.00097751536 0.00097751536 0.99999905 0
33.472126 -0.53910112 10 0.00097751536 0.00097751536 0.99999899 0
34.492413 -0.4819895 10 0.00097751536 0.00097751536 0.99999911 0
35.500484 -0.51462901 10 0.00097751524 0.00097751524 0.99999899 0
36.520931 -0.4902297 10 0.00097751536 0.00097751536 0.99999911 0
37.507797 -0.47638386 10 0.00097751536 0.00097751536 0.99999911 0
38.483822 -0.47341523 10 0.00097751536 0.00097751536 0.99999905 0
39.486835 -0.51784676 10 0.00097751536 0.00097751536 0.99999905 0
40.458015 -0.5076372 10 0.00097751536 0.00097751536 0.99999899 0
41.509289 -0.44440392 10 0.00097751536 0.00097751536 0.99999905 0
42.45776 -0.47453275 10 0.00097751536 0.00097751536 0.99999905 0
43.482269 -0.52633619 10 0.19522659 -0.012126642 0.98068321 0
-12.24502 0.48538676 10 -0.44121274 0.011473821 0.89732921 0
-11.50187 0.49730429 10 -0.0052158306 0.0012176892 0.99998558 0
-10.529857 0.48771796 10 0.00097751536 0.00097751536 0.99999905 0
-9.5055609 0.53291261 10 0.00097751524 0.00097751524 0.99999899 0
-8.4585686 0.49081081 10 0.00097751524 0.00097751524 0.99999899 0
-7.5128784 0.48658597 10 0.00097751536 0.00097751536 0.99999911 0
-6.5279465 0.49357638 10 0.00097751524 0.00097751524 0.99999899 0
-5.5416455 0.47598037 10 0.00097751524 0.00097751524 0.99999899 0
-4.5126295 0.50210601 10 0.00097751536 0.00097751536 0.99999905 0
-3.4532206 0.55426091 10 0.00097751524 0.00097751524 0.99999899 0
-2.5293627 0.4667823 10 0.00097751536 0.00097751536 0.99999905 0
-1.5356691 0.47325799 10 0.00097751536 0.00097751536 0.99999899 0
-0.50568932 0.4986425 10 0.00097751548 0.00097751548 0.99999911 0
0.52697945 0.4490743 10 0.00097751536 0.00097751536 0.99999905 0
1.5066998 0.47285253 10 0.00097751524 0.00097751524 0.99999899 0
2.5295465 0.49174437 10 0.00097751536 0.00097751536 0.99999905 0
3.5286071 0.51322681 10 0.0002469563 0.00077318825 0.99999964 0
4.532063 0.48814124 10.028893 -0.15327682 0.0055924254 0.98816752 0
5.48136 0.51805586 10.517911 -0.73442692 0.037646309 0.67764288 0
25.82398 0.52049798 10.725372 0.85241002 0.043004535 0.52110243 0
26.499268 0.49716806 10.163589 0.40803578 0.019436006 0.91275907 0
27.510221 0.50621194 10.00041 0.019537823 0.0011284467 0.99980843 0
28.516119 0.48921561 10 0.00097751536 0.00097751536 0.99999905 0
29.503185 0.47683406 10 0.00097751536 0.00097751536 0.99999905 0
30.516752 0.50027466 10 0.00097751536 0.00097751536 0.99999905 0
31.524715 0.50307965 10 0.00097751536 0.00097751536 0.99999905 0
32.522648 0.47001997 10 0.00097751536 0.00097751536 0.99999905 0
33.498657 0.52713722 10 0.00097751536 0.00097751536 0.99999911 0
34.514374 0.49655023 10 0.00097751536 0.00097751536 0.99999905 0
35.49044 0.44234845 10 0.00097751536 0.00097751536 0.99999905 0
36.50663 0.50008512 10 0.00097751536 0.00097751536 0.99999905 0
37.492184 0.5018366 10 0.00097751536 0.00097751536 0.99999905 0
38.461227 0.50387907 10 0.00097751536 0.00097751536 0.99999905 0
39.502705 0.51920968 10 0.00097751536 0.00097751536 0.99999905 0
40.529221 0.48807549 10 0.00097751536 0.00097751536 0.99999905 0
41.481453 0.51997179 10 0.00097751548 0.00097751548 0.99999911 0
42.492889 0.49326402 10 0.00097751524 0.00097751524 0.99999899 0
43.521893 0.4688201 10 0.22797795 0.013271064 0.97357583 0
-12.18855 1.5023382 10 -0.4411155 0.063353337 0.8952114 0
-11.514956 1.5009677 10 -0.02356749 0.0041095703 0.99971378 0
-10.508639 1.5223913 10 0.00097751536 0.00097751536 0.99999905 0
-9.5145369 1.501007 10 0.00097751536 0.00097751536 0.99999905 0
-8.536232 1.5331633 10 0.00097751536 0.00097751536 0.99999911 0
-7.5009346 1.4922866 10 0.00097751524 0.00097751524 0.99999899 0
-6.5076256 1.4820478 10 0.00097751536 0.00097751536 0.99999899 0
-5.4642124 1.537485 10 0.00097751536 0.00097751536 0.99999905 0
-4.5039172 1.5268942 10 0.00097751536 0.00097751536 0.99999905 0
-3.4891205 1.4553769 10 0.00097751536 0.00097751536 0.99999905 0
-2.5214684 1.4539652 10 0.00097751524 0.00097751524 0.99999899 0
-1.4453549 1.4695271 10 0.00097751536 0.00097751536 0.99999905 0
-0.49948108 1.4694667 10 0.00097751536 0.00097751536 0.99999905 0
0.50626421 1.5016637 10 0.00097751524 0.00097751524 0.99999899 0
1.4904673 1.5282868 10 0.00097751536 0.00097751536 0.99999899 0
2.4819791 1.4769348 10 0.00097751524 0.00097751524 0.99999899 0
3.5038066 1.5127317 10 0.00072188105 0.00095198466 0.99999928 0
4.5013876 1.527127 10.01537 -0.10611925 0.015969213 0.99422514 0
5.5389104 1.5062151 10.484355 -0.7015149 0.10347737 0.70510238 0
25.762011 1.5453503 10.667194 0.81342351 0.12593919 0.56787449 0
26.474022 1.5230715 10.133552 0.36040589 0.051161576 0.93139148 0
27.45492 1.4532282 10.000006 0.014806972 0.0025956552 0.99988705 0
28.527399 1.47771 10 0.00097751536 0.00097751536 0.99999911 0
29.471495 1.5161195 10 0.00097751524 0.00097751524 0.99999899 0
30.50157 1.5234679 10 0.00097751536 0.00097751536 0.99999905 0
31.475548 1.4741851 10 0.00097751536 0.00097751536 0.99999905 0
32.496571 1.5295982 10 0.00097751524 0.00097751524 0.99999899 0
33.492672 1.4843352 10 0.00097751524 0.00097751524 0.99999893 0
34.519806 1.4989289 10 0.00097751524 0.00097751524 0.99999899 0
35.526905 1.5247707 10 0.00097751524 0.00097751524 0.99999899 0
36.482944 1.4831833 10 0.00097751524 0.00097751524 0.99999899 0
37.464432 1.4893924 10 0.00097751536 0.00097751536 0.99999905 0
38.529701 1.5263382 10 0.00097751536 0.00097751536 0.99999905 0
39.533646 1.5612361 10 0.00097751536 0.00097751536 0.99999899 0
40.527054 1.4391326 10 0.00097751536 0.00097751536 0.99999905 0
41.53001 1.4856461 10 0.00097751536 0.00097751536 0.99999905 0
42.497383 1.4885424 10 0.00097751548 0.00097751548 0.99999911 0
43.437641 1.4659221 10 0.18567599 0.005478743 0.98259574 0
-12.139252 2.3888645 10 -0.51825041 0.10176212 0.8491531 0
-11.491018 2.5089421 10 -0.064285301 0.01569326 0.99780822 0
-10.458702 2.5103917 10 0.00097751536 0.00097751536 0.99999905 0
-9.472167 2.4871557 10 0.00097751536 0.00097751536 0.99999905 0
-8.4672327 2.5087342 10 0.00097751548 0.00097751548 0.99999911 0
-7.4803157 2.5134706 10 0.00097751536 0.00097751536 0.99999905 0
-6.5282674 2.4816298 10 0.00097751536 0.00097751536 0.99999905 0
-5.5060439 2.4886973 10 0.00097751536 0.00097751536 0.99999905 0
-4.5104527 2.4749908 10 0.00097751536 0.00097751536 0.99999911 0
-3.4933176 2.4545138 10 0.00097751536 0.00097751536 0.99999911 0
-2.4977343 2.5300868 10 0.00097751524 0.00097751524 0.99999899 0
-1.5080639 2.4831312 10 0.00097751536 0.00097751536 0.99999905 0
-0.48538589 2.4909163 10 0.00097751536 0.00097751536 0.99999905 0
0.48890573 2.5088768 10 0.00097751536 0.00097751536 0.99999905 0
1.5178032 2.5293639 10 0.00097751536 0.00097751536 0.99999905 0
2.5539558 2.4654567 10 0.00097751536 0.00097751536 0.99999899 0
3.4859712 2.5012574 10 0.00097751536 0.00097751536 0.99999911 0
4.5035315 2.5189345 10.006028 -0.06106035 0.013763424 0.99803919 0
5.5497227 2.5102005 10.322305 -0.56738633 0.14031333 0.81140929 0
6.090301 2.6157258 10.859224 -0.86599624 0.2339263 0.44196036 0
25.638111 2.5284986 10.584075 0.75652987 0.1921768 0.62508452 0
26.5009 2.4873631 10.067601 0.23937109 0.055881001 0.96931875 0
27.471424 2.4684126 10 0.0059375577 0.0013978765 0.9999814 0
28.509892 2.4948173 10 0.00097751524 0.00097751524 0.99999899 0
29.484655 2.4690688 10 0.00097751536 0.00097751536 0.99999911 0
30.495153 2.4546828 10 0.00097751548 0.00097751548 0.99999911 0
31.534933 2.4787679 10 0.00097751524 0.00097751524 0.99999899 0
32.495884 2.4826734 10 0.00097751536 0.00097751536 0.99999905 0
33.506145 2.5046787 10 0.00097751536 0.00097751536 0.99999905 0
34.494537 2.5061641 10 0.00097751524 0.00097751524 0.99999899 0
35.504494 2.4826849 10 0.00097751536 0.00097751536 0.99999911 0
36.495762 2.5301681 10 0.00097751536 0.00097751536 0.99999911 0
37.501244 2.476053 10 0.00097751536 0.00097751536 0.99999905 0
38.472 2.4747655 10 0.00097751536 0.00097751536 0.99999911 0
39.502956 2.4926486 10 0.00097751536 0.00097751536 0.99999911 0
40.458408 2.5055754 10 0.00097751524 0.00097751524 0.99999899 0
41.498241 2.4957097 10 0.00097751536 0.00097751536 0.99999905 0
42.505795 2.5246239 10 0.00097751524 0.00097751524 0.99999899 0
43.468525 2.4674933 10 0.25022826 0.020262115 0.96797478 0
-12.048929 3.0742872 10 -0.59117836 0.15675752 0.7911607 0
-11.480235 3.4778516 10 -0.16854823 0.042930134 0.98475814 0
-10.543391 3.4944477 10 0.00097751536 0.00097751536 0.99999905 0
-9.4876146 3.4975359 10 0.00097751536 0.00097751536 0.99999905 0
-8.5097618 3.4695883 10 0.00097751524 0.00097751524 0.99999899 0
-7.517324 3.4810207 10 0.00097751536 0.00097751536 0.99999905 0
-6.4405107 3.5258501 10 0.00097751536 0.00097751536 0.99999905 0
-5.5086961 3.4804547 10 0.00097751536 0.00097751536 0.99999905 0
-4.489377 3.5052834 10 0.00097751548 0.00097751548 0.99999911 0
-3.4769502 3.5108218 10 0.00097751548 0.00097751548 0.99999911 0
-2.5546408 3.4747484 10 0.00097751536 0.00097751536 0.99999911 0
-1.4981153 3.5176108 10 0.00097751536 0.00097751536 0.99999911 0
-0.51227033 3.5073247 10 0.00097751536 0.00097751536 0.99999899 0
0.50471854 3.5351212 10 0.00097751536 0.00097751536 0.99999905 0
1.5193366 3.5086007 10 0.00097751524 0.00097751524 0.99999899 0
2.4736857 3.4886253 10 0.00097751536 0.00097751536 0.99999905 0
3.4916482 3.5066535 10 0.00097751536 0.00097751536 0.99999905 0
4.4868503 3.492327 10.000291 -0.015916642 0.0054859384 0.99985832 0
5.5441198 3.4969108 10.151399 -0.3734796 0.12588939 0.91905659 0
6.2640371 3.5310621 10.681313 -0.78015035 0.28911397 0.55477792 0
24.946402 3.888417 10.906735 0.84650332 0.35936451 0.39279675 0
25.46542 3.5329902 10.464941 0.6557222 0.23941028 0.71603853 0
26.512766 3.4894302 10.019513 0.11585779 0.037569948 0.99255502 0
27.513531 3.4730768 10 0.0011202982 0.00099204469 0.99999887 0
28.512114 3.5345747 10 0.00097751536 0.00097751536 0.99999905 0
29.506918 3.4934094 10 0.00097751524 0.00097751524 0.99999899 0
30.518848 3.4723549 10 0.00097751524 0.00097751524 0.99999899 0
31.485157 3.5053291 10 0.00097751536 0.00097751536 0.99999905 0
32.491512 3.4913957 10 0.00097751524 0.00097751524 0.99999899 0
33.48679 3.4789815 10 0.00097751524 0.00097751524 0.99999899 0
34.536648 3.4682851 10 0.00097751536 0.00097751536 0.99999905 0
35.47464 3.5241482 10 0.00097751536 0.00097751536 0.99999905 0
36.513855 3.4936802 10 0.00097751524 0.00097751524 0.99999899 0
37.449814 3.505851 10 0.00097751524 0.00097751524 0.99999899 0
38.465149 3.4963512 10 0.00097751536 0.00097751536 0.99999905 0
39.488178 3.5300539 10 0.00097751536 0.00097751536 0.99999905 0
40.49276 3.5068071 10 0.00097751536 0.00097751536 0.99999899 0
41.517529 3.5008473 10 0.00097751536 0.00097751536 0.99999905 0
42.48465 3.5163267 10 0.00097751524 0.00097751524 0.99999899 0
43.376743 3.4886541 10 0.27887776 0.044582315 0.95929116 0
-11.367688 4.4924107 10 -0.35441628 0.15772687 0.92168945 0
-10.547646 4.4930048 10 -0.0021850504 0.0021668517 0.99999529 0
-9.5170717 4.5383129 10 0.00097751524 0.00097751524 0.99999899 0
-8.5087719 4.5550027 10 0.00097751536 0.00097751536 0.99999905 0
-7.4977241 4.4648643 10 0.00097751536 0.00097751536 0.99999905 0
-6.498013 4.4677672 10 0.00097751536 0.00097751536 0.99999905 0
-5.4430952 4.5266433 10 0.00097751536 0.00097751536 0.99999905 0
-4.4908915 4.5628781 10 0.00097751536 0.00097751536 0.99999911 0
-3.5176618 4.4961915 10 0.00097751536 0.00097751536 0.99999899 0
-2.5086355 4.5241261 10 0.00097751524 0.00097751524 0.99999899 0
-1.4737263 4.5026813 10 0.00097751548 0.00097751548 0.99999911 0
-0.49124843 4.4615464 10 0.00097751548 0.00097751548 0.99999911 0
0.49608034 4.5173016 10 0.00097751536 0.00097751536 0.99999905 0
1.515625 4.4936328 10 0.00097751536 0.00097751536 0.99999905 0
2.4350142 4.4702859 10 0.00097751536 0.00097751536 0.99999911 0
3.4816289 4.5196838 10 0.00097751524 0.00097751524 0.99999899 0
4.5445213 4.5110102 10 -0.0017604659 0.0017344323 0.99999702 0
5.4909339 4.5089822 10.033383 -0.15051667 0.067003883 0.9863342 0
6.4838176 4.5169311 10.493112 -0.64543402 0.31440046 0.69610858 0
7.0279503 4.8498483 10.916862 -0.79922402 0.44904605 0.39949796 0
24.755718 4.574677 10.705253 0.75096422 0.38104597 0.53931141 0
25.448719 4.5026426 10.197312 0.41251156 0.19292976 0.89028782 0
26.484125 4.4856176 10.002802 0.039516304 0.016314633 0.99908572 0
27.50386 4.4900227 10 0.00097751536 0.00097751536 0.99999905 0
28.545998 4.4959216 10 0.00097751536 0.00097751536 0.99999905 0
29.468895 4.5104356 10 0.00097751524 0.00097751524 0.99999899 0
30.496193 4.4587188 10 0.00097751524 0.00097751524 0.99999899 0
31.523474 4.4916592 10 0.00097751536 0.00097751536 0.99999911 0
32.509113 4.468401 10 0.00097751524 0.00097751524 0.99999899 0
33.522247 4.4975076 10 0.00097751524 0.00097751524 0.99999899 0
34.504082 4.4883137 10 0.00097751536 0.00097751536 0.99999905 0
35.507042 4.5349479 10 0.00097751536 0.00097751536 0.99999911 0
36.536457 4.4956522 10 0.00097751536 0.00097751536 0.99999905 0
37.499439 4.4899845 10 0.00097751524 0.00097751524 0.99999899 0
38.459774 4.5045109 10 0.00097751536 0.00097751536 0.99999905 0
39.534878 4.5706892 10 0.00097751548 0.00097751548 0.99999911 0
40.510204 4.5422359 10 0.00097751536 0.00097751536 0.99999911 0
41.479462 4.4769144 10 0.00097751524 0.00097751524 0.99999899 0
42.507885 4.5369587 10 0.0032315112 0.0014364489 0.99999368 0
43.307137 4.4376097 10 0.33290094 0.066522263 0.94061249 0
-11.159268 5.2821774 10 -0.47966278 0.2167944 0.85024929 0
-10.493322 5.4993172 10 -0.09274441 0.046778008 0.99459058 0
-9.472641 5.5147729 10 0.00097751536 0.00097751536 0.99999911 0
-8.5022211 5.4783444 10 0.00097751536 0.00097751536 0.99999905 0
-7.4891152 5.4728994 10 0.00097751548 0.00097751548 0.99999911 0
-6.5206962 5.4727592 10 0.00097751524 0.00097751524 0.99999899 0
-5.5430856 5.5197034 10 0.00097751536 0.00097751536 0.99999905 0
-4.5097661 5.4889326 10 0.00097751536 0.00097751536 0.99999905 0
-3.535115 5.498045 10 0.00097751524 0.00097751524 0.99999893 0
-2.5242128 5.5016661 10 0.00097751548 0.00097751548 0.99999911 0
-1.4998133 5.5106463 10 0.00097751536 0.00097751536 0.99999905 0
-0.48967755 5.5257597 10 0.00097751536 0.00097751536 0.99999905 0
0.51346856 5.5500951 10 0.00097751536 0.00097751536 0.99999905 0
1.4866886 5.5111308 10 0.00097751524 0.00097751524 0.99999899 0
2.4971364 5.4779305 10 0.00097751536 0.00097751536 0.99999905 0
3.5240843 5.4900789 10 0.00097751536 0.00097751536 0.99999905 0
4.5099978 5.4858418 10 0.00092983176 0.00097751548 0.99999911 0
5.5174899 5.506083 10.002369 -0.034664959 0.018528992 0.99922723 0
6.5394754 5.479404 10.187524 -0.3789244 0.22538659 0.89756179 0
7.3075519 5.6199942 10.652966 -0.67854798 0.45230258 0.57878757 0
23.87957 5.8560076 10.836843 0.72720218 0.52336323 0.44414848 0
24.464827 5.5143833 10.481472 0.60200649 0.38286492 0.70071578 0
25.492834 5.4746904 10.038481 0.15289214 0.085035317 0.9845776 0
26.472418 5.5016961 10 0.0034088057 0.0022121212 0.99999166 0
27.490108 5.4685473 10 0.00097751536 0.00097751536 0.99999905 0
28.474197 5.4873581 10 0.00097751524 0.00097751524 0.99999899 0
29.478064 5.5277987 10 0.00097751548 0.00097751548 0.99999911 0
30.501036 5.4929051 10 0.00097751536 0.00097751536 0.99999905 0
31.478983 5.4823532 10 0.00097751536 0.00097751536 0.99999905 0
32.502701 5.5040178 10 0.00097751536 0.00097751536 0.99999911 0
33.507065 5.5015736 10 0.00097751536 0.00097751536 0.99999905 0
34.514648 5.4406095 10 0.00097751536 0.00097751536 0.99999899 0
35.483822 5.496347 10 0.00097751524 0.00097751524 0.99999899 0
36.480824 5.4748325 10 0.00097751548 0.00097751548 0.99999911 0
37.482178 5.5144958 10 0.00097751536 0.00097751536 0.99999905 0
38.552006 5.5032277 10 0.00097751536 0.00097751536 0.99999911 0
39.490616 5.5419421 10 0.00097751536 0.00097751536 0.99999905 0
40.469872 5.4856873 10 0.00097751536 0.00097751536 0.99999905 0
41.488144 5.5188737 10 0.00097751524 0.00097751524 0.99999899 0
42.494865 5.480464 10 0.021147002 0.0037618324 0.99976933 0
43.193474 5.4496484 10 0.41180801 0.069595106 0.90860921 0
-10.359293 6.4372077 10 -0.31557021 0.19292378 0.92908341 0
-9.4936647 6.4960089 10 -0.0057715387 0.0060728155 0.99996489 0
-8.4704285 6.499795 10 0.00097751536 0.00097751536 0.99999905 0
-7.4874539 6.5401254 10 0.00097751524 0.00097751524 0.99999899 0
-6.4618835 6.5138192 10 0.00097751536 0.00097751536 0.99999899 0
-5.4970803 6.507514 10 0.00097751524 0.00097751524 0.99999899 0
-4.4769287 6.4827242 10 0.00097751536 0.00097751536 0.99999905 0
-3.4794137 6.5346923 10 0.00097751524 0.00097751524 0.99999899 0
-2.4669497 6.4995494 10 0.00097751536 0.00097751536 0.99999905 0
-1.5002482 6.5102191 10 0.00097751536 0.00097751536 0.99999899 0
-0.51103812 6.5521431 10 0.00097751524 0.00097751524 0.99999899 0
0.47926411 6.498158 10 0.00097751536 0.00097751536 0.99999905 0
1.4676366 6.464891 10 0.00097751536 0.00097751536 0.99999911 0
2.5124028 6.5649805 10 0.00097751536 0.00097751536 0.99999905 0
3.4466791 6.4717603 10 0.00097751536 0.00097751536 0.99999911 0
4.4760437 6.4770317 10 0.00097751536 0.00097751536 0.99999905 0
5.4792318 6.4793525 10 -0.0006565447 0.001777996 0.99999821 0
6.532156 6.490809 10.022933 -0.10985467 0.077498138 0.9909218 0
7.5455999 6.508903 10.34751 -0.47369555 0.37655705 0.79612643 0
8.2507429 6.7228475 10.754574 -0.6437543 0.57536167 0.50451893 0
22.931307 6.9259462 10.924314 0.67196608 0.63472325 0.38156 0
23.568068 6.5570989 10.587988 0.59833258 0.50134909 0.62501782 0
24.474091 6.4618225 10.122058 0.28153607 0.20913437 0.93648291 0
25.534182 6.5059752 10.000909 0.019136289 0.011950953 0.99974549 0
26.522215 6.4756579 10 0.00097751524 0.00097751524 0.99999899 0
27.43223 6.4891672 10 0.00097751536 0.00097751536 0.99999905 0
28.479595 6.4702835 10 0.00097751536 0.00097751536 0.99999905 0
29.479752 6.5213122 10 0.00097751548 0.00097751548 0.99999911 0
30.497469 6.5055299 10 0.00097751536 0.00097751536 0.99999905 0
31.480932 6.5343785 10 0.00097751524 0.00097751524 0.99999899 0
32.43042 6.4852738 10 0.00097751536 0.00097751536 0.99999911 0
33.529831 6.5374603 10 0.00097751536 0.00097751536 0.99999905 0
34.480888 6.5551696 10 0.00097751548 0.00097751548 0.99999911 0
35.468567 6.4915409 10 0.00097751524 0.00097751524 0.99999899 0
36.493454 6.5067339 10 0.00097751536 0.00097751536 0.99999905 0
37.486706 6.5011969 10 0.00097751536 0.00097751536 0.99999905 0
38.531689 6.4487681 10 0.00097751536 0.00097751536 0.99999905 0
39.495026 6.5248942 10 0.00097751536 0.00097751536 0.99999899 0
40.543167 6.4864697 10 0.00097751536 0.00097751536 0.99999905 0
41.523907 6.5157766 10 0.00097751536 0.00097751536 0.99999905 0
42.483006 6.4787278 10 0.10052841 0.031544615 0.99443406 0
43.139732 6.2349863 10 0.57453221 0.17216718 0.80016947 0
-10.127373 7.1855125 10 -0.51574999 0.35471639 0.77985781 0
-9.4468889 7.4539156 10 -0.14993586 0.11945082 0.98145336 0
-8.5409689 7.4759984 10 5.9870948e-05 0.0016204743 0.99999863 0
-7.4791069 7.4453206 10 0.00097751536 0.00097751536 0.99999905 0
-6.488523 7.5212536 10 0.00097751548 0.00097751548 0.99999911 0
-5.5164948 7.5031223 10 0.00097751536 0.00097751536 0.99999905 0
-4.5042977 7.4966693 10 0.00097751536 0.00097751536 0.99999911 0
-3.5287673 7.5172105 10 0.00097751536 0.00097751536 0.99999905 0
