ply
format ascii 1.0
comment Created by CloudCompare v2.11 beta (Anoia)
comment Created 2020/4/24 下午1:26
obj_info Generated by CloudCompare!
element vertex 884
property float x
property float y
property float z
property float nx
property float ny
property float nz
end_header
-5.4857 -11.2206 7.47434 -0.437266 -0.899331 0.00130527 
-4.5195 -11.643 7.46416 -0.362873 -0.931838 0.00126437 
-3.73458 -11.919 7.54105 -0.300017 -0.953933 -0.00122456 
3.74779 -12 7.5412 0.0546139 -0.998507 0.00103045 
4.50412 -12 7.50195 -0.000977516 -0.999999 -0.000977516 
5.4457 -12 7.50887 -0.000977516 -0.999999 -0.000977516 
6.49508 -12 7.50419 -0.000977516 -0.999999 -0.000977516 
7.53149 -12 7.47796 -0.000977516 -0.999999 -0.000977516 
8.458 -12 7.53119 -0.000977516 -0.999999 -0.000977516 
9.45484 -12 7.49489 -0.000977516 -0.999999 -0.000977516 
10.4906 -12 7.51856 -0.000977516 -0.999999 -0.000977516 
11.512 -12 7.47771 -0.000977516 -0.999999 -0.000977516 
12.5144 -12 7.46152 -0.000977516 -0.999999 -0.000977516 
13.4883 -12 7.50748 -0.000977516 -0.999999 -0.000977516 
14.5055 -12 7.50965 -0.000977516 -0.999999 -0.000977516 
15.4816 -12 7.48689 -0.000977516 -0.999999 -0.000977516 
16.5172 -12 7.51788 -0.000977516 -0.999999 -0.000977516 
17.4702 -12 7.49466 -0.000977516 -0.999999 -0.000977516 
18.481 -12 7.45879 -0.000977516 -0.999999 -0.000977516 
19.5022 -12 7.47516 -0.000977516 -0.999999 -0.000977516 
20.5205 -12 7.47313 -0.000977516 -0.999999 -0.000977516 
21.454 -12 7.49988 -0.00688282 -0.999976 -0.00098326 
41.3057 -11.5149 7.50923 0.896251 -0.443546 -0.0013084 
-7.20723 -10.2017 7.48008 -0.578659 -0.815569 -0.00136155 
-6.51449 -10.6559 7.4731 -0.522373 -0.852716 -0.00134286 
-5.97236 -10.9773 7.56526 -0.476155 -0.879361 -0.00132634 
41.7713 -10.5199 7.49106 0.913864 -0.406019 -0.00128895 
-8.36491 -9.27728 7.50574 -0.670261 -0.742124 -0.00138198 
-7.74867 -9.8 7.49998 -0.62151 -0.783405 -0.00137199 
42.2182 -9.4465 7.50624 0.931838 -0.362873 0.00126437 
-9.30379 -8.33428 7.51105 -0.745961 -0.665988 0.00137886 
-8.82941 -8.83461 7.56276 -0.705724 -0.708486 0.00138106 
42.5767 -8.47003 7.52079 0.945148 -0.326641 0.00124198 
-10.1887 -7.22701 7.48276 -0.815569 -0.578659 -0.00136155 
-9.81317 -7.73235 7.50051 -0.785794 -0.618487 0.00137137 
42.8651 -7.58458 7.54605 0.956644 -0.291258 -0.00121865 
43.0219 -7.05699 7.51852 0.961751 -0.273924 0.00120671 
-10.6698 -6.492 7.45077 -0.854638 -0.519223 0.00134166 
43.1665 -6.5142 7.48322 0.967932 -0.25121 0.00119057 
-11.2582 -5.41065 7.51438 -0.90085 -0.434129 -0.00130369 
-10.9803 -5.96062 7.31772 -0.87996 -0.475046 0.00132325 
43.4024 -5.52212 7.51506 0.977134 -0.212622 -0.00116187 
-11.6577 -4.47967 7.49769 -0.934187 -0.356781 -0.00126071 
43.6037 -4.49924 7.45606 0.984919 -0.173011 -0.00113079 
-12.0681 -3.23261 7.48629 -0.966452 -0.256844 0.00119463 
-11.9184 -3.73884 7.47875 -0.953933 -0.300017 0.00122456 
43.7621 -3.47524 7.49759 0.991141 -0.132811 -0.00109761 
-12.2412 -2.4831 7.50751 -0.979955 -0.199215 0.00115153 
43.8764 -2.49025 7.47583 0.9955 -0.0947588 -0.00106471 
-12.4027 -1.47495 7.51267 -0.992979 -0.118289 -0.00108522 
43.9532 -1.48303 7.48983 0.998393 -0.0566683 0.00103033 
-12.4812 -0.474553 7.49911 -0.999298 -0.037461 0.00101246 
43.9921 -0.486431 7.45401 0.999821 -0.0189021 -0.000994847 
-12.4803 0.501199 7.50148 -0.999217 0.0395629 -0.00101443 
43.9907 0.525094 7.4777 0.99978 0.0209326 0.00099679 
-12.4047 1.46362 7.49908 -0.993261 0.115898 -0.00108316 
43.9517 1.51419 7.48924 0.998267 0.058843 0.00103233 
-12.2428 2.4706 7.46062 -0.980491 0.196558 0.00114946 
43.8712 2.54061 7.46975 0.995277 0.0970741 0.00106675 
-12.0584 3.27386 7.47529 -0.965696 0.259673 0.00119665 
-11.9127 3.75651 7.44358 -0.953006 0.30295 0.00122652 
43.7539 3.53549 7.51442 0.990809 0.13526 0.00109968 
-11.6515 4.49778 7.51283 -0.933019 0.359825 0.00126254 
43.5934 4.55681 7.5455 0.984462 0.175594 -0.00113287 
-11.2035 5.52017 7.49035 -0.896251 0.443546 -0.0013084 
-10.9832 5.95498 7.50379 -0.881656 0.471891 -0.00132182 
43.4057 5.50514 7.44987 0.977134 0.212622 -0.00116187 
-10.6706 6.49069 7.46361 -0.854638 0.519223 -0.00134166 
43.1699 6.4998 7.47669 0.967932 0.25121 0.00119057 
-10.1813 7.23712 7.46473 -0.813364 0.581753 -0.00136242 
-9.78641 7.76644 7.48657 -0.783405 0.62151 0.00137199 
42.8621 7.59334 7.52374 0.956644 0.291258 -0.00121865 
43.0194 7.06747 7.59018 0.962562 0.271059 0.00120471 
-9.33016 8.30468 7.53055 -0.747332 0.664449 -0.00138139 
-8.81605 8.84786 7.47079 -0.705724 0.708486 0.00138106 
42.5575 8.52714 7.50514 0.945148 0.326641 -0.00124198 
-8.34349 9.29614 7.4746 -0.668888 0.743362 0.00137915 
-7.74425 9.80433 7.52125 -0.619822 0.784741 -0.00137433 
41.9985 9.99536 7.75414 0.923189 0.384343 -0.00127689 
42.1946 9.50813 7.50375 0.930643 0.365926 -0.00126618 
-7.24167 10.1769 7.51842 -0.581753 0.813364 0.00136242 
-6.49048 10.6708 7.55468 -0.519223 0.854638 -0.00134166 
-5.9501 10.9885 7.50292 -0.479317 0.877641 -0.00132775 
41.7745 10.5135 7.46374 0.913864 0.406019 0.00128895 
-5.45041 11.238 7.53165 -0.437266 0.899331 -0.00130527 
-4.49286 11.6539 7.51032 -0.359825 0.933019 -0.00126254 
-3.72739 11.9213 7.47479 -0.300017 0.953933 0.00122456 
41.3146 11.4962 7.48931 0.896251 0.443546 -0.0013084 
-3.21958 12.0724 7.48216 -0.256844 0.966452 0.00119463 
-2.56125 12.2246 7.48549 -0.205018 0.978758 -0.00115829 
-1.50835 12.3988 7.47554 -0.120688 0.99269 0.00108728 
-0.523803 12.4788 7.53012 -0.0416728 0.999131 -0.00101641 
0.504361 12.4795 7.5222 0.0395629 0.999217 -0.00101443 
1.48779 12.4015 7.52794 0.118289 0.992979 -0.00108522 
2.5371 12.2302 7.49439 0.204554 0.978855 0.00115567 
3.50339 12.0288 7.49249 0.120688 0.99269 0.00108728 
4.49922 12 7.49085 0.000977516 0.999999 0.000977516 
5.46725 12 7.51783 0.000977516 0.999999 0.000977516 
6.43864 12 7.48082 0.000977516 0.999999 0.000977516 
7.52527 12 7.53016 0.000977516 0.999999 0.000977516 
8.48989 12 7.47667 0.000977516 0.999999 0.000977516 
9.45868 12 7.46384 0.000977516 0.999999 0.000977516 
10.5048 12 7.56084 0.000977516 0.999999 0.000977516 
11.4987 12 7.49869 0.000977516 0.999999 0.000977516 
12.5117 12 7.48962 0.000977516 0.999999 0.000977516 
13.5243 12 7.51201 0.000977516 0.999999 0.000977516 
14.4393 12 7.51379 0.000977516 0.999999 0.000977516 
15.5352 12 7.52562 0.000977516 0.999999 0.000977516 
16.514 12 7.49047 0.000977516 0.999999 0.000977516 
17.5212 12 7.52339 0.000977516 0.999999 0.000977516 
18.475 12 7.48872 0.000977516 0.999999 0.000977516 
19.5189 12 7.50088 0.000977516 0.999999 0.000977516 
20.5215 12 7.49328 0.000977516 0.999999 0.000977516 
21.4852 12 7.45914 -0.00490671 0.999987 0.000981342 
22.4978 12.0591 7.47343 -0.173011 0.984919 0.00113079 
23.5233 12.441 7.46721 -0.522373 0.852716 -0.00134286 
24.1333 12.8966 7.50715 -0.713977 0.700167 0.001381 
40.7748 12.5337 7.48328 0.876523 0.481358 0.00132606 
41.0367 12.0481 7.56984 0.886654 0.462431 0.00131747 
24.5606 13.4776 7.48615 -0.858436 0.512919 -0.00133921 
39.9552 13.9242 7.48048 0.842882 0.538096 0.00134861 
40.2406 13.459 7.50609 0.856545 0.516071 0.00134045 
24.9459 14.5192 7.49061 -0.985809 0.167869 -0.00112664 
39.552 14.5336 7.47548 0.828486 0.560008 -0.00135595 
25 15.5112 7.47237 -0.999987 0.00490671 -0.000981342 
38.7426 15.6696 7.50378 0.79753 0.603278 -0.00136798 
39.1266 15.149 7.52496 0.813364 0.581753 -0.00136242 
25 16.5547 7.50777 -0.999999 -0.000977516 -0.000977516 
37.8413 16.799 7.50999 0.763803 0.645448 -0.00137622 
38.2463 16.3062 7.50714 0.778585 0.627537 -0.00137317 
25 17.5114 7.50074 -0.999999 -0.000977516 -0.000977516 
36.8667 17.8841 7.54301 0.72751 0.686096 -0.00138047 
37.3374 17.3739 7.4861 0.743362 0.668888 -0.00137915 
25 18.4841 7.51901 -0.999999 -0.000977516 -0.000977516 
35.8679 18.8853 7.49534 0.686096 0.72751 0.00138047 
36.4038 18.3591 7.4384 0.708486 0.705724 0.00138106 
25 19.4617 7.47641 -0.999999 -0.000977516 -0.000977516 
34.797 19.8412 7.46392 0.646807 0.762653 0.00137912 
35.3817 19.33 7.51754 0.668888 0.743362 0.00137915 
25.0016 20.4695 7.47311 -0.99978 0.0209326 -0.00099679 
33.6454 20.7607 7.50304 0.603278 0.79753 -0.00136798 
34.2931 20.2567 7.49635 0.627537 0.778585 0.00137317 
25.1213 21.4877 7.48961 -0.964929 0.262509 0.00119867 
31.9101 21.9618 7.45937 0.536176 0.844105 0.00135057 
32.4844 21.5856 7.50089 0.556887 0.830587 -0.00135496 
33.1724 21.1116 7.42306 0.584843 0.811146 0.00136327 
25.5948 22.4639 7.5353 -0.808912 0.587928 -0.0013641 
26.0305 22.9705 7.55025 -0.6543 0.756234 0.00137747 
30.5489 22.7665 7.49355 0.482479 0.875906 0.00132914 
31.4354 22.2547 7.4801 0.516071 0.856545 0.00134045 
26.5316 23.3039 7.51572 -0.490829 0.871255 0.00133016 
27.5603 23.6611 7.44852 -0.140491 0.990076 0.00331869 
28.5003 23.6531 7.49838 0.167869 0.985809 -0.00112664 
29.416 23.3506 7.48728 0.402911 0.915238 0.00128726 
30.0743 23.0258 7.47182 0.463513 0.886089 -0.00132055 
26.5385 -23.3079 8.50758 -0.488806 -0.872392 -0.0013319 
27.494 -23.6506 8.53728 -0.167869 -0.985809 -0.00112664 
28.5488 -23.6434 8.4672 0.186429 -0.982468 0.00114373 
29.4381 -23.3396 8.53479 0.406019 -0.913864 -0.00128895 
30.0554 -23.035 8.53617 0.462431 -0.886654 -0.00131747 
25.6101 -22.4899 8.50522 -0.802126 -0.597153 0.00136648 
26.031 -22.971 8.35845 -0.658597 -0.752485 0.00414212 
30.5613 -22.7597 8.46437 0.482479 -0.875906 0.00132914 
31.4232 -22.2624 8.47681 0.516071 -0.856545 0.00134045 
25.1234 -21.4923 8.52544 -0.964929 -0.262509 -0.00119867 
31.9365 -21.9453 8.49071 0.538096 -0.842882 -0.00134861 
32.497 -21.5771 8.53153 0.556887 -0.830587 -0.00135496 
33.1516 -21.1266 8.47214 0.581753 -0.813364 0.00136242 
25.0028 -20.4787 8.52113 -0.999633 -0.0270713 -0.00100264 
33.7064 -20.7153 8.49915 0.604596 -0.796531 0.00137097 
34.3265 -20.2297 8.50099 0.627537 -0.778585 -0.00137317 
25 -19.5044 8.4831 -0.999999 -0.000977516 -0.000977516 
34.8071 -19.8333 8.48521 0.648407 -0.761293 0.00137666 
35.3741 -19.3366 8.52223 0.668888 -0.743362 -0.00137915 
25 -18.5316 8.51801 -0.999999 -0.000977516 -0.000977516 
35.8823 -18.8707 8.45603 0.687475 -0.726206 0.00138325 
36.3947 -18.3692 8.50957 0.708486 -0.705724 0.00138106 
25 -17.5298 8.49942 -0.999999 -0.000977516 -0.000977516 
36.8782 -17.8715 8.55698 0.72751 -0.686096 0.00138047 
37.3734 -17.3327 8.48723 0.745961 -0.665988 0.00137886 
25 -16.5164 8.48031 -0.999999 -0.000977516 -0.000977516 
37.8142 -16.8304 8.48368 0.761293 -0.648407 -0.00137666 
38.2606 -16.2879 8.52837 0.778585 -0.627537 0.00137317 
25 -15.4899 8.47455 -0.99996 -0.00886664 -0.000985182 
38.7531 -15.6553 8.50657 0.79753 -0.603278 -0.00136798 
39.1265 -15.1512 8.46041 0.813364 -0.581753 -0.00136242 
24.948 -14.528 8.50538 -0.986665 -0.16276 0.00112249 
39.5553 -14.5287 8.49319 0.828486 -0.560008 -0.00135595 
24.5694 -13.4938 8.48644 -0.862174 -0.506611 -0.0013367 
39.9521 -13.9254 8.52526 0.842882 -0.538096 0.00134861 
40.2746 -13.4019 8.46599 0.856545 -0.516071 0.00134045 
-3.22881 -12.0701 8.46044 -0.256844 -0.966452 -0.00119463 
-2.49929 -12.2373 8.45544 -0.199666 -0.979863 0.00115414 
-1.53718 -12.3952 8.48766 -0.123096 -0.992394 0.00108935 
-0.491752 -12.4804 8.4913 -0.0395629 -0.999217 0.00101443 
0.463777 -12.4812 8.51872 0.037461 -0.999298 -0.00101246 
1.48293 -12.4016 8.52946 0.118289 -0.992979 -0.00108522 
2.46856 -12.2427 8.53612 0.196558 -0.980491 -0.00114946 
3.22503 -12.0686 8.42861 0.199666 -0.979863 -0.00115414 
22.512 -12.0638 8.4958 -0.178186 -0.983996 0.00113494 
23.5383 -12.4471 8.45698 -0.516071 -0.856545 -0.00134045 
24.1011 -12.8658 8.53616 -0.702951 -0.711237 0.00138104 
40.7675 -12.5464 8.4787 0.875906 -0.482479 0.00132914 
41.0356 -12.0554 8.49799 0.886089 -0.463513 -0.00132055 
-5.48347 -11.2216 8.49669 -0.437266 -0.899331 0.00130527 
-4.50454 -11.6493 8.51409 -0.359825 -0.933019 -0.00126254 
-3.69977 -11.9301 8.5072 -0.297091 -0.954848 -0.0012226 
3.7624 -12 8.55337 0.0460106 -0.99894 0.00102246 
4.49585 -12 8.51242 -0.000977516 -0.999999 -0.000977516 
5.47042 -12 8.51669 -0.000977516 -0.999999 -0.000977516 
6.51643 -12 8.51431 -0.000977516 -0.999999 -0.000977516 
7.5271 -12 8.49081 -0.000977516 -0.999999 -0.000977516 
8.52556 -12 8.50341 -0.000977516 -0.999999 -0.000977516 
9.51188 -12 8.50771 -0.000977516 -0.999999 -0.000977516 
10.4927 -12 8.51616 -0.000977516 -0.999999 -0.000977516 
11.4904 -12 8.50861 -0.000977516 -0.999999 -0.000977516 
12.4847 -12 8.52215 -0.000977516 -0.999999 -0.000977516 
13.5302 -12 8.47523 -0.000977516 -0.999999 -0.000977516 
14.4731 -12 8.51378 -0.000977516 -0.999999 -0.000977516 
15.5069 -12 8.50428 -0.000977516 -0.999999 -0.000977516 
16.515 -12 8.4958 -0.000977516 -0.999999 -0.000977516 
17.485 -12 8.52681 -0.000977516 -0.999999 -0.000977516 
18.4648 -12 8.49745 -0.000977516 -0.999999 -0.000977516 
19.5037 -12 8.50858 -0.000977516 -0.999999 -0.000977516 
20.5252 -12 8.50586 -0.000977516 -0.999999 -0.000977516 
21.4997 -12 8.50989 -0.00689638 -0.999976 -0.000985198 
41.3091 -11.5079 8.47991 0.896251 -0.443546 0.0013084 
-7.24077 -10.1776 8.50263 -0.581753 -0.813364 0.00136242 
-6.51443 -10.656 8.48561 -0.522373 -0.852716 0.00134286 
-5.96964 -10.9787 8.65166 -0.478202 -0.878249 -0.00132466 
41.7818 -10.4961 8.47643 0.915238 -0.402911 0.00128726 
-8.35803 -9.28439 8.54209 -0.668888 -0.743362 0.00137915 
-7.76426 -9.78857 8.51709 -0.62151 -0.783405 -0.00137199 
41.9972 -9.99617 8.60084 0.923189 -0.384343 0.00127689 
42.2012 -9.48995 8.51311 0.930643 -0.365926 -0.00126618 
-9.31435 -8.32209 8.52977 -0.745961 -0.665988 -0.00137886 
-8.85391 -8.81029 8.52986 -0.708486 -0.705724 -0.00138106 
42.5722 -8.48328 8.55496 0.945148 -0.326641 -0.00124198 
-10.1789 -7.24038 8.51919 -0.813364 -0.581753 -0.00136242 
-9.81057 -7.73533 8.51367 -0.785794 -0.618487 0.00137137 
42.8713 -7.56377 8.48219 0.956644 -0.291258 0.00121865 
43.0138 -7.0844 8.63459 0.961751 -0.273924 0.00120671 
-10.6685 -6.49412 8.48215 -0.854638 -0.519223 0.00134166 
43.1666 -6.51373 8.49172 0.967932 -0.25121 0.00119057 
-11.2541 -5.41837 8.497 -0.901868 -0.432009 0.00130516 
-10.9845 -5.95238 8.67413 -0.881656 -0.471891 -0.00132182 
43.4099 -5.48795 8.47298 0.977717 -0.209925 0.00115981 
-11.6589 -4.47765 8.52727 -0.934187 -0.356781 -0.00126071 
43.6002 -4.51644 8.52801 0.984919 -0.173011 -0.00113079 
-12.0665 -3.23972 8.5779 -0.966452 -0.256844 -0.00119463 
-11.9123 -3.75768 8.5245 -0.953006 -0.30295 -0.00122652 
43.7576 -3.5102 8.50791 0.990809 -0.13526 -0.00109968 
-12.2406 -2.48207 8.51316 -0.979955 -0.199215 -0.00115153 
43.8773 -2.476 8.50487 0.9955 -0.0947588 0.00106471 
-12.3992 -1.50696 8.51413 -0.992658 -0.12095 0.00108964 
43.953 -1.49103 8.50075 0.998267 -0.058843 -0.00103233 
-12.481 -0.481863 8.46072 -0.999298 -0.037461 -0.00101246 
43.9924 -0.464756 8.47188 0.999856 -0.016913 0.000994882 
-12.4812 0.476023 8.51171 -0.999298 0.037461 -0.00101246 
43.9908 0.519022 8.50124 0.99978 0.0209326 -0.00099679 
-12.3983 1.51298 8.48109 -0.992394 0.123096 -0.00108935 
43.9528 1.49267 8.50729 0.998393 0.0566683 -0.00103033 
-12.2426 2.47356 8.53392 -0.980491 0.196558 -0.00114946 
43.8775 2.47467 8.50147 0.9955 0.0947588 -0.00106471 
-12.0718 3.21905 8.56304 -0.967043 0.254611 -0.00119536 
-11.907 3.77375 8.47504 -0.95278 0.30366 -0.00122939 
43.7578 3.50719 8.50935 0.990809 0.13526 0.00109968 
-11.6672 4.45633 8.51526 -0.935026 0.354578 -0.00126184 
43.6047 4.48738 8.4969 0.984919 0.173011 0.00113079 
-11.2193 5.48706 8.48659 -0.897798 0.440405 0.00130684 
-10.9744 5.97199 8.52128 -0.87996 0.475046 0.00132325 
43.4058 5.50662 8.499 0.977134 0.212622 -0.00116187 
-10.6856 6.46616 8.47714 -0.856545 0.516071 0.00134045 
43.1757 6.47652 8.50374 0.968656 0.248404 -0.00118853 
-10.1743 7.24673 8.52414 -0.813364 0.581753 0.00136242 
-9.79309 7.75762 8.52738 -0.783405 0.62151 -0.00137199 
42.8621 7.59333 8.46904 0.956644 0.291258 0.00121865 
43.0198 7.06621 8.50846 0.962562 0.271059 -0.00120471 
-9.30554 8.33203 8.52156 -0.745961 0.665988 -0.00137886 
-8.82357 8.8404 8.52806 -0.705724 0.708486 -0.00138106 
42.5666 8.50065 8.48084 0.945148 0.326641 0.00124198 
-8.34861 9.29294 8.46782 -0.668888 0.743362 0.00137915 
-7.75428 9.79588 8.5039 -0.62151 0.783405 0.00137199 
42.2044 9.4825 8.47774 0.930643 0.365926 0.00126618 
-7.25208 10.1694 8.54605 -0.581753 0.813364 -0.00136242 
-6.55754 10.6299 8.51452 -0.525521 0.85078 -0.00134404 
-5.97644 10.9752 8.39498 -0.478202 0.878249 -0.00132466 
41.7875 10.4833 8.51553 0.915238 0.402911 0.00128726 
-5.42598 11.25 8.56207 -0.434129 0.90085 -0.00130369 
-4.48807 11.6556 8.47498 -0.356781 0.934187 -0.00126071 
-3.76435 11.9095 8.52659 -0.30072 0.953712 -0.00122743 
41.3201 11.486 8.49732 0.897798 0.440405 -0.00130684 
-3.22348 12.0715 8.54437 -0.256844 0.966452 -0.00119463 
-2.48654 12.2409 8.48697 -0.199215 0.979955 -0.00115153 
-1.51835 12.3966 8.49426 -0.120688 0.99269 -0.00108728 
-0.505832 12.4797 8.52902 -0.0395629 0.999217 -0.00101443 
0.501387 12.4791 8.51197 0.0395629 0.999217 0.00101443 
1.52604 12.397 8.47838 0.123096 0.992394 0.00108935 
2.53746 12.229 8.5178 0.204554 0.978855 -0.00115567 
3.50954 12.0308 8.50457 0.120688 0.99269 -0.00108728 
4.51353 12 8.48282 0.000977516 0.999999 0.000977516 
5.50525 12 8.47071 0.000977516 0.999999 0.000977516 
6.47887 12 8.49279 0.000977516 0.999999 0.000977516 
7.4873 12 8.50093 0.000977516 0.999999 0.000977516 
8.5083 12 8.49164 0.000977516 0.999999 0.000977516 
9.44489 12 8.52313 0.000977516 0.999999 0.000977516 
10.5281 12 8.5356 0.000977516 0.999999 0.000977516 
11.5261 12 8.48921 0.000977516 0.999999 0.000977516 
12.4843 12 8.48985 0.000977516 0.999999 0.000977516 
13.4832 12 8.50066 0.000977516 0.999999 0.000977516 
14.4948 12 8.48675 0.000977516 0.999999 0.000977516 
15.4798 12 8.48881 0.000977516 0.999999 0.000977516 
16.5093 12 8.47606 0.000977516 0.999999 0.000977516 
17.5049 12 8.53573 0.000977516 0.999999 0.000977516 
18.519 12 8.46066 0.000977516 0.999999 0.000977516 
19.4788 12 8.49768 0.000977516 0.999999 0.000977516 
20.5005 12 8.50871 0.000977516 0.999999 0.000977516 
21.5033 12 8.48322 -0.00688282 0.999976 0.00098326 
22.4877 12.0573 8.47421 -0.170436 0.985368 -0.00112871 
23.5193 12.438 8.4875 -0.509765 0.860313 0.00133797 
24.1312 12.8946 8.43365 -0.709868 0.704333 -0.00138376 
40.7538 12.5714 8.54169 0.874782 0.484515 -0.00132744 
41.0221 12.0765 8.38974 0.886654 0.462431 0.00131747 
24.564 13.4842 8.50193 -0.860313 0.509765 -0.00133797 
39.947 13.9368 8.56364 0.842882 0.538096 -0.00134861 
40.2771 13.3985 8.46408 0.856545 0.516071 0.00134045 
24.9403 14.4971 8.46484 -0.984462 0.175594 -0.00113287 
39.5933 14.4727 8.50018 0.830587 0.556887 -0.00135496 
25 15.5115 8.53636 -0.999987 0.00490671 -0.000981342 
38.7594 15.6474 8.4468 0.798847 0.601533 0.00137023 
39.1093 15.1735 8.52782 0.813364 0.581753 0.00136242 
25 16.4956 8.47459 -0.999999 -0.000977516 -0.000977516 
37.8587 16.7786 8.44177 0.763803 0.645448 0.00137622 
38.2586 16.2911 8.49735 0.778585 0.627537 0.00137317 
25 17.4891 8.51527 -0.999999 -0.000977516 -0.000977516 
36.8785 17.8715 8.49526 0.726206 0.687475 -0.00138325 
37.3286 17.3831 8.50504 0.743362 0.668888 0.00137915 
25 18.4755 8.51192 -0.999999 -0.000977516 -0.000977516 
35.8948 18.8599 8.46523 0.68893 0.724826 -0.00138062 
36.3761 18.3873 8.50533 0.707106 0.707106 0.00138377 
25 19.4954 8.4974 -0.999999 -0.000977516 -0.000977516 
34.8193 19.8221 8.47735 0.648407 0.761293 -0.00137666 
35.3986 19.315 8.5048 0.668888 0.743362 -0.00137915 
25.0027 20.5163 8.48516 -0.999575 0.0291333 0.0010046 
33.6679 20.7443 8.51243 0.603278 0.79753 -0.00136798 
34.3132 20.2408 8.50747 0.627537 0.778585 -0.00137317 
25.1349 21.5369 8.52304 -0.960094 0.279674 -0.00121071 
31.928 21.9504 8.48747 0.538096 0.842882 -0.00134861 
32.5353 21.5514 8.49613 0.560008 0.828486 -0.00135595 
33.1816 21.1051 8.50342 0.584843 0.811146 -0.00136327 
25.6133 22.4922 8.51923 -0.802126 0.597153 0.00136648 
26.0331 22.9729 8.51401 -0.6543 0.756234 -0.00137747 
30.5716 22.754 8.47921 0.484515 0.874782 0.00132744 
31.4382 22.2532 8.49992 0.516071 0.856545 0.00134045 
26.5228 23.3011 8.54896 -0.497143 0.867668 -0.00133282 
27.5215 23.6546 8.47034 -0.157685 0.987489 0.00111833 
28.5583 23.6432 8.45202 0.18906 0.981965 0.00114582 
29.4544 23.332 8.49051 0.40913 0.912475 -0.00129063 
30.0633 23.0314 8.43242 0.462431 0.886654 0.00131747 
26.5111 -23.2926 9.50764 -0.476715 -0.856294 0.198756 
27.5044 -23.6535 9.49036 -0.170938 -0.964299 0.202255 
28.563 -23.6389 9.43994 0.191073 -0.965764 0.175475 
29.4297 -23.3451 9.47933 0.402322 -0.900571 0.164651 
30.0615 -23.0319 9.53896 0.445613 -0.849594 0.28217 
25.6294 -22.5132 9.52764 -0.782664 -0.593482 0.187656 
26.0351 -22.9749 9.37088 -0.656815 -0.740983 0.13978 
30.5783 -22.7502 9.48615 0.473891 -0.860135 0.188665 
31.4328 -22.2564 9.4911 0.505031 -0.844698 0.177282 
25.1391 -21.553 9.48504 -0.942655 -0.275799 0.187982 
31.9131 -21.9603 9.4565 0.535316 -0.834506 0.130529 
32.4972 -21.5765 9.50938 0.545923 -0.812004 0.206442 
33.17 -21.1135 9.47031 0.582438 -0.79615 0.164046 
25.0019 -20.4781 9.48478 -0.983699 -0.0196048 0.17875 
33.6645 -20.7467 9.55466 0.567909 -0.788848 0.234943 
34.2814 -20.2659 9.49737 0.62374 -0.760994 0.178429 
25 -19.4523 9.49252 -0.982196 -0.00806022 0.187688 
34.8073 -19.8331 9.49041 0.638402 -0.746084 0.189213 
35.3945 -19.319 9.49392 0.658287 -0.734301 0.165712 
25 -18.5103 9.50406 -0.981019 0.00114739 0.193909 
35.8777 -18.8749 9.47077 0.675463 -0.715287 0.179205 
36.3904 -18.3733 9.50553 0.687197 -0.69343 0.216599 
25 -17.5259 9.47996 -0.983996 -0.00113494 0.178186 
36.8689 -17.8814 9.5147 0.711182 -0.673996 0.199875 
37.3322 -17.3787 9.48985 0.732198 -0.658825 0.172731 
25 -16.5251 9.51061 -0.978855 0.00115567 0.204554 
37.8153 -16.8289 9.48915 0.750483 -0.630283 0.198793 
38.221 -16.3368 9.49102 0.775451 -0.604821 0.181294 
25 -15.4862 9.52122 -0.975828 -0.00116866 0.218539 
38.7595 -15.6469 9.47539 0.778701 -0.602621 0.174563 
39.1197 -15.1606 9.48619 0.800612 -0.57445 0.170375 
24.9368 -14.473 9.45635 -0.968879 -0.17885 0.17113 
39.5749 -14.4996 9.46011 0.818393 -0.548098 0.172688 
24.554 -13.4692 9.50108 -0.837246 -0.507192 0.204391 
39.9505 -13.9279 9.56564 0.812819 -0.527945 0.246168 
40.2608 -13.4252 9.50697 0.837246 -0.507192 0.204391 
-3.25237 -12.0644 9.51536 -0.262265 -0.939435 0.220635 
-2.49828 -12.2379 9.49524 -0.202643 -0.960236 0.192047 
-1.49865 -12.3993 9.50772 -0.106107 -0.96519 0.23906 
-0.470653 -12.4806 9.50207 -0.0373486 -0.974677 0.220477 
0.497288 -12.4802 9.48511 0.041487 -0.98028 0.193211 
1.46712 -12.4035 9.55264 0.100188 -0.956342 0.274542 
2.46278 -12.245 9.46256 0.199336 -0.965411 0.168068 
3.24649 -12.0632 9.51861 0.179159 -0.963799 0.197468 
22.5202 -12.0615 9.49257 -0.18397 -0.959556 0.213088 
23.5154 -12.4352 9.50789 -0.492337 -0.843789 0.213598 
24.125 -12.8878 9.53843 -0.697425 -0.678618 0.230385 
40.7644 -12.5522 9.50964 0.857034 -0.469793 0.211632 
41.0275 -12.0705 9.48367 0.871947 -0.462994 0.1592 
-5.45465 -11.236 9.48266 -0.42567 -0.884984 0.188699 
-4.4601 -11.6667 9.52658 -0.357504 -0.911706 0.202442 
-3.73862 -11.9177 9.4991 -0.277087 -0.941544 0.191617 
3.7722 -12 9.47555 0.0536322 -0.980873 0.187117 
4.53445 -12 9.48423 0.00115981 -0.977717 0.209925 
5.5062 -12 9.52463 -0.0082178 -0.97557 0.219533 
6.52771 -12 9.50272 0.00340618 -0.984387 0.175986 
7.48676 -12 9.47871 0.00115567 -0.978855 0.204554 
8.4879 -12 9.51233 -0.00349525 -0.977506 0.21088 
9.48326 -12 9.5409 0.00597006 -0.968344 0.249549 
10.5217 -12 9.50221 -0.00116659 -0.976433 0.215818 
11.4772 -12 9.51443 0.00116806 -0.975327 0.220763 
12.4659 -12 9.50016 -0.00585953 -0.976198 0.216803 
13.5144 -12 9.46875 0.00340618 -0.984387 0.175986 
14.5035 -12 9.51797 -0.0103819 -0.981664 0.190334 
15.4973 -12 9.48058 0.00114165 -0.982962 0.183806 
16.5207 -12 9.56499 -0.0036066 -0.965365 0.260877 
17.5227 -12 9.57188 0.00120671 -0.961751 0.273924 
18.5461 -12 9.49715 0.00352454 -0.973948 0.226745 
19.5121 -12 9.49195 -0.00577586 -0.980742 0.195224 
20.5009 -12 9.52031 -0.00576538 -0.981268 0.192564 
21.4744 -12 9.51221 0.00579411 -0.979204 0.202794 
41.3116 -11.5037 9.48436 0.887803 -0.430143 0.163657 
-7.24279 -10.1761 9.48486 -0.558909 -0.805621 0.196456 
-6.45366 -10.6932 9.45476 -0.513455 -0.840875 0.171152 
-5.96164 -10.9827 9.50342 -0.47718 -0.865345 0.153223 
41.7802 -10.4999 9.4793 0.899204 -0.401405 0.174086 
-8.31352 -9.32194 9.48846 -0.653249 -0.730465 0.199218 
-7.72351 -9.82061 9.51516 -0.598911 -0.77224 0.212018 
41.9982 -9.99379 9.29392 0.921509 -0.380711 0.0766803 
42.2066 -9.47433 9.51379 0.902009 -0.35347 0.247869 
-9.32601 -8.30904 9.4928 -0.729579 -0.652129 0.206017 
-8.82267 -8.84129 9.47523 -0.700233 -0.691039 0.179272 
42.5622 -8.51325 9.46956 0.92866 -0.320759 0.186292 
-10.1813 -7.23716 9.50542 -0.794106 -0.573776 0.200439 
-9.79954 -7.75018 9.53449 -0.762327 -0.606432 0.226048 
42.8746 -7.55287 9.52624 0.936949 -0.277047 0.213006 
43.0174 -7.0722 9.43705 0.950212 -0.26552 0.163086 
-10.6507 -6.52321 9.53946 -0.835112 -0.506543 0.214482 
43.1792 -6.46499 9.48814 0.952151 -0.239051 0.19043 
-11.2153 -5.49704 9.52167 -0.870022 -0.431254 0.238918 
-10.985 -5.95142 9.44168 -0.869982 -0.467779 0.155926 
43.4052 -5.50922 9.49928 0.955847 -0.207793 0.207793 
-11.6563 -4.48406 9.51611 -0.914246 -0.345892 0.21098 
43.6089 -4.468 9.48516 0.968657 -0.166387 0.184445 
-12.0607 -3.2625 9.46763 -0.953207 -0.253384 0.164901 
-11.9143 -3.75159 9.54059 -0.931545 -0.299275 0.206542 
43.7579 -3.50978 9.49547 0.973756 -0.135139 0.183132 
-12.238 -2.49125 9.51445 -0.964294 -0.194952 0.179251 
43.8753 -2.49644 9.48373 0.975599 -0.100667 0.19512 
-12.4003 -1.49478 9.47935 -0.978072 -0.110049 0.17682 
43.9536 -1.47858 9.4689 0.985926 -0.0549686 0.157888 
-12.4799 -0.505915 9.50544 -0.974432 -0.0473261 0.219642 
43.9915 -0.512522 9.47211 0.983982 -0.021969 0.176909 
-12.4791 0.509805 9.52032 -0.980465 0.0390294 0.192781 
43.991 0.505209 9.45253 0.989449 0.0214362 0.143284 
-12.4032 1.46344 9.48697 -0.973573 0.119341 0.194715 
43.9516 1.51675 9.49843 0.976572 0.0519068 0.208834 
-12.2382 2.49422 9.51182 -0.956468 0.193969 0.218048 
43.8728 2.52751 9.54465 0.969451 0.0813088 0.231417 
-12.064 3.2512 9.52403 -0.940464 0.243104 0.237547 
-11.9047 3.78104 9.49389 -0.932739 0.282776 0.223688 
43.7596 3.49661 9.51374 0.970858 0.136149 0.197225 
-11.6367 4.53443 9.54535 -0.907896 0.357656 0.218648 
43.6035 4.49828 9.54375 0.958279 0.17677 0.224617 
-11.2452 5.43601 9.51365 -0.876578 0.427127 0.221749 
-10.9869 5.94761 9.5323 -0.852105 0.473728 0.222486 
43.405 5.50882 9.47447 0.961693 0.206547 0.180235 
-10.6481 6.52779 9.49293 -0.843341 0.504806 0.184247 
43.1756 6.47714 9.49608 0.945072 0.24827 0.212607 
-10.1822 7.23587 9.57132 -0.787087 0.568884 0.238464 
-9.82308 7.71951 9.50375 -0.759051 0.613139 0.218867 
42.8769 7.54489 9.50765 0.931453 0.288877 0.221238 
43.0214 7.06004 9.54941 0.93984 0.242942 0.240166 
-9.31667 8.31988 9.44032 -0.737165 0.655089 0.165672 
-8.84122 8.82289 9.48622 -0.699946 0.693847 0.169268 
42.5736 8.48029 9.49279 0.92318 0.324744 0.205624 
-8.34268 9.2966 9.48301 -0.655374 0.732116 0.185715 
-7.74544 9.80346 9.53675 -0.596736 0.768122 0.232151 
41.9978 9.99704 9.37394 0.912667 0.381098 0.147658 
42.2054 9.48009 9.45342 0.920253 0.349159 0.1767 
-7.23529 10.1815 9.47985 -0.569131 0.806394 0.160678 
-6.50152 10.6637 9.50145 -0.513525 0.835795 0.194266 
-5.96968 10.9786 9.46662 -0.467437 0.868935 0.16265 
41.7797 10.502 9.52016 0.896137 0.397797 0.196713 
-5.47495 11.2265 9.51464 -0.432812 0.876035 0.212688 
-4.49439 11.6533 9.525 -0.342666 0.916166 0.207894 
-3.75017 11.9141 9.48312 -0.293752 0.93918 0.177906 
41.3096 11.507 9.50422 0.875886 0.428244 0.222329 
-3.26315 12.0613 9.48891 -0.26333 0.949339 0.171502 
-2.50523 12.2363 9.49048 -0.197062 0.964431 0.176182 
-1.49662 12.4007 9.49824 -0.124469 0.974379 0.187332 
-0.537546 12.4788 9.47521 -0.0367864 0.978994 0.200545 
0.475689 12.4812 9.49092 0.0297536 0.977107 0.210655 
1.5078 12.3987 9.54092 0.116769 0.966234 0.229689 
2.51942 12.2332 9.51128 0.195875 0.958055 0.2092 
3.50579 12.0319 9.47961 0.123375 0.970462 0.20732 
4.49016 12 9.4748 -0.00114373 0.982468 0.186429 
5.5112 12 9.51991 0.00351835 0.974582 0.224001 
6.5014 12 9.4535 0.00338742 0.98574 0.168242 
7.49416 12 9.47221 -0.0057339 0.982791 0.184632 
8.50815 12 9.49374 0.0034624 0.979858 0.199665 
9.53081 12 9.52263 -0.00350149 0.976917 0.213591 
10.4884 12 9.48233 0.00113332 0.984851 0.173397 
11.5375 12 9.50656 0.00114324 0.982047 0.188635 
12.4585 12 9.51601 0.00116244 0.977614 0.210402 
13.4782 12 9.4941 -0.00349974 0.976427 0.215817 
14.5038 12 9.48297 0.00813007 0.979093 0.203252 
15.4992 12 9.50141 -0.00352019 0.975092 0.221772 
16.5274 12 9.49794 -0.00348901 0.978085 0.208177 
17.4849 12 9.51455 0.00114582 0.981965 0.18906 
18.5096 12 9.5205 0.001166 0.975939 0.218041 
19.5092 12 9.51824 0.0011536 0.979409 0.201881 
20.5291 12 9.50114 0.00588764 0.973816 0.227263 
21.511 12 9.44661 -0.00112664 0.985809 0.167869 
22.5073 12.0596 9.51754 -0.18758 0.951394 0.244259 
23.5141 12.4368 9.49632 -0.492948 0.841803 0.219931 
24.1301 12.8931 9.57774 -0.674325 0.674325 0.300952 
40.7738 12.5355 9.54115 0.844241 0.477844 0.242738 
41.0249 12.071 9.55265 0.865386 0.436469 0.246174 
24.563 13.4824 9.48774 -0.842469 0.49885 0.203458 
39.9527 13.928 9.53438 0.821496 0.516325 0.241979 
40.2565 13.4326 9.4765 0.841245 0.509528 0.1808 
24.9345 14.4642 9.51904 -0.964294 0.179251 0.194952 
39.5747 14.5004 9.48053 0.814215 0.546361 0.196325 
25 15.5238 9.53293 -0.976906 0.00583576 0.213589 
38.7365 15.6775 9.48857 0.784723 0.592732 0.181324 
39.1202 15.1581 9.48563 0.795262 0.575459 0.190802 
25 16.4961 9.51814 -0.983039 -0.00113909 0.183394 
37.8437 16.7961 9.472 0.754059 0.628126 0.19197 
38.2785 16.2668 9.48943 0.758579 0.623721 0.188495 
25 17.4754 9.49201 -0.980616 0.0104198 0.19566 
36.8697 17.8808 9.50876 0.702677 0.677749 0.216568 
37.345 17.3651 9.50539 0.729158 0.647967 0.220153 
25 18.5064 9.50794 -0.973677 -0.0082615 0.227781 
35.8773 18.8761 9.4601 0.670078 0.721974 0.17248 
36.3761 18.3871 9.49902 0.702977 0.690778 0.169263 
25 19.5222 9.47123 -0.987711 0.00561838 0.156191 
34.78 19.8558 9.46082 0.627047 0.758254 0.178502 
35.3598 19.3497 9.53313 0.651398 0.729131 0.209878 
25.0029 20.5386 9.49408 -0.982642 0.0197224 0.184463 
33.7109 20.7121 9.46146 0.597315 0.786892 0.154971 
34.2877 20.2611 9.51077 0.616632 0.754008 0.226358 
25.1245 21.4978 9.49069 -0.945144 0.269455 0.184652 
31.9316 21.9481 9.47158 0.516485 0.831525 0.204473 
32.4763 21.5914 9.4993 0.547386 0.812694 0.199743 
33.1661 21.1161 9.50814 0.573002 0.797947 0.186948 
25.6376 22.5245 9.51059 -0.779829 0.595979 0.19151 
26.0307 22.9707 9.52641 -0.646738 0.736263 0.199115 
30.5439 22.7694 9.52724 0.464696 0.851688 0.242251 
31.3916 22.281 9.45148 0.508313 0.841191 0.184432 
26.5161 23.2961 9.46173 -0.494282 0.854296 0.160826 
27.503 23.6524 9.51929 -0.160429 0.963879 0.212601 
28.5461 23.6429 9.44045 0.190068 0.970749 0.146697 
29.4434 23.3382 9.46931 0.398615 0.897246 0.189886 
30.0548 23.0358 9.51821 0.458857 0.852163 0.251533 
26.6559 -23.1899 10 -0.230085 -0.44062 0.867706 
27.508 -23.3264 10 -0.063688 -0.321039 0.944922 
28.4794 -23.3271 10 0.0605026 -0.310237 0.948732 
29.3533 -23.1798 10 0.203847 -0.453819 0.867464 
30.1131 -23.0022 10 0.342914 -0.583442 0.73621 
25.7488 -22.3401 10 -0.402476 -0.284011 0.870259 
26.535 -22.5153 10 -0.0706099 -0.0818178 0.994143 
27.4812 -22.5208 10 0.000977516 0.000977516 0.999999 
28.4943 -22.5106 10 0.000977516 0.000977516 0.999999 
29.4861 -22.4993 10 0.0330053 -0.0606871 0.997611 
30.4474 -22.4172 10 0.138764 -0.260348 0.955491 
31.3184 -22.1836 10 0.25984 -0.430028 0.864615 
25.5459 -21.4817 10 -0.224618 -0.0732182 0.971692 
26.4969 -21.5337 10 0.000977516 0.000977516 0.999999 
27.4757 -21.5095 10 0.000977516 0.000977516 0.999999 
28.4901 -21.5119 10 0.000977516 0.000977516 0.999999 
29.5043 -21.5118 10 0.000977516 0.000977516 0.999999 
30.4842 -21.5078 10 0.000977516 -0.000977516 0.999999 
31.4445 -21.4474 10 0.0587893 -0.0809739 0.994981 
32.3905 -21.2995 10 0.182069 -0.277895 0.9432 
33.1006 -21.0862 10 0.42223 -0.517519 0.744242 
25.5132 -20.5119 10 -0.201478 0.0104815 0.979437 
26.5006 -20.5111 10 0.000977516 0.000977516 0.999999 
27.5358 -20.5019 10 0.000977516 0.000977516 0.999999 
28.4907 -20.4963 10 0.000977516 0.000977516 0.999999 
29.4638 -20.5133 10 0.000977516 0.000977516 0.999999 
30.5232 -20.5029 10 0.000977516 0.000977516 0.999999 
31.5288 -20.4895 10 0.000977516 0.000977516 0.999999 
32.4986 -20.4704 10 0.0130886 -0.0171159 0.999768 
33.4388 -20.4257 10 0.168069 -0.226298 0.959449 
34.1616 -20.2157 10 0.39428 -0.429398 0.812503 
25.5273 -19.4674 10 -0.185456 -0.0126709 0.982571 
26.4975 -19.5504 10 0.000977516 0.000977516 0.999999 
27.5376 -19.5044 10 0.000977516 0.000977516 0.999999 
28.506 -19.4931 10 0.000977516 0.000977516 0.999999 
29.5003 -19.4724 10 0.000977516 0.000977516 0.999999 
30.5209 -19.507 10 0.000977516 0.000977516 0.999999 
31.491 -19.4571 10 0.000977516 0.000977516 0.999999 
32.5137 -19.5348 10 0.000977516 0.000977516 0.999999 
33.4289 -19.4938 10 0.000977516 0.000977516 0.999999 
34.4479 -19.4383 10 0.0924583 -0.115865 0.988952 
35.2804 -19.2439 10 0.343857 -0.396758 0.851085 
25.5019 -18.5236 10 -0.21088 -0.00349525 0.977506 
26.5257 -18.537 10 0.000977516 0.000977516 0.999999 
27.509 -18.4524 10 0.000977516 0.000977516 0.999999 
28.4948 -18.4494 10 0.000977516 0.000977516 0.999999 
29.5059 -18.4801 10 0.000977516 0.000977516 0.999999 
30.5073 -18.4771 10 0.000977516 0.000977516 0.999999 
31.4894 -18.4793 10 0.000977516 0.000977516 0.999999 
32.5014 -18.4503 10 0.000977516 0.000977516 0.999999 
33.5457 -18.477 10 0.000977516 0.000977516 0.999999 
34.4996 -18.4787 10 0.000977516 0.000977516 0.999999 
35.4896 -18.4927 10 0.0959536 -0.0959536 0.99075 
36.3045 -18.2305 10 0.345977 -0.342929 0.873326 
25.5003 -17.5168 10 -0.188635 0.00114324 0.982047 
26.523 -17.5415 10 0.000977516 0.000977516 0.999999 
27.5002 -17.5208 10 0.000977516 0.000977516 0.999999 
28.495 -17.5117 10 0.000977516 0.000977516 0.999999 
29.5179 -17.5002 10 0.000977516 0.000977516 0.999999 
30.4751 -17.4921 10 0.000977516 0.000977516 0.999999 
31.4926 -17.4934 10 0.000977516 0.000977516 0.999999 
32.5284 -17.5564 10 0.000977516 0.000977516 0.999999 
33.5246 -17.4961 10 0.000977516 0.000977516 0.999999 
34.4801 -17.5259 10 0.000977516 0.000977516 0.999999 
35.5175 -17.4919 10 0.000977516 0.000977516 0.999999 
36.5036 -17.4801 10 0.123052 -0.115884 0.985611 
37.2943 -17.2292 10 0.434253 -0.402205 0.806012 
25.4865 -16.5336 10 -0.200115 0.00578368 0.979755 
26.5344 -16.5049 10 0.000977516 0.000977516 0.999999 
27.4816 -16.4862 10 0.000977516 0.000977516 0.999999 
28.4549 -16.4876 10 0.000977516 0.000977516 0.999999 
29.4917 -16.4747 10 0.000977516 0.000977516 0.999999 
30.4553 -16.5338 10 0.000977516 0.000977516 0.999999 
31.4714 -16.5527 10 0.000977516 0.000977516 0.999999 
32.5095 -16.4658 10 0.000977516 0.000977516 0.999999 
33.5023 -16.4872 10 0.000977516 0.000977516 0.999999 
34.5277 -16.5306 10 0.000977516 0.000977516 0.999999 
35.5051 -16.5131 10 0.000977516 0.000977516 0.999999 
36.5443 -16.466 10 0.000977516 0.000977516 0.999999 
37.512 -16.4607 10 0.172669 -0.144941 0.974257 
38.1443 -16.1894 10 0.409167 -0.313438 0.856936 
25.4555 -15.4991 10 -0.246171 -0.00118923 0.969226 
26.4776 -15.5634 10 0.000977516 0.000977516 0.999999 
27.5382 -15.5184 10 0.000977516 0.000977516 0.999999 
28.5023 -15.4812 10 0.000977516 0.000977516 0.999999 
29.4917 -15.4999 10 0.000977516 0.000977516 0.999999 
30.4867 -15.5144 10 0.000977516 0.000977516 0.999999 
31.4696 -15.5267 10 0.000977516 0.000977516 0.999999 
32.5199 -15.4829 10 0.000977516 0.000977516 0.999999 
33.4747 -15.4841 10 0.000977516 0.000977516 0.999999 
34.4767 -15.5343 10 0.000977516 0.000977516 0.999999 
35.5051 -15.5135 10 0.000977516 0.000977516 0.999999 
36.5168 -15.4683 10 0.000977516 0.000977516 0.999999 
37.5043 -15.5146 10 0.00294405 -0.00098135 0.999995 
38.406 -15.4525 10 0.183908 -0.140785 0.972809 
39.1063 -15.0871 10 0.505221 -0.363178 0.78285 
24.9429 -14.1998 10 -0.617433 -0.175321 0.766837 
25.4935 -14.4878 10 -0.173883 -0.0195763 0.984572 
26.4908 -14.4951 10 0.000977516 0.000977516 0.999999 
27.4609 -14.5252 10 0.000977516 0.000977516 0.999999 
28.5425 -14.4653 10 0.000977516 0.000977516 0.999999 
29.5065 -14.4913 10 0.000977516 0.000977516 0.999999 
30.4756 -14.4764 10 0.000977516 0.000977516 0.999999 
31.4833 -14.4675 10 0.000977516 0.000977516 0.999999 
32.5097 -14.5053 10 0.000977516 0.000977516 0.999999 
33.4749 -14.5108 10 0.000977516 0.000977516 0.999999 
34.5129 -14.5323 10 0.000977516 0.000977516 0.999999 
35.4844 -14.4841 10 0.000977516 0.000977516 0.999999 
36.5153 -14.4645 10 0.000977516 0.000977516 0.999999 
37.493 -14.4927 10 0.000977516 0.000977516 0.999999 
38.4873 -14.4595 10 0.0129854 -0.00898989 0.999875 
39.3215 -14.4028 10 0.274082 -0.178631 0.944971 
24.7528 -13.4098 10 -0.400261 -0.236585 0.885335 
25.5083 -13.5096 10 -0.0467677 -0.0176678 0.99875 
26.498 -13.4904 10 0.000977516 0.000977516 0.999999 
27.4797 -13.4766 10 0.000977516 0.000977516 0.999999 
28.5208 -13.5576 10 0.000977516 0.000977516 0.999999 
29.4868 -13.5001 10 0.000977516 0.000977516 0.999999 
30.5079 -13.4919 10 0.000977516 0.000977516 0.999999 
31.4969 -13.5004 10 0.000977516 0.000977516 0.999999 
32.5577 -13.5715 10 0.000977516 0.000977516 0.999999 
33.4979 -13.5349 10 0.000977516 0.000977516 0.999999 
34.4984 -13.4975 10 0.000977516 0.000977516 0.999999 
35.5187 -13.5156 10 0.000977516 0.000977516 0.999999 
36.5331 -13.5004 10 0.000977516 0.000977516 0.999999 
37.5248 -13.4986 10 0.000977516 0.000977516 0.999999 
38.4979 -13.5018 10 0.000977516 0.000977516 0.999999 
39.5008 -13.4766 10 0.0930024 -0.0593871 0.993893 
40.1726 -13.2944 10 0.445714 -0.271104 0.853136 
-3.18689 -12.0577 10 -0.182921 -0.671736 0.717851 
-2.41622 -12.1294 10 -0.130864 -0.554333 0.821942 
-1.42296 -12.1914 10 -0.0358671 -0.413136 0.909963 
-0.504746 -12.2228 10 -0.0117984 -0.42343 0.905852 
0.461221 -12.2252 10 0.0221787 -0.397912 0.917155 
1.48126 -12.1746 10 0.0166699 -0.36802 0.929668 
2.42741 -12.1091 10 0.091984 -0.493883 0.864649 
3.15124 -12.0579 10 0.146494 -0.717366 0.681121 
22.694 -12.0475 10 -0.14878 -0.626681 0.764941 
23.585 -12.2452 10 -0.209142 -0.390497 0.896533 
24.5272 -12.4714 10 -0.0849163 -0.0826518 0.992954 
25.4734 -12.5025 10 0.000977516 0.000977516 0.999999 
26.4914 -12.4986 10 0.000977516 0.000977516 0.999999 
27.4846 -12.4847 10 0.000977516 0.000977516 0.999999 
28.5019 -12.5025 10 0.000977516 0.000977516 0.999999 
29.5395 -12.4762 10 0.000977516 0.000977516 0.999999 
30.4992 -12.5055 10 0.000977516 0.000977516 0.999999 
31.4866 -12.5026 10 0.000977516 0.000977516 0.999999 
32.4608 -12.488 10 0.000977516 0.000977516 0.999999 
33.4744 -12.4832 10 0.000977516 0.000977516 0.999999 
34.4686 -12.5054 10 0.000977516 0.000977516 0.999999 
35.5265 -12.5512 10 0.000977516 0.000977516 0.999999 
36.4692 -12.4882 10 0.000977516 0.000977516 0.999999 
37.5275 -12.5026 10 0.000977516 0.000977516 0.999999 
38.527 -12.5143 10 0.000977516 0.000977516 0.999999 
39.487 -12.5125 10 0.00293828 0.000979427 0.999995 
40.4033 -12.4358 10 0.258439 -0.14181 0.955562 
41.0291 -12.039 10 0.680349 -0.383829 0.62434 
-5.36053 -11.1083 10 -0.207767 -0.455891 0.865446 
-4.46556 -11.3304 10 -0.103849 -0.293142 0.950412 
-3.42894 -11.4675 10 -0.0550956 -0.158253 0.98586 
-2.48441 -11.4525 10 -0.0113612 -0.0485435 0.998756 
-1.50221 -11.5167 10 -0.00303186 -0.0313293 0.999505 
-0.524166 -11.4834 10 0.00098326 -0.00688282 0.999976 
0.508551 -11.4743 10 0.00098326 -0.00688282 0.999976 
1.44724 -11.5069 10 0.00299633 -0.0209743 0.999776 
2.52338 -11.5004 10 0.013696 -0.0663729 0.997701 
3.47937 -11.5144 10 0.039266 -0.19871 0.979271 
4.50078 -11.5102 10 -0.00115774 -0.207235 0.97829 
5.47216 -11.4853 10 -0.00572101 -0.184216 0.982869 
6.48415 -11.5017 10 0.00588037 -0.222278 0.974966 
7.46899 -11.4654 10 0.00112498 -0.163122 0.986605 
8.5121 -11.4827 10 -0.00568963 -0.176379 0.984306 
9.46023 -11.5157 10 0.00343743 -0.189059 0.98196 
10.4695 -11.4579 10 0.00795383 -0.171576 0.985139 
11.4612 -11.4603 10 -0.00336866 -0.160573 0.987018 
12.4839 -11.531 10 -0.00582536 -0.210878 0.977495 
13.4976 -11.4731 10.0009 -0.00589078 -0.225028 0.974335 
14.5152 -11.5408 10.0032 -0.0161434 -0.30424 0.952459 
15.5 -11.5048 10.0067 0.00361646 -0.268823 0.963183 
16.5189 -11.5109 10.0053 0.00600073 -0.258031 0.966118 
17.4895 -11.506 10.0026 0.010932 -0.268442 0.963234 
18.4971 -11.493 10.0002 0.00576281 -0.194783 0.980829 
19.4997 -11.4837 10 -0.00342494 -0.183805 0.982957 
20.477 -11.4911 10 0.00346398 -0.197447 0.980307 
21.5127 -11.4817 10 -0.00807497 -0.190339 0.981685 
22.4818 -11.496 10 -0.0239717 -0.156387 0.987405 
23.5067 -11.4876 10 -0.0154337 -0.0401276 0.999075 
24.4656 -11.4823 10 0.000977516 0.000977516 0.999999 
25.479 -11.4741 10 0.000977516 0.000977516 0.999999 
26.5344 -11.5264 10 0.000977516 0.000977516 0.999999 
27.5142 -11.5206 10 0.000977516 0.000977516 0.999999 
28.5633 -11.5218 10 0.000977516 0.000977516 0.999999 
29.4857 -11.4821 10 0.000977516 0.000977516 0.999999 
30.573 -11.5126 10 0.000977516 0.000977516 0.999999 
31.46 -11.5073 10 0.000977516 0.000977516 0.999999 
32.4708 -11.4863 10 0.000977516 0.000977516 0.999999 
33.4542 -11.4988 10 0.000977516 0.000977516 0.999999 
34.4798 -11.4522 10 0.000977516 0.000977516 0.999999 
35.4707 -11.5095 10 0.000977516 0.000977516 0.999999 
36.4681 -11.5131 10 0.000977516 0.000977516 0.999999 
37.4582 -11.493 10 0.000977516 0.000977516 0.999999 
38.4949 -11.482 10 0.000977516 0.000977516 0.999999 
39.4574 -11.5002 10 0.000977516 0.000977516 0.999999 
40.4866 -11.4295 10 0.03815 -0.0175284 0.999118 
41.155 -11.463 10 0.469656 -0.198299 0.860291 
-7.17928 -10.1409 10 -0.347762 -0.504816 0.790077 
-6.43265 -10.3473 10 -0.163566 -0.274412 0.947599 
-5.51974 -10.5232 10 -0.0650497 -0.110699 0.991723 
-4.49358 -10.5013 10 -0.000983272 -0.00491636 0.999987 
-3.49924 -10.5164 10 0.000977516 0.000977516 0.999999 
-2.48363 -10.5041 10 0.000977516 0.000977516 0.999999 
-1.48029 -10.5504 10 0.000977516 0.000977516 0.999999 
-0.452048 -10.5311 10 0.000977516 0.000977516 0.999999 
0.509692 -10.5012 10 0.000977516 0.000977516 0.999999 
1.47078 -10.5247 10 0.000977516 0.000977516 0.999999 
2.51875 -10.4981 10 0.000977516 0.000977516 0.999999 
3.48595 -10.4957 10 0.000977516 0.000977516 0.999999 
4.48109 -10.5054 10 0.000977516 0.000977516 0.999999 
5.4812 -10.4775 10 0.000977516 0.000977516 0.999999 
6.54055 -10.5056 10 0.000977516 0.000977516 0.999999 
7.47195 -10.4925 10 0.000977516 0.000977516 0.999999 
8.56315 -10.5433 10 0.000977516 0.000977516 0.999999 
9.55298 -10.5024 10 0.000977516 -0.000977516 0.999999 
10.5489 -10.4759 10.0013 -0.0131919 -0.0273985 0.999538 
11.5277 -10.494 10.0209 -0.0461739 -0.115998 0.992176 
12.5132 -10.4719 10.0858 -0.0862982 -0.276927 0.957008 
13.4914 -10.4457 10.2017 -0.0967626 -0.450156 0.887691 
14.5042 -10.4595 10.3007 -0.0665931 -0.559666 0.826038 
15.4954 -10.4304 10.3827 -0.0181112 -0.633892 0.773209 
16.4766 -10.4455 10.3475 0.0436565 -0.604149 0.795674 
17.4713 -10.4422 10.2654 0.0869271 -0.522988 0.847896 
18.4937 -10.4537 10.1439 0.0961771 -0.367098 0.925197 
19.4871 -10.4847 10.0454 0.0663075 -0.186867 0.980145 
20.5026 -10.523 10.0046 0.0219141 -0.0469588 0.998656 
21.4593 -10.5113 10 0.00295562 -0.00492603 0.999984 
22.4875 -10.46 10 0.000977516 0.000977516 0.999999 
23.4659 -10.5441 10 0.000977516 0.000977516 0.999999 
24.5077 -10.5261 10 0.000977516 0.000977516 0.999999 
25.5135 -10.4642 10 0.000977516 0.000977516 0.999999 
26.5077 -10.5007 10 0.000977516 0.000977516 0.999999 
27.5118 -10.5013 10 0.000977516 0.000977516 0.999999 
28.5013 -10.5478 10 0.000977516 0.000977516 0.999999 
29.4744 -10.5244 10 0.000977516 0.000977516 0.999999 
30.4748 -10.463 10 0.000977516 0.000977516 0.999999 
31.528 -10.4698 10 0.000977516 0.000977516 0.999999 
32.5041 -10.4641 10 0.000977516 0.000977516 0.999999 
33.4589 -10.4764 10 0.000977516 0.000977516 0.999999 
34.5454 -10.5108 10 0.000977516 0.000977516 0.999999 
35.5044 -10.5342 10 0.000977516 0.000977516 0.999999 
36.5013 -10.5115 10 0.000977516 0.000977516 0.999999 
37.5206 -10.4939 10 0.000977516 0.000977516 0.999999 
38.4881 -10.5036 10 0.000977516 0.000977516 0.999999 
39.5066 -10.4862 10 0.000977516 0.000977516 0.999999 
40.5276 -10.4932 10 0.00293828 0.000979427 0.999995 
41.4215 -10.4696 10 0.291354 -0.138293 0.946566 
-8.18563 -9.21882 10 -0.344095 -0.378042 0.859467 
-7.48922 -9.47934 10 -0.15113 -0.202798 0.967488 
-6.51396 -9.4845 10 -0.0029498 -0.00491634 0.999984 
-5.49083 -9.52019 10 0.000977516 0.000977516 0.999999 
-4.50033 -9.48175 10 0.000977516 0.000977516 0.999999 
-3.47248 -9.48236 10 0.000977516 0.000977516 0.999999 
-2.46802 -9.4907 10 0.000977516 0.000977516 0.999999 
-1.5327 -9.56174 10 0.000977516 0.000977516 0.999999 
-0.502529 -9.50258 10 0.000977516 0.000977516 0.999999 
0.524815 -9.47669 10 0.000977516 0.000977516 0.999999 
1.53656 -9.53029 10 0.000977516 0.000977516 0.999999 
2.52097 -9.45053 10 0.000977516 0.000977516 0.999999 
3.50387 -9.50644 10 0.000977516 0.000977516 0.999999 
4.51715 -9.52715 10 0.000977516 0.000977516 0.999999 
5.49234 -9.52088 10 0.000977516 0.000977516 0.999999 
6.5404 -9.51002 10 0.000977516 0.000977516 0.999999 
7.5007 -9.47526 10 0.000977516 0.000977516 0.999999 
8.48399 -9.51322 10.0001 -0.0029498 -0.00491634 0.999984 
9.48598 -9.48767 10.0156 -0.0566822 -0.0855791 0.994718 
10.513 -9.47342 10.1368 -0.180243 -0.322761 0.92916 
11.4948 -9.45369 10.4346 -0.279183 -0.617393 0.735447 
12.4288 -9.6344 10.5998 -0.257206 -0.74637 0.613822 
13.4235 -9.81621 10.7215 -0.195484 -0.825884 0.528869 
14.4251 -9.92308 10.8452 -0.117321 -0.889097 0.442428 
15.5333 -9.96906 10.9273 -0.0195172 -0.91991 0.391645 
16.5441 -9.95448 10.8928 0.0721568 -0.908087 0.412519 
17.5176 -9.88369 10.7929 0.153396 -0.863398 0.480639 
18.5445 -9.73471 10.6751 0.227764 -0.79485 0.562438 
19.5463 -9.53318 10.5328 0.275947 -0.693856 0.665145 
20.477 -9.46332 10.2712 0.239244 -0.476964 0.845735 
21.507 -9.52123 10.0456 0.101567 -0.170094 0.98018 
22.4815 -9.50249 10.0024 0.0215681 -0.0297846 0.999324 
23.492 -9.51197 10 0.000977516 0.000977516 0.999999 
24.4957 -9.51692 10 0.000977516 0.000977516 0.999999 
25.5075 -9.51224 10 0.000977516 0.000977516 0.999999 
26.4854 -9.46998 10 0.000977516 0.000977516 0.999999 
27.5028 -9.53716 10 0.000977516 0.000977516 0.999999 
28.489 -9.51014 10 0.000977516 0.000977516 0.999999 
29.4753 -9.48713 10 0.000977516 0.000977516 0.999999 
30.5251 -9.51157 10 0.000977516 0.000977516 0.999999 
31.4939 -9.53399 10 0.000977516 0.000977516 0.999999 
32.454 -9.49934 10 0.000977516 0.000977516 0.999999 
33.512 -9.53074 10 0.000977516 0.000977516 0.999999 
34.4984 -9.47919 10 0.000977516 0.000977516 0.999999 
35.4802 -9.55801 10 0.000977516 0.000977516 0.999999 
36.5189 -9.50166 10 0.000977516 0.000977516 0.999999 
37.4887 -9.4813 10 0.000977516 0.000977516 0.999999 
38.4944 -9.51605 10 0.000977516 0.000977516 0.999999 
39.4569 -9.47706 10 0.000977516 0.000977516 0.999999 
40.4895 -9.49863 10 0.000977516 0.000977516 0.999999 
41.4909 -9.50936 10 0.0838025 -0.0359154 0.995835 
42.1324 -9.38455 10 0.426677 -0.163439 0.889513 
-9.15357 -8.2569 10 -0.367587 -0.304053 0.878881 
-8.48796 -8.46093 10 -0.134823 -0.127535 0.982628 
-7.49343 -8.48964 10 0.000977516 0.000977516 0.999999 
-6.50809 -8.52779 10 0.000977516 0.000977516 0.999999 
-5.48901 -8.52364 10 0.000977516 0.000977516 0.999999 
-4.45159 -8.51793 10 0.000977516 0.000977516 0.999999 
-3.51638 -8.5162 10 0.000977516 0.000977516 0.999999 
-2.50937 -8.47911 10 0.000977516 0.000977516 0.999999 
-1.48663 -8.47001 10 0.000977516 0.000977516 0.999999 
-0.494639 -8.51795 10 0.000977516 0.000977516 0.999999 
0.466054 -8.52193 10 0.000977516 0.000977516 0.999999 
1.48319 -8.48116 10 0.000977516 0.000977516 0.999999 
2.46063 -8.48329 10 0.000977516 0.000977516 0.999999 
