# .PCD v0.7 - Point Cloud Data file format
VERSION 0.7
FIELDS x y z normal_x normal_y normal_z curvature
SIZE 4 4 4 4 4 4 4
TYPE F F F F F F F
COUNT 1 1 1 1 1 1 1
WIDTH 707
HEIGHT 1
VIEWPOINT 0 0 0 1 0 0 0
POINTS 707
DATA ascii
11.020559 -25.680815 -12.022515 0.20164678 -0.46590233 0.86155301 0
14.232941 -26.772959 -11.460966 -0.47830138 0.8189798 0.3170172 0
16.242035 -26.345282 -11.184305 -0.51940995 0.85316223 0.048243549 0
17.868322 -25.265846 -11.200633 -0.59936577 0.80032772 0.015370387 0
-20.592537 -23.120588 -11.157364 0.68503636 0.72824568 0.019582413 0
-19.022791 -24.371868 -11.354601 0.60630506 0.79386777 0.046562463 0
-15.821607 -23.196789 -12.103895 -0.32204902 -0.46475625 0.82479453 0
-13.629693 -23.821686 -11.862737 -0.14755169 -0.25962433 0.95437086 0
-11.304223 -23.74213 -11.709113 -0.015766602 -0.034565512 0.99927813 0
-8.7725248 -23.687056 -11.699993 0.00024852113 0.00018224883 0.99999994 0
-6.2787476 -23.715715 -11.699996 0.0002443791 0.0001047339 0.99999994 0
-3.7913957 -23.834278 -11.699995 0.00035467409 0.00026816822 0.99999994 0
-1.1735891 -23.777658 -11.699988 0.00016904421 0.0001690442 1 0
1.3341038 -23.686539 -11.700001 7.1274722e-12 7.9797275e-05 1 0
3.8822072 -23.822289 -11.699994 8.5747066e-05 0.00027439062 1 0
6.1429214 -23.74041 -11.700004 0.00020798224 -4.1596442e-05 1 0
8.828022 -23.67836 -11.699995 0.00024437913 0.00029674606 0.99999994 0
11.238551 -23.63658 -11.708721 0.015967445 -0.027223719 0.99950176 0
13.593534 -23.748505 -11.859229 0.14498658 -0.24800678 0.95784736 0
15.73967 -23.202959 -12.063329 0.30030429 -0.46020335 0.83548206 0
19.07189 -24.369833 -11.181224 -0.5948059 0.80367523 0.017664291 0
20.698204 -23.018703 -11.353779 -0.69531983 0.71743023 0.042709973 0
-23.086216 -20.649778 -11.209036 0.75927091 0.65063918 0.013286201 0
-21.835392 -21.877598 -11.237594 0.69693458 0.71673697 0.023877252 0
-18.434963 -21.011696 -12.055077 -0.36326909 -0.39199141 0.84520906 0
-16.251818 -21.293821 -11.747646 -0.073511504 -0.095896766 0.9926731 0
-13.643112 -21.260582 -11.700003 0.0002393918 -7.9797268e-05 0.99999994 0
-11.234839 -21.318571 -11.699992 7.1525596e-05 -8.7420172e-05 1 0
-8.7776899 -21.327467 -11.700002 0.00016505164 7.9320489e-06 1 0
-6.2848048 -21.295975 -11.698065 0.0059460709 0.0027903509 0.99997848 0
-3.6836705 -21.290909 -11.695357 -0.00030587689 -0.003670064 0.99999321 0
-1.308937 -21.254223 -11.694108 -0.0011438299 -0.0020245675 0.99999732 0
1.1269246 -21.296473 -11.694496 -4.1552754e-05 -0.0067247748 0.99997741 0
3.6482952 -21.188267 -11.695398 0.0016563989 -0.0022834854 0.99999601 0
6.1590538 -21.091091 -11.697418 0.0041278573 -0.0040503331 0.99998319 0
8.6871672 -21.312439 -11.699999 4.6548401e-05 6.5167776e-05 1 0
11.205102 -21.216991 -11.700003 0.00011969591 0.00021944249 1 0
13.735911 -21.33156 -11.700006 0.00012390084 -6.3422754e-05 1 0
16.284882 -21.189095 -11.750862 0.059492331 -0.084815636 0.99461895 0
18.400311 -21.00602 -12.045562 0.3193762 -0.387523 0.86476862 0
21.862841 -21.829838 -11.165072 -0.69249117 0.71959233 0.051407825 0
23.082373 -20.653168 -11.205404 -0.75360423 0.65681958 0.025858676 0
-25.266638 -17.930342 -11.360961 0.80121386 0.59837097 0.0029255694 0
-24.25997 -19.197701 -11.23373 0.78223503 0.62154394 0.04232645 0
-20.886189 -18.519987 -12.01704 -0.34855458 -0.32873237 0.8777498 0
-18.715132 -18.717875 -11.718252 -0.035806932 -0.037930392 0.99863869 0
-16.078089 -18.644037 -11.699991 7.7580677e-05 -4.6548404e-05 1 0
-13.730207 -18.76581 -11.699995 0.00034975359 0.00029594536 0.99999994 0
-11.209592 -18.690483 -11.696159 -0.0015450512 -0.0021877699 0.99999642 0
-8.8645353 -18.687508 -11.69173 0.0051492066 -0.0050243442 0.99997413 0
-6.3222556 -18.865366 -11.689986 0.00011797612 0.00018539107 1 0
-3.7365105 -18.860031 -11.689995 3.0232472e-05 0.0003124022 0.99999994 0
-1.2341876 -18.731117 -11.68998 0.00012309467 0.00012309467 1 0
1.265471 -18.684927 -11.689988 -8.7278262e-05 -0.0001047339 1 0
3.7098649 -18.741571 -11.689982 0.00015273695 1.5273692e-05 1 0
6.2527051 -18.831669 -11.689984 3.2583885e-05 9.7751654e-05 1 0
8.6846104 -18.707939 -11.691528 0.0063704983 -0.010507124 0.99992448 0
11.200032 -18.827059 -11.697166 0.0033853028 -0.0017116627 0.99999279 0
13.717237 -18.786509 -11.699997 3.5546047e-05 0.00023104934 0.99999994 0
16.320522 -18.728539 -11.699996 0.00013209681 0.00029061298 0.99999994 0
18.862362 -18.745512 -11.729323 0.051037062 -0.062248599 0.99675488 0
20.886932 -18.540747 -12.04551 0.36763617 -0.34157526 0.86496824 0
24.31604 -19.127617 -11.362001 -0.78164083 0.62343264 0.019218054 0
25.301809 -17.883223 -11.194549 -0.80894315 0.5849697 0.05849297 0
-26.279325 -16.326183 -11.190674 0.85091591 0.52441967 0.030431882 0
-23.166578 -15.867502 -12.092095 -0.48588499 -0.29984614 0.82097995 0
-21.373545 -16.133274 -11.75146 -0.09828794 -0.075292729 0.99230564 0
-18.808506 -16.212374 -11.699994 0.000158742 0.00020887103 0.99999994 0
-16.25239 -16.302803 -11.699916 0.00020104948 6.9327452e-06 1 0
-13.747135 -16.339796 -11.694362 -0.0044673784 -0.0023363375 0.9999873 0
-11.297165 -16.247124 -11.689992 -2.8471362e-05 0.0002562422 1 0
-8.7584324 -16.262739 -11.689989 -1.777302e-05 5.3319076e-05 1 0
-6.2951159 -16.210224 -11.689984 -0.0001396452 0.00012321636 1 0
-3.6070566 -16.034763 -11.748525 0.035722606 0.17599519 0.98374265 0
-1.2529064 -16.194197 -11.792148 0.034250811 0.30018887 0.95326471 0
1.3118887 -16.157349 -11.789517 -0.076045051 0.33221781 0.94013214 0
3.775903 -16.016853 -11.736891 -0.05483298 0.21824741 0.97435176 0
6.3097458 -16.284613 -11.68998 -8.5001418e-05 1.4166899e-05 1 0
8.7534409 -16.274656 -11.689995 6.9117326e-05 0.00012836076 1 0
11.270473 -16.3123 -11.68999 1.8443714e-05 7.3774827e-05 1 0
13.726707 -16.224422 -11.693845 0.0041584782 -0.0042454856 0.99998242 0
16.230534 -16.34524 -11.6999 0.00010399112 0.00014558756 1 0
18.621655 -16.243504 -11.699998 -8.3787127e-05 -9.3096787e-06 1 0
21.326124 -16.220917 -11.742028 0.066463716 -0.068497993 0.99543488 0
23.20961 -15.928742 -12.130295 0.49434569 -0.34079316 0.79967642 0
26.331848 -16.239899 -11.321629 -0.84869605 0.52791888 0.031885099 0
-27.90906 -13.37561 -11.330152 0.91673577 0.39949292 0.00088756235 0
-26.864994 -14.324989 -11.518328 0.83633041 0.50438112 0.21482804 0
-23.677366 -13.747933 -11.84837 -0.24781053 -0.13476703 0.95938933 0
-21.338812 -13.800246 -11.7 0.00031280523 0.00041055688 0.99999982 0
-18.643679 -13.735209 -11.699996 0.00027300007 0.0001144839 0.99999994 0
-16.266588 -13.820283 -11.694507 -0.013456034 -0.0048513897 0.99989766 0
-13.720531 -13.856195 -11.689992 7.820133e-05 7.820133e-05 1 0
-11.163354 -13.685684 -11.689993 -0.00019949317 -0.00019949317 1 0
-8.8394403 -13.659257 -11.776098 0.14686173 0.20985909 0.96663892 0
-6.3040838 -14.324951 -11.916405 0.20437124 0.60982352 0.76573336 0
-4.5032744 -14.804792 -12.071083 0.24375223 0.92925525 0.27761421 0
4.4368882 -14.800357 -12.098956 -0.22336654 0.95298964 0.2047392 0
6.2874918 -14.304315 -11.897168 -0.3151553 0.60558331 0.73071605 0
8.7640076 -13.500327 -11.843841 -0.27385262 0.36710685 0.88895297 0
11.195784 -13.707674 -11.689993 -3.0868938e-05 0.00015434473 1 0
13.71651 -13.661705 -11.689989 0.00012441118 0.00019550332 1 0
16.208969 -13.788149 -11.694507 0.0014945106 -0.0054032789 0.99998426 0
18.753553 -13.796984 -11.699997 0.00031388141 9.8648437e-05 0.99999994 0
21.298824 -13.769262 -11.700005 9.4598377e-05 0.00019970769 1 0
23.706467 -13.751722 -11.846214 0.23815538 -0.12866312 0.96266705 0
26.545633 -13.966187 -11.718569 -0.62736404 0.39271274 0.67245162 0
27.886547 -13.426152 -11.161488 -0.90984499 0.40966675 0.065993518 0
-28.845631 -11.225 -11.126315 0.93653613 0.34966511 0.025186978 0
-25.63707 -11.067634 -12.000997 -0.44197738 -0.18919304 0.8768478 0
-23.741816 -11.343808 -11.710678 -0.034566604 -0.017616374 0.99924713 0
-21.236946 -11.299532 -11.699992 0.00027696296 0.00029325491 0.99999994 0
-18.722252 -11.302764 -11.696517 -0.0048071397 -0.003446375 0.99998248 0
-16.192741 -11.225858 -11.689999 5.3709708e-05 1.0741947e-05 1 0
-13.758418 -11.202193 -11.689992 -0.00017250291 0.00028750484 1 0
-11.385997 -11.384969 -11.798515 0.25914356 0.24032491 0.9354617 0
-9.559598 -12.200257 -12.058499 0.51680011 0.78672528 0.33761075 0
9.5743599 -12.180572 -12.044467 -0.44743314 0.75969946 0.47186884 0
11.279986 -11.249507 -11.842648 -0.3553226 0.31989738 0.87830031 0
13.805164 -11.37651 -11.689979 0.00018153877 0.00015360973 1 0
16.139938 -11.180763 -11.689989 0.00028107953 8.8078217e-05 0.99999994 0
18.733217 -11.237814 -11.696559 0.0027775911 -0.001767353 0.99999458 0
21.236719 -11.215796 -11.699991 -7.7580677e-05 0.00026377427 1 0
23.784739 -11.337545 -11.710884 0.035848923 -0.00151938 0.99935603 0
25.675659 -11.104012 -12.044744 0.47535202 -0.1920442 0.85857993 0
28.820721 -11.293245 -11.081524 -0.92017823 0.39004064 0.033768713 0
-30.01589 -7.6067705 -11.52372 0.95952237 0.2718237 0.073679663 0
-29.678968 -8.7321205 -11.203997 0.96239007 0.26955745 0.033825465 0
-26.207323 -8.6194477 -11.913693 -0.3362267 -0.11603297 0.93460578 0
-23.693487 -8.8811092 -11.699991 5.5631019e-05 0.00035762796 0.99999994 0
-21.317669 -8.653574 -11.700002 0.00010820191 0.00085160008 0.9999997 0
-18.832066 -8.6881084 -11.69184 -0.0021851819 -0.00015610339 0.99999762 0
-16.247255 -8.7421274 -11.689995 0.00025193725 -5.0387451e-05 0.99999994 0
-13.607514 -8.7619467 -11.811278 0.36448988 0.23087187 0.90213376 0
-12.183355 -9.5383606 -12.04152 0.8130725 0.57130313 0.1119193 0
12.144021 -9.5804348 -11.966887 -0.77219445 0.61320949 0.16640261 0
13.631054 -8.6321383 -11.805183 -0.26582128 0.16169699 0.95036477 0
16.250217 -8.6441212 -11.689997 -1.0289646e-05 0.00021608261 1 0
18.687761 -8.7032261 -11.691483 0.0022574994 -0.0012584103 0.99999666 0
21.299591 -8.7336826 -11.699993 0.00034836098 0.00051969104 0.99999982 0
23.747627 -8.7782612 -11.7 7.8201323e-05 0.00015640265 1 0
26.277412 -8.6055403 -11.9353 0.3671045 -0.13103645 0.9209038 0
29.649458 -8.8307037 -11.225 -0.9577809 0.28660327 0.022680135 0
30.027943 -7.566452 -11.69586 -0.95839196 0.28545296 0.0012146899 0
-30.316996 -6.2548108 -11.139781 0.98332059 0.18102866 0.017586101 0
-27.718992 -6.0527077 -12.293232 -0.68735135 -0.15859239 0.70879948 0
-26.369764 -6.3121471 -11.791121 -0.19053075 -0.050821923 0.9803648 0
-23.790668 -6.1939149 -11.699997 0.00033181749 -8.0712372e-05 0.99999994 0
-21.297173 -6.3567758 -11.698232 -0.0021497675 -0.00049736677 0.9999975 0
-18.656017 -6.2421393 -11.689995 -0.00022858696 -0.00022249132 0.99999994 0
-16.251736 -6.1379271 -11.689984 4.8074577e-05 3.2049717e-05 1 0
-14.305194 -6.4982467 -11.903545 0.58579165 0.28182828 0.75988221 0
-5.253077 -5.3137698 -11.302482 -0.70016718 -0.71397763 0.0013810003 0
-3.757139 -6.4133916 -11.211225 -0.50509393 -0.86303675 -0.0069026318 0
-1.206123 -7.3458576 -11.154346 -0.15997487 -0.98712021 0.0013401053 0
1.1967177 -7.3431692 -11.218238 0.16465722 -0.98634994 0.0013623897 0
3.7072392 -6.4467058 -11.222485 0.49929243 -0.86642933 0.0027036022 0
5.2543049 -5.3126054 -11.233577 0.70016783 -0.71397817 -0.00032494162 0
14.364877 -6.317966 -11.866774 -0.53607821 0.22636585 0.81325191 0
16.31464 -6.3257766 -11.689981 3.7309786e-05 0.00018654893 1 0
18.736107 -6.3073139 -11.689994 0.00013685232 0.00013685232 1 0
21.183435 -6.305254 -11.697625 0.0014126287 -0.0047292942 0.99998784 0
23.788088 -6.2722688 -11.699995 0.0001144839 0.00022016135 0.99999994 0
26.264133 -6.2225313 -11.768196 0.15538277 -0.026696159 0.98749357 0
27.741726 -6.032867 -12.314217 0.69317931 -0.12759419 0.70938152 0
30.293228 -6.3703475 -11.298138 -0.98110217 0.19123638 0.02944861 0
-30.708731 -3.8760159 -11.229136 0.99079609 0.12776598 0.044709988 0
-27.93919 -3.7132046 -12.139094 -0.61083972 -0.032538325 0.7910853 0
-26.251209 -3.7052336 -11.721593 -0.069310725 -0.012878791 0.99751198 0
-23.742565 -3.693553 -11.700001 -9.6783742e-06 -8.7105429e-05 1 0
-21.231602 -3.6988401 -11.69529 -0.0031794275 0.00033568789 0.99999487 0
-18.724636 -3.7157207 -11.689993 0.00022260276 0.00012581896 0.99999994 0
-16.214964 -3.7339354 -11.72324 0.089690976 0.032663055 0.99543393 0
-14.837823 -4.3741245 -11.954619 0.9358657 0.25207171 0.24620157 0
-6.4409223 -3.7087653 -11.199781 -0.86359179 -0.50417405 -0.0041971719 0
6.3864074 -3.805284 -11.240133 0.85316241 -0.52163208 0.0037201787 0
14.830429 -4.3717198 -12.111303 -0.92967981 0.30473098 0.20696476 0
16.116966 -3.6547101 -11.728615 -0.10969128 0.023440648 0.9936893 0
18.678398 -3.748167 -11.689984 0.00019550328 0.00026067102 0.99999994 0
21.201508 -3.5761986 -11.694815 0.0046000113 0.0018111921 0.99998784 0
23.650782 -3.5368299 -11.699993 0.00017250291 0.00023821829 0.99999994 0
26.191875 -3.8106885 -11.719452 0.054517992 -0.015629947 0.9983905 0
28.024479 -3.7780437 -12.217429 0.65945911 -0.070323162 0.74844396 0
30.729715 -3.7417254 -11.26135 -0.99159449 0.12518395 0.032699682 0
-30.941225 -1.1873316 -11.215679 0.9987939 0.040589135 0.027625468 0
-28.05299 -1.2691994 -12.082676 -0.55831218 -0.032367729 0.82899934 0
-26.212427 -1.2498051 -11.707324 -0.037639465 -0.003791247 0.99928421 0
-23.709734 -1.1601678 -11.699991 0.00044574746 0.00021114353 0.99999988 0
-21.357225 -1.1780827 -11.695657 -0.0020707182 0.00056997832 0.99999774 0
-18.696623 -1.2640243 -11.689991 -2.7929036e-05 2.7929045e-05 1 0
-16.181898 -1.2988962 -11.790087 0.28189269 0.027086254 0.95906353 0
-7.3412452 -1.2234111 -11.263859 -0.98619884 -0.16556405 0.00069356774 0
7.3073254 -1.4144682 -11.209759 0.98271948 -0.1842839 0.017371245 0
16.11875 -1.3048218 -11.807967 -0.37786731 0.031549815 0.92532206 0
18.792679 -1.1756796 -11.689986 0.00014911267 4.9704224e-05 1 0
21.217285 -1.2318654 -11.694061 0.0045382441 0.0011741502 0.99998903 0
23.784578 -1.182624 -11.699995 -5.9500999e-05 4.250072e-05 1 0
26.120405 -1.3441859 -11.704242 0.021579338 -0.00231862 0.9997645 0
28.074961 -1.2362183 -12.091561 0.58200258 -0.040625282 0.81217146 0
30.935549 -1.3023791 -11.211324 -0.99832571 0.045231599 0.036055807 0
-30.939922 1.2140082 -11.260984 0.99819022 -0.056347363 0.021004191 0
-28.0973 1.2669505 -12.115505 -0.58843505 0.022367503 0.80823505 0
-26.236898 1.2845557 -11.708976 -0.041538343 0.0030259674 0.99913228 0
-23.613146 1.1991551 -11.699996 0.00017455652 1.7455654e-05 1 0
-21.331375 1.2887282 -11.695125 -0.0022578039 0.0012274219 0.99999672 0
-18.743431 1.274497 -11.689994 -6.9849226e-12 -9.7751661e-05 1 0
-16.121395 1.2556912 -11.843122 0.42437074 -0.067361005 0.90297949 0
-7.3417444 1.2537915 -11.200444 -0.98555368 0.16915841 -0.0083360495 0
7.3216829 1.3441958 -11.345147 0.98219973 0.18783765 0.00084111851 0
16.139643 1.3298775 -11.819418 -0.34580055 -0.022680027 0.93803394 0
18.8897 1.1561934 -11.690001 -2.3841871e-05 -2.384186e-05 1 0
21.233011 1.2426078 -11.694226 0.0014871254 -0.00064902293 0.99999869 0
23.567114 1.3715996 -11.700001 0.00027370462 0.00011730198 0.99999994 0
26.222042 1.1796315 -11.704666 0.031409409 -0.0066112066 0.99948478 0
28.020758 1.3352283 -12.058386 0.5660708 0.028892087 0.82385015 0
30.941679 1.1783804 -11.232951 -0.9987008 -0.050822195 0.0037185871 0
-30.718922 3.7941957 -11.256386 0.99204338 -0.12478447 0.016700178 0
-27.896053 3.8435211 -12.12941 -0.60345411 0.079599068 0.79341477 0
-26.164553 3.7909985 -11.715107 -0.053236224 0.0065906029 0.99856025 0
-23.736904 3.8073478 -11.699995 0.0002730001 -4.4032266e-05 0.99999994 0
-21.181089 3.6996765 -11.694932 -0.0068956497 0.0037173675 0.9999693 0
-18.78566 3.6382256 -11.689991 0.00017688393 0.00023274201 0.99999994 0
-16.013058 3.6507132 -11.761563 0.20789592 -0.056244403 0.97653264 0
-14.810929 4.4946508 -11.975154 0.92023587 -0.25728014 0.29491162 0
-6.3498702 3.8595736 -11.272724 -0.85715139 0.51506352 -0.0010329408 0
6.4379411 3.7256112 -11.219192 0.85724288 0.5148977 -0.0038515911 0
14.818281 4.5032978 -12.024713 -0.80445361 -0.28886333 0.51904929 0
16.13796 3.7098377 -11.736514 -0.13115247 -0.031494603 0.99086183 0
18.693821 3.7742751 -11.689984 0.00010331475 -0.00011920932 1 0
21.234373 3.7506411 -11.695554 0.005309796 0.0049767662 0.99997354 0
23.812025 3.671294 -11.699998 9.0510781e-05 1.8102159e-05 1 0
26.316376 3.7163255 -11.721107 0.06800922 0.0074961223 0.99765652 0
27.985857 3.5941098 -12.17312 0.60446066 0.057022318 0.79459161 0
30.738037 3.6805034 -11.253855 -0.98716486 -0.15124612 0.051284246 0
-30.321495 6.2322254 -11.436012 0.98020577 -0.19760534 0.012190472 0
-27.763172 5.8877058 -12.298385 -0.70247936 0.13795887 0.69820487 0
-26.264927 6.2061229 -11.781341 -0.16537625 0.033237051 0.98567033 0
-23.682785 6.2667241 -11.699992 -8.0786504e-06 2.4235944e-05 1 0
-21.23456 6.2307801 -11.697436 -0.00592025 0.0036468212 0.99997574 0
-18.732557 6.2891178 -11.689988 8.6505897e-06 0.00011245765 1 0
-16.348202 6.3024774 -11.689992 0.00016133768 -0.00018031857 1 0
-14.360313 6.307991 -11.849854 0.52985752 -0.2935701 0.79565543 0
-5.2746239 5.2926049 -11.301847 -0.70092297 0.71323675 0.00056027225 0
-3.7376928 6.4310021 -11.269375 -0.49518958 0.86878121 0.0025674636 0
-1.3312182 7.3210998 -11.338886 -0.16354631 0.98649442 -0.0090249972 0
1.3826394 7.3219562 -11.088745 0.17936002 0.98377609 -0.0038015225 0
3.9280179 6.3133831 -11.370689 0.52880263 0.84873593 0.0038782442 0
5.2941003 5.2734327 -11.415445 0.70016789 0.71397829 -0.00018662187 0
14.321561 6.2918983 -11.871648 -0.64182162 -0.32724792 0.69352281 0
16.339224 6.2423878 -11.689993 -1.9166993e-05 9.5834956e-05 1 0
18.771383 6.197566 -11.689989 0.00025538716 0.00037867751 0.99999988 0
21.295191 6.4439616 -11.698597 0.0064162407 0.0016447514 0.99997801 0
23.750187 6.1645179 -11.699992 0.00016965161 0.00013733702 1 0
26.186121 6.2519803 -11.765243 0.15356199 0.033269566 0.98757881 0
27.778965 5.8951015 -12.313375 0.6967485 0.14690024 0.70211244 0
30.291365 6.3962622 -11.155224 -0.9831388 -0.16316713 0.082550138 0
-30.032999 7.5495214 -11.432087 0.9085896 -0.41691217 -0.025476603 0
-29.626738 8.9065876 -11.224338 0.95784134 -0.28540331 0.032939091 0
-26.132389 8.6790495 -11.90485 -0.33522364 0.095308423 0.93730539 0
-23.76553 8.7561989 -11.699993 6.6272296e-05 4.9704224e-05 1 0
-21.277039 8.6595163 -11.700006 -6.0082733e-05 7.3808442e-05 1 0
-18.710028 8.7863178 -11.691554 -0.0012789621 -0.0027339165 0.99999541 0
-16.313442 8.795433 -11.689993 -0.00014517571 0.00024195953 0.99999994 0
-13.657386 8.7242537 -11.800819 0.26253778 -0.12888779 0.95627499 0
-12.206464 9.6003799 -11.873804 0.66577721 -0.53347701 0.52167332 0
12.171564 9.6189823 -12.049107 -0.7994678 -0.55877119 0.22051299 0
13.753682 8.7986765 -11.756517 -0.18670155 -0.11758708 0.97535414 0
16.25131 8.8209667 -11.689992 4.8391903e-05 -6.7748682e-05 1 0
18.763962 8.7638617 -11.691525 0.0027223562 0.0021419746 0.99999398 0
21.2819 8.7947588 -11.699992 0.00013870164 0.00015194555 1 0
23.852404 8.7849827 -11.699998 -6.3949687e-05 -2.7406999e-05 1 0
26.189247 8.8734493 -11.918703 0.36360037 0.11095108 0.92492414 0
29.630589 8.893693 -11.221828 -0.95797861 -0.284834 0.033862568 0
30.03229 7.5518966 -11.615324 -0.95839226 -0.28545305 -0.00091101771 0
-28.818743 11.295684 -11.223589 0.92832106 -0.3699539 0.036799055 0
-25.784452 11.080792 -12.093973 -0.51372749 0.19830668 0.83472067 0
-23.569389 11.225048 -11.709562 -0.02653748 0.015111969 0.99953359 0
-21.250616 11.324989 -11.699995 -5.2366959e-05 0.00013964521 1 0
-18.81698 11.361308 -11.698032 -0.0073386263 -0.00016687813 0.999973 0
-16.362946 11.238355 -11.689987 6.0554125e-05 0.00014706 1 0
-13.760069 11.235638 -11.689987 0.00018864353 1.7149414e-05 1 0
-11.274131 11.240229 -11.827234 0.38499367 -0.37330082 0.84405357 0
-9.6243744 12.16708 -12.022846 0.53068787 -0.69251347 0.48866719 0
9.5531845 12.186471 -12.007616 -0.4788174 -0.80512291 0.35001567 0
11.35959 11.325338 -11.762495 -0.18522885 -0.17744938 0.96654117 0
13.87289 11.292112 -11.689991 9.3991963e-05 1.8798401e-05 1 0
16.231289 11.291329 -11.689986 0.00054217101 0.00021154124 0.99999982 0
18.799646 11.200134 -11.697177 0.0039978288 0.0028891172 0.99998784 0
21.298281 11.282859 -11.699994 0.00018539105 0.00023595228 1 0
23.66778 11.217992 -11.705398 0.02508243 0.0052257548 0.99967176 0
25.796507 11.189023 -12.129417 0.54604441 0.24650732 0.80066824 0
28.857121 11.194923 -11.2028 -0.93892747 -0.34199327 0.038153443 0
-27.915428 13.361272 -11.189929 0.91424179 -0.40461171 0.021246228 0
-27.069792 14.407303 -11.347561 0.8590948 -0.50249404 0.09724158 0
-23.599728 13.709857 -11.832683 -0.21773282 0.10270423 0.9705897 0
-21.37211 13.80112 -11.700017 -0.00030308883 0.0001396458 0.99999994 0
-18.7554 13.829387 -11.699996 0.0001144839 6.164518e-05 1 0
-16.202238 13.706284 -11.694447 -0.012080151 0.0036171544 0.99992055 0
-13.772353 13.673805 -11.689997 0.0002125036 0.00025500436 1 0
-11.187451 13.676904 -11.689993 -9.5834963e-05 3.8333976e-05 1 0
-8.675683 13.781606 -11.769535 0.1038221 -0.18989907 0.97629875 0
-6.4609184 14.226283 -11.917092 0.26015627 -0.75221729 0.60538238 0
-4.3830962 14.83074 -12.034681 0.26123366 -0.93424064 0.24279924 0
4.2538242 14.881286 -11.950334 -0.18872808 -0.90642369 0.37785947 0
6.3929291 14.319577 -11.856887 -0.23034906 -0.44334489 0.86624742 0
8.7430172 13.654341 -11.818804 -0.2267538 -0.34869057 0.90939409 0
11.30034 13.777761 -11.689999 0.00034000573 0.0003612561 0.99999994 0
13.763514 13.704465 -11.689985 -0.00012321636 7.3929827e-05 1 0
16.318041 13.815976 -11.695128 0.0058988808 0.0075494004 0.9999541 0
18.695995 13.835567 -11.699995 0.00011245764 -2.5951764e-05 1 0
21.235334 13.744385 -11.699999 0.0002974642 0.00018365082 1 0
23.713133 13.677591 -11.855474 0.26204672 0.13674308 0.95531815 0
26.682348 14.213758 -11.525772 -0.78030413 -0.41478682 0.46805701 0
27.913317 13.366033 -11.296878 -0.91573328 -0.39532387 0.071774982 0
-26.388952 16.146128 -11.259373 0.85962778 -0.51001137 0.030470626 0
-23.161766 15.8241 -12.095795 -0.46301138 0.29579046 0.83554089 0
-21.197596 16.401434 -11.748076 -0.10104863 0.05672859 0.99326277 0
-18.806374 16.205519 -11.699993 0.00016853733 0.00028651347 1 0
-16.285637 16.338591 -11.699907 -0.0025475819 0.0043402347 0.99998736 0
-13.72536 16.206314 -11.693956 -0.0010980425 0.0034599113 0.99999338 0
-11.31511 16.216009 -11.689982 -3.0547384e-05 4.5821089e-05 1 0
-8.7856665 16.251469 -11.68999 0.00019184903 4.5678338e-05 1 0
-6.271863 16.237169 -11.689988 1.7455644e-05 0.00020946781 0.99999994 0
-3.7713034 16.201832 -11.774492 0.034017354 -0.16647027 0.98545951 0
-1.3284514 16.090006 -11.790035 0.050714619 -0.42287117 0.90476954 0
1.2503854 16.26825 -11.774576 0.0047467179 -0.27787885 0.96060437 0
3.6641924 16.229681 -11.732931 -0.016235476 -0.099831559 0.99487191 0
6.2495046 16.280519 -11.689982 -6.3065585e-05 -0.00015766395 1 0
8.6514187 16.209158 -11.689999 0.00012081666 -9.8849989e-05 1 0
11.172195 16.258669 -11.689995 -4.6807152e-05 0.001577494 0.99999875 0
13.71042 16.218573 -11.693802 0.0055577611 0.0021884197 0.99998212 0
16.139769 16.249956 -11.699998 0.00022839171 0.00019184903 0.99999994 0
18.691181 16.13735 -11.700001 0.00026659539 -9.8739056e-06 0.99999994 0
21.205145 16.283651 -11.752024 0.10376305 0.065660089 0.99243242 0
23.142666 16.011412 -12.135991 0.47668609 0.35023832 0.80628991 0
26.34219 16.222939 -11.371775 -0.85354114 -0.52096879 0.0076941694 0
-25.33004 17.847181 -11.159331 0.80067533 -0.59884286 0.017498706 0
-24.398432 19.024666 -11.333185 0.78464037 -0.61913759 0.031752832 0
-20.953838 18.514359 -12.041506 -0.39554346 0.33415481 0.85550326 0
-18.757376 18.688974 -11.71551 -0.032522276 0.037309956 0.99877435 0
-16.380987 18.708397 -11.699997 8.8865141e-05 5.3319083e-05 1 0
-13.733976 18.79652 -11.69999 0.00011545469 5.3878855e-05 1 0
-11.242487 18.804298 -11.697233 0.0040967609 0.0057151495 0.99997526 0
-8.7203779 18.774874 -11.691694 -0.0040481426 0.0094643617 0.99994701 0
-6.0054069 18.706833 -11.689992 0.00021828039 0.00018031857 1 0
-3.766968 18.716591 -11.689984 0.00014422373 0.00019229831 0.99999994 0
-1.3132322 18.789078 -11.689984 8.1459715e-05 0.0001140436 1 0
1.2310646 18.689629 -11.689984 0.0002053606 7.3929819e-05 0.99999994 0
3.7524149 18.724712 -11.689985 2.4643274e-05 -4.1072115e-05 1 0
6.193028 18.891001 -11.689984 0.00018659094 8.9647117e-05 1 0
8.7050371 18.782925 -11.691989 0.0045273411 0.011792734 0.99992025 0
11.283523 18.813047 -11.697581 0.0032168725 0.0037416227 0.99998778 0
13.717418 18.799852 -11.700004 0.00024047734 0.00017649504 1 0
16.205275 18.794127 -11.699993 8.1459701e-05 0.00019550328 0.99999994 0
18.825665 18.85203 -11.731544 0.052912254 0.054712966 0.99709916 0
21.08033 18.394163 -12.052526 0.39309469 0.34705716 0.85148567 0
24.293364 19.155956 -11.220899 -0.77857512 -0.62514871 0.054861687 0
25.283602 17.909698 -11.292112 -0.79797 -0.60091126 0.046362165 0
-23.094091 20.634739 -11.054622 0.75747371 -0.65284079 0.0056892652 0
-21.740955 21.800604 -11.352186 0.69476277 -0.71778029 0.045783423 0
-18.542381 20.898256 -12.040163 -0.3302038 0.38752809 0.86069 0
-16.255508 21.389448 -11.747261 -0.062963895 0.085476369 0.9943487 0
-13.851379 21.178854 -11.699996 0.00017455651 -5.2366951e-05 1 0
-11.159042 21.222927 -11.700002 9.8739019e-06 8.8865141e-05 1 0
-8.8105478 21.306108 -11.699703 -0.0011418955 0.0018486812 0.99999756 0
-6.2930264 21.240717 -11.698069 -0.0014522377 0.0050100931 0.99998647 0
-3.6982696 21.298851 -11.695538 -0.0026315271 0.00070543512 0.9999963 0
-1.1846788 21.254873 -11.694193 0.00098539901 0.0012299968 0.99999875 0
1.1649299 21.245724 -11.694749 0.003436933 0.00093705446 0.99999362 0
3.6518037 21.269491 -11.695655 0.016061617 -0.0036660063 0.99986434 0
6.2253265 21.215145 -11.697897 0.0057021054 0.0040207007 0.99997568 0
8.7726021 21.203375 -11.699883 0.002266163 0.0026232314 0.99999398 0
11.181032 21.198156 -11.699997 -1.8443701e-05 0.00012910595 1 0
13.83685 21.265604 -11.700001 0.00020541028 0.00082766451 0.99999964 0
16.338816 21.249525 -11.749421 0.079493754 0.094609506 0.99233556 0
18.485409 20.951078 -12.04504 0.33139494 0.37558791 0.86551207 0
21.842022 21.828106 -11.171764 -0.68951267 -0.72245789 0.051252957 0
23.108425 20.618959 -11.220973 -0.75895399 -0.65113527 0.0034218505 0
-20.589876 23.123337 -11.244571 0.69311845 -0.72054583 0.020011377 0
-19.125519 24.329912 -11.304123 0.58561492 -0.81036758 0.018961797 0
-16.00189 23.032484 -12.0863 -0.31989819 0.44683564 0.83546579 0
-13.84288 23.697079 -11.871737 -0.16590393 0.26702055 0.94930291 0
-11.331842 23.748703 -11.709002 -0.018418727 0.034917578 0.99922049 0
-8.6484022 23.748652 -11.700005 0.00018718404 4.1596453e-05 1 0
-6.3460703 23.783804 -11.699998 0.00019184903 -0.00015530638 1 0
-3.7340026 23.82283 -11.699997 4.4840199e-05 0.00020626493 0.99999994 0
-1.2529496 23.731573 -11.700004 -0.00014255449 7.2759611e-12 1 0
1.3447046 23.786806 -11.7 0.00029420396 0.00037012759 0.99999994 0
3.7120142 23.87126 -11.699994 6.7414927e-05 0.0001011224 1 0
6.3104396 23.766768 -11.699992 5.6550529e-05 0.00013733702 1 0
8.7272253 23.887512 -11.700005 -9.4598385e-05 0.00022072955 1 0
11.282363 23.848324 -11.709539 0.025937157 0.041002817 0.99882227 0
13.763249 23.787563 -11.871039 0.15943509 0.27444699 0.94829285 0
15.764305 23.125179 -12.034242 0.27289242 0.43291739 0.85913461 0
19.082541 24.361906 -11.202008 -0.59768569 -0.80163759 0.012203339 0
20.711205 23.005821 -11.164007 -0.68146062 -0.73184031 -0.0045965645 0
-17.825266 25.297905 -11.246413 0.60080367 -0.79761118 0.053397886 0
-16.200439 26.370934 -11.254519 0.51657373 -0.85606045 0.017671498 0
-14.253385 26.840656 -11.360212 0.4702706 -0.83377957 0.28923544 0
-11.088523 25.689016 -12.041794 -0.2066424 0.47617152 0.8547278 0
-8.595315 26.15971 -11.912434 -0.10563722 0.32442033 0.93999588 0
-6.3089886 26.19396 -11.762266 -0.023178555 0.14410311 0.98929113 0
-3.7694376 26.267485 -11.718277 -0.0022293262 0.071932405 0.99740702 0
-1.2826846 26.14805 -11.707065 -0.0093460651 0.027665189 0.99957359 0
1.1878071 26.275129 -11.707009 -0.0010619314 0.029691612 0.99955851 0
3.6587267 26.233246 -11.717686 0.0042384365 0.062339313 0.99804598 0
6.3341427 26.410246 -11.794325 0.048422616 0.19283654 0.98003536 0
8.6180563 26.174124 -11.91807 0.10835753 0.33131403 0.93727779 0
11.129362 25.74497 -12.102317 0.21496864 0.51927412 0.8271293 0
14.361754 26.868851 -11.375587 -0.49387366 -0.84097975 0.2210017 0
16.28314 26.320053 -11.286524 -0.52789593 -0.84845078 0.038173877 0
17.886473 25.252333 -11.377681 -0.58944911 -0.80777174 0.0073959376 0
-13.505184 27.873165 -11.308296 0.45631108 -0.88966519 0.0166154 0
-11.212403 28.836021 -11.184771 0.38144439 -0.92367917 0.036290798 0
-8.7672682 29.682606 -11.275733 0.27322608 -0.96177763 0.018202664 0
-5.8144245 27.745071 -12.267041 -0.13065025 0.67857373 0.72281963 0
-3.8017678 27.959715 -12.168423 -0.074873142 0.62966561 0.77324975 0
-1.320784 27.969986 -12.017764 -0.023891108 0.5093897 0.86020434 0
1.3692377 28.061941 -12.088078 0.058904417 0.58095419 0.81180191 0
3.5885389 27.917944 -12.119308 0.059975944 0.57855278 0.81343693 0
6.0366359 27.736782 -12.307562 0.13039064 0.68529356 0.71649915 0
8.8603363 29.658129 -11.192714 -0.27602345 -0.96054429 0.034143038 0
11.256417 28.818251 -11.309652 -0.39310452 -0.91947138 0.0064208074 0
13.30702 27.964092 -11.221567 -0.4292185 -0.90314925 0.0096342517 0
-7.5139399 30.01195 -10.3126 0.25402328 -0.96719807 0 0
-6.2970791 30.307289 -11.300702 0.2037887 -0.97876686 0.022039341 0
-3.6476798 30.722239 -11.293996 0.12716725 -0.99170846 0.018516181 0
-1.2193992 30.928425 -11.068526 0.036210053 -0.99870992 0.035598107 0
1.2236763 30.929705 -11.224731 -0.010600559 -0.99960327 0.026094189 0
3.7567015 30.708208 -11.31494 -0.12414745 -0.99187422 0.02780026 0
6.2960639 30.309555 -11.102983 -0.22405612 -0.97412241 0.029737625 0
7.5422502 30.004568 -10.933834 -0.2540231 -0.96719742 0.0011926005 0
-15.22715 -47.558254 -8.9232664 0.30335552 0.9518277 0.044715691 0
-13.660827 -47.987194 -8.9975996 0.29300496 0.93645209 0.19288749 0
-11.262754 -48.513721 -9.1411695 0.18787523 0.90783989 0.37487277 0
-8.6720295 -48.900848 -9.2635508 0.14516065 0.80034387 0.58170277 0
-6.2709551 -49.132103 -9.2614241 0.090556704 0.80606389 0.58485925 0
-3.834312 -49.262299 -9.3337154 0.086053818 0.74373031 0.66291779 0
-1.1383569 -49.370293 -9.3011913 -0.00051306619 0.74404293 0.66813171 0
1.2624379 -49.29023 -9.3752832 -0.00036239807 0.70687187 0.70734155 0
3.7141168 -49.231392 -9.3723764 -0.04789998 0.69494849 0.71746236 0
6.170229 -49.178253 -9.208251 -0.065246411 0.867217 0.49363711 0
8.7760315 -48.862923 -9.2401896 -0.15733418 0.81056827 0.56411445 0
11.172853 -48.544308 -9.0944891 -0.20274247 0.92445982 0.32290787 0
13.72861 -47.981903 -8.9667625 -0.28730211 0.93991435 0.18444115 0
15.214567 -47.558819 -8.6172743 -0.3151502 0.94829404 0.037667189 0
-20.887114 -45.346306 -8.8711586 0.37004504 0.92238998 0.11074028 0
-18.689146 -46.11998 -9.0983896 0.33482563 0.85193866 0.40260687 0
-16.302845 -46.623531 -9.4076786 0.19962384 0.65963745 0.72458875 0
-13.650501 -46.364952 -10 0.00057302671 0.0005224655 0.99999964 0
-11.279952 -46.243206 -10 0.00057175476 0.00057175476 0.99999964 0
-8.6612978 -46.268299 -10 0.00057358382 0.00057358382 0.9999997 0
-6.1762071 -46.277283 -10 0.00053017825 0.00053017825 0.99999976 0
-3.5458705 -45.987507 -9.6254625 -0.20791715 -0.38073504 0.90100569 0
-1.3039427 -46.168873 -9.2555628 -0.17211924 -0.78926039 0.58944285 0
1.14887 -46.165241 -9.2614183 0.15157363 -0.74956548 0.6443423 0
3.4579582 -45.930454 -9.5854502 0.18409923 -0.38007471 0.9064495 0
6.1983967 -46.303841 -10 0.00047578226 0.00047578226 0.99999982 0
8.6540232 -46.247353 -10 0.00052882021 0.00052882021 0.99999976 0
11.275784 -46.225433 -10 0.00045255388 0.00043445171 0.99999988 0
13.814334 -46.230743 -10 0.00060606003 0.00046920779 0.9999997 0
16.288376 -46.644382 -9.3771439 -0.22353481 0.68258166 0.69578344 0
18.765413 -46.089951 -9.0896921 -0.34186083 0.85047024 0.39978942 0
20.940525 -45.320198 -9.0452538 -0.36831093 0.92094189 0.12733069 0
-25.549335 -42.896564 -8.9918423 0.51776075 0.84510779 0.13310379 0
-23.711306 -43.652519 -9.2287083 0.42662522 0.77590269 0.46472135 0
-21.448406 -43.974728 -9.674654 0.14106959 0.30632359 0.94141656 0
-18.68153 -43.76339 -10 0.00050150836 0.00050150836 0.99999982 0
-16.209454 -43.691856 -10 0.00039100653 0.00039100653 0.99999976 0
-13.631519 -43.769264 -10 0.00057958922 0.00057958922 0.9999997 0
-11.255571 -43.783157 -10 0.00047364194 0.00043333197 0.99999976 0
-8.799016 -43.698166 -10 0.00035322018 0.00040250673 0.99999988 0
-6.0641055 -43.557827 -9.5662622 -0.3075276 -0.15661578 0.9385618 0
-4.2315264 -44.267399 -8.9587002 -0.69410551 -0.69736832 0.17859153 0
4.2368684 -44.222431 -8.9348164 0.69598699 -0.70226341 0.14976045 0
6.1275778 -43.533546 -9.7882347 0.22273837 -0.099446923 0.96979266 0
8.7431345 -43.635307 -10 0.00052635488 0.00060154841 0.9999997 0
11.323896 -43.706417 -10 0.00062958663 0.00059645047 0.99999958 0
13.687645 -43.686459 -10 0.0005341068 0.0005341068 0.9999997 0
16.171688 -43.772209 -10 0.00055331102 0.00059019844 0.99999964 0
18.808653 -43.688778 -10 0.00051958073 0.00051958073 0.9999997 0
21.470686 -43.996651 -9.7026939 -0.13560066 0.29077899 0.94713259 0
23.658297 -43.727352 -9.1174412 -0.43794608 0.81471848 0.38004854 0
25.633348 -42.870178 -8.8504725 -0.48481387 0.86704308 0.11485577 0
-28.588064 -40.815968 -9.0951748 0.56644863 0.78292531 0.25722337 0
-26.456684 -41.522091 -9.5586004 0.32653758 0.42531851 0.84408379 0
-23.641987 -41.148201 -10 0.000465919 0.00039283367 0.99999976 0
-21.353561 -41.2565 -10 0.00041893555 0.0004353644 0.99999982 0
-18.827055 -41.099098 -10 0.00048875815 0.00041356459 0.99999976 0
-16.21966 -41.294155 -10 0.00039283372 0.00039283372 0.99999988 0
-13.885793 -41.246086 -10 0.00062958658 0.00062958658 0.99999952 0
-11.319604 -41.306274 -10 0.00038645999 0.00038645999 0.99999982 0
-8.771409 -41.306911 -10 0.00048875815 0.00052496244 0.9999997 0
-6.1435299 -41.319859 -9.2512274 -0.81015348 -0.19139543 0.55409306 0
6.1804485 -41.189411 -9.2184324 0.79232746 -0.16146839 0.58834106 0
8.7329426 -41.189278 -10 0.00036533442 0.0003258388 0.99999994 0
11.207898 -41.325527 -10 0.00055141951 0.00055141951 0.9999997 0
13.826676 -41.187531 -10 0.00067519158 0.00067519158 0.99999958 0
16.308529 -41.175926 -10 0.00060280162 0.00060280162 0.9999997 0
18.776566 -41.347336 -10 0.00046920782 0.00048875815 0.99999976 0
21.144375 -41.216873 -10 0.00059019844 0.00059019844 0.99999964 0
23.790606 -41.205566 -10 0.00037867748 0.00036106457 0.99999982 0
26.555992 -41.56374 -9.4276152 -0.35812584 0.51529467 0.77859956 0
28.629589 -40.773148 -9.0858974 -0.54374981 0.78569865 0.29498106 0
-32.754704 -37.693241 -8.9146442 0.67106378 0.74139422 0.0028286779 0
-31.189644 -38.757416 -9.1663475 0.58345246 0.7026794 0.40721598 0
-28.784914 -38.803371 -9.9904461 0.016548043 0.014552292 0.99975717 0
-26.316872 -38.81765 -10 0.00065167731 0.00068001112 0.99999958 0
-23.76685 -38.808174 -10 0.00031318492 0.00031318492 0.99999994 0
-21.222738 -38.711391 -10 0.00037323349 0.00037323349 0.99999982 0
-18.839211 -38.693748 -10 0.00059319357 0.00059319357 0.9999997 0
-16.166576 -38.747738 -10 0.0006491901 0.00058949442 0.99999964 0
-13.703492 -38.754124 -10 0.00049293559 0.00045951622 0.99999982 0
-11.240071 -38.731808 -10 0.00062496925 0.00062496925 0.99999958 0
-8.6967421 -38.840969 -10 0.00042834989 0.00042834989 0.99999982 0
-6.1373734 -38.715328 -9.2056818 -0.82055885 0.19185418 0.53840059 0
6.0445523 -38.729443 -9.2057924 0.85347486 0.18465099 0.48732412 0
8.6635046 -38.778824 -10 0.00064044155 0.00064044155 0.99999952 0
11.276758 -38.696518 -10 0.00066882675 0.00066882675 0.99999952 0
13.789769 -38.789268 -10 0.00066536805 0.00066536805 0.99999952 0
16.279047 -38.849808 -10 0.00043151621 0.00043151621 0.99999982 0
18.744736 -38.740406 -10 0.00060894439 0.00060894439 0.99999958 0
21.235178 -38.761234 -10 0.00055096368 0.00055096368 0.99999964 0
23.685369 -38.830673 -10 0.0005120323 0.0005120323 0.9999997 0
26.328674 -38.81628 -10 0.00068077008 0.00068077008 0.99999952 0
28.760653 -38.791824 -9.9239798 -0.028984325 0.034205224 0.99899441 0
31.196184 -38.807762 -9.0770483 -0.60896689 0.71375269 0.34600046 0
32.741676 -37.70385 -9.0134621 -0.64471996 0.75645304 0.11006797 0
-35.338547 -35.306904 -8.8260918 0.71929675 0.68341351 0.12473232 0
-33.858738 -36.324574 -9.3258142 0.54249078 0.60806739 0.57961863 0
-31.386457 -36.276905 -10 0.00036964903 0.00033679133 0.99999988 0
-28.745518 -36.368835 -10 0.00049834163 0.00049834163 0.99999976 0
-26.181007 -36.240376 -10 0.0003655061 0.00039950668 0.99999988 0
-23.837481 -36.230103 -10 0.00050150836 0.00050150836 0.99999982 0
-21.287714 -36.226665 -10 0.00044084073 0.00044084073 0.99999982 0
-18.82469 -36.204029 -10 0.00054985291 0.00054985291 0.9999997 0
-16.249084 -36.187752 -10 0.00040604523 0.00039100653 0.99999988 0
-13.740827 -36.26305 -10 0.00030498509 0.00041446692 0.99999988 0
-11.240322 -36.321346 -10 0.00043819696 0.00048875815 0.99999982 0
-8.6340446 -36.240921 -10 0.00058307982 0.00058307982 0.99999964 0
-5.8907604 -36.528027 -9.6732101 -0.31254593 0.18550822 0.93161249 0
-4.2462945 -35.728962 -9.0501652 -0.69950306 0.66643268 0.25799793 0
4.2798896 -35.780628 -8.9761133 0.67765987 0.68001801 0.27991539 0
5.9638996 -36.453423 -9.6516457 0.29637021 0.17454104 0.93898892 0
8.7922211 -36.273769 -10 0.00051279535 0.00051279535 0.99999976 0
11.481558 -36.325272 -10 0.0005219747 0.0005219747 0.9999997 0
13.847877 -36.283745 -10 0.00044432556 0.00042951471 0.99999976 0
16.273144 -36.266132 -10 0.00031280523 0.00027370459 0.99999982 0
18.734928 -36.215122 -10 0.00054112502 0.00055858062 0.99999964 0
21.232592 -36.389526 -10 0.00050686026 0.00050686026 0.9999997 0
23.677109 -36.199337 -10 0.00053667562 0.00053667562 0.99999976 0
26.147532 -36.28318 -10 0.00040729847 0.00040729847 0.99999976 0
28.766178 -36.295792 -10 0.00034975357 0.0004035618 0.99999988 0
31.326143 -36.32542 -10 0.00045848111 0.00045848111 0.99999982 0
33.782143 -36.385929 -9.2768745 -0.58974308 0.62497127 0.51148206 0
35.304722 -35.331673 -8.9137621 -0.7177403 0.68137228 0.14345957 0
-37.752506 -32.76115 -9.0096874 0.74368137 0.66692722 0.046324901 0
-36.327728 -33.883686 -9.1810312 0.61589491 0.59303093 0.51864034 0
-33.745956 -33.72493 -10 0.00053393736 0.00058322388 0.9999997 0
-31.044186 -33.509464 -9.6161528 -0.22963987 -0.35968882 0.90437233 0
-28.793989 -33.73666 -9.2771082 -0.13670537 -0.81935924 0.55674237 0
-26.20944 -33.695393 -9.2459478 0.18530247 -0.85244662 0.48887396 0
-23.938641 -33.504425 -9.6488533 0.19426502 -0.33058569 0.92356598 0
-21.21611 -33.801605 -10 0.00046209857 0.00046209857 0.9999997 0
-18.769142 -33.801186 -10 0.00051657361 0.00051657361 0.99999976 0
-16.257835 -33.913002 -10 0.00043267114 0.00038459655 0.99999982 0
-13.810917 -33.797604 -10 0.00052246556 0.00060673413 0.99999964 0
-11.372425 -33.853912 -10 0.00029420399 0.00025624217 0.99999994 0
-8.6984081 -33.806332 -10 0.00067204225 0.00067204225 0.99999952 0
-6.239027 -33.692787 -10 0.00041110502 0.00041110502 0.99999988 0
-3.5131786 -34.01104 -9.6802473 -0.16384949 0.3088941 0.9368766 0
-1.2986106 -33.847309 -9.2439651 -0.16951096 0.83717966 0.51999635 0
1.2711841 -33.859592 -9.1732378 0.18545398 0.82368934 0.53585702 0
3.5709887 -33.994724 -9.6636429 0.15658697 0.28128067 0.94676387 0
6.2222281 -33.737293 -10 0.00064863218 0.00061208953 0.99999964 0
8.9049101 -33.796078 -10 0.00044293707 0.00045821076 0.99999982 0
11.23305 -33.714851 -10 0.00024825812 0.00037238721 0.99999994 0
13.614498 -33.738617 -10 0.0006910027 0.00065729523 0.99999952 0
16.294981 -33.807953 -10 0.00062783557 0.00053246814 0.9999997 0
18.693722 -33.641281 -10 0.0004841903 0.0004841903 0.9999997 0
21.207153 -33.676174 -10 0.00046303403 0.00046303403 0.99999982 0
23.872559 -33.474712 -9.620553 -0.22042 -0.39168695 0.89330643 0
26.289581 -33.767738 -9.3270769 -0.18705174 -0.75213927 0.63190049 0
28.66028 -33.735031 -9.276536 0.17136182 -0.84753919 0.50230718 0
31.027334 -33.484806 -9.5687752 0.22466946 -0.37247661 0.90043592 0
33.776691 -33.79554 -10 0.00045179325 0.0004682221 0.99999982 0
36.337147 -33.792778 -9.3011475 -0.58427954 0.55659294 0.59061134 0
37.695808 -32.804379 -8.6727409 -0.73189205 0.6802029 0.040718574 0
-38.791153 -31.168341 -9.0617332 0.73900181 0.56645572 0.36469746 0
-36.235806 -31.321665 -10 0.00040729847 0.00040729847 0.99999976 0
-33.491505 -30.955742 -9.6624203 -0.37519363 -0.1922937 0.90678161 0
-31.830276 -31.845617 -9.1250544 -0.65419793 -0.68270737 0.32547793 0
-23.249853 -31.803783 -9.0009136 0.70599049 -0.67832947 0.20358442 0
-21.515373 -31.158001 -9.6686993 0.28503469 -0.16630767 0.94397932 0
-18.710308 -31.259836 -10 0.00043755496 0.00040031623 0.99999988 0
-16.176985 -31.151548 -10 0.00036154725 0.00028120342 0.99999988 0
-13.767941 -31.197767 -10 0.00054306455 0.00055977423 0.99999976 0
-11.306005 -31.219019 -10 0.00054306455 0.00056116667 0.99999964 0
-8.664217 -31.209845 -10 0.003986429 0.0098440237 0.99994361 0
-6.3215427 -31.368763 -10 -0.0073657902 0.0082882633 0.99993861 0
-3.7672 -31.493095 -10 0.016484112 0.069064394 0.99747604 0
-1.3029705 -31.673992 -10 -0.029280404 0.030643428 0.9991014 0
1.3449136 -31.706585 -10 -4.1663465e-05 0.030227406 0.99954307 0
3.7178853 -31.657831 -10 -0.010730366 0.032429297 0.99941647 0
6.3123322 -31.39562 -10 -0.0053606415 0.026158489 0.99964345 0
8.6125298 -31.331821 -10 0.00035392834 0.0003370746 0.99999988 0
11.20287 -31.315891 -10 0.00072899496 0.00062958652 0.99999946 0
13.686483 -31.208595 -10 0.00064801634 0.00064801634 0.99999958 0
16.188215 -31.269356 -10 0.00044912909 0.00044912909 0.9999997 0
18.719479 -31.270428 -10 0.00046995981 0.00046995981 0.99999988 0
21.53367 -31.074774 -9.7580976 -0.25784868 -0.13114847 0.95724297 0
23.228474 -31.788956 -9.0442028 -0.67804718 -0.68563265 0.26487702 0
31.796236 -31.833254 -8.8554382 0.70118368 -0.701527 0.12728441 0
33.441704 -31.085846 -9.6628294 0.34380773 -0.1779215 0.92203045 0
36.288479 -31.245598 -10 0.00046303403 0.00046303403 0.99999982 0
38.820045 -31.121124 -9.158493 -0.68295979 0.53443658 0.49793923 0
-40.732525 -28.796396 -9.0152807 0.77781022 0.59930629 0.18932338 0
-38.749199 -28.865934 -9.9542379 0.036962882 0.02584531 0.99898243 0
-36.419453 -28.705454 -10 0.00070917833 0.00070917833 0.99999952 0
-33.728863 -28.723972 -9.2580395 -0.82628697 -0.13579458 0.54663491 0
-21.424412 -28.822851 -9.1642265 0.81002986 -0.1740486 0.55996305 0
-18.749374 -28.723858 -10 0.00057021785 0.00059058273 0.9999997 0
-16.318277 -28.765137 -10 0.00046591894 0.00046591894 0.9999997 0
-13.72131 -28.889479 -10 0.023384776 0.020784959 0.99951047 0
-11.382529 -29.354511 -10 -0.0169785 0.045812208 0.99880576 0
-9.089736 -29.714256 -10 0.0044707544 0.26128042 0.96525258 0
8.9059162 -29.786224 -10 -0.097836524 0.13602327 0.98586297 0
11.544611 -29.272467 -10 -0.008685058 0.050292138 0.9986968 0
13.695318 -28.931343 -10 -0.018392038 -0.00087631622 0.99983048 0
16.225702 -28.89431 -10 0.0005341068 0.0005341068 0.9999997 0
18.799999 -28.852972 -10 0.00033324424 0.00039989306 0.99999982 0
21.376827 -28.841135 -9.297761 -0.80621517 -0.19178699 0.55967379 0
33.639946 -28.840332 -9.2152948 0.86624002 -0.17280932 0.46879113 0
36.222839 -28.750284 -10 0.00052635488 0.00052635488 0.99999976 0
38.638004 -28.736401 -9.98137 -0.021634357 0.017756863 0.99960822 0
40.859074 -28.599701 -8.8956089 -0.79495007 0.57022876 0.2071078 0
-42.86005 -25.585419 -8.8859005 0.8350485 0.53085083 0.14453892 0
-41.605526 -26.457054 -9.3806171 0.53437626 0.33688721 0.77520907 0
-38.754028 -26.167835 -10 0.00055993651 0.00055993651 0.9999997 0
-36.224129 -26.373259 -10 0.00040250673 0.00040250673 0.99999982 0
-33.645115 -26.236589 -9.1973457 -0.8283785 0.19077915 0.52668059 0
-21.455381 -26.301081 -9.113348 0.8507055 0.2167438 0.47887623 0
-18.792784 -26.346386 -10 0.015722834 0.014422445 0.99977243 0
-16.559347 -26.774376 -10 0.060980074 0.070122778 0.9956727 0
-14.920867 -27.351465 -10 0.12626229 0.059502888 0.99021065 0
14.577466 -27.334501 -10 -0.42736822 0.81926841 0.38230306 0
16.37336 -26.788952 -10 -0.069074467 0.14299366 0.98731017 0
18.771311 -26.269314 -10 -0.005824422 0.0090499585 0.99994206 0
21.40885 -26.179724 -9.1569309 -0.81905657 0.21085615 0.53355974 0
33.671608 -26.25717 -9.1817474 0.82642007 0.19458058 0.52836365 0
36.246819 -26.26701 -10 0.00050150836 0.00050150836 0.99999982 0
38.632965 -26.373032 -10 0.00061419158 0.00061419158 0.99999964 0
41.600307 -26.448908 -9.4157972 -0.57374883 0.34782276 0.74150628 0
42.85939 -25.592976 -8.7990532 -0.83461612 0.54053372 0.10601489 0
-43.742775 -23.756876 -9.1545553 0.78492278 0.44338003 0.43279356 0
-41.236568 -23.67445 -10 0.00046503206 0.00046503206 0.99999988 0
-38.844261 -23.685072 -10 0.00044117993 0.00047578226 0.99999982 0
-36.268078 -23.702799 -10 0.00051295408 0.0004935973 0.9999997 0
-33.454487 -23.947466 -9.6117373 -0.34304553 0.19389245 0.91908956 0
-31.678728 -23.222271 -8.9908133 -0.65674853 0.7168799 0.2340184 0
-23.320261 -23.319279 -8.9229727 0.67842245 0.69189233 0.24703848 0
-21.584225 -24.023214 -9.7436953 0.22146684 0.13269505 0.96609753 0
-19.476913 -24.507933 -10 0.20668304 0.094259717 0.97385681 0
19.523525 -24.541914 -10 -0.096175805 0.051756214 0.99401778 0
21.507217 -23.980776 -9.7563419 -0.24624547 0.13496238 0.95976472 0
23.249437 -23.410812 -8.956625 -0.68556368 0.69319129 0.22245954 0
31.760946 -23.330969 -9.0139065 0.67644608 0.70882589 0.19996621 0
33.425323 -23.988346 -9.6787491 0.30589306 0.19997212 0.93082786 0
36.285164 -23.752243 -10 0.00044605116 0.00042707028 0.99999988 0
38.740234 -23.740608 -10 0.00053065165 0.00053065165 0.9999997 0
41.182877 -23.784372 -10 0.00064642192 0.00056759 0.99999964 0
43.725296 -23.723904 -9.2323732 -0.78895432 0.41140789 0.45639309 0
-45.362045 -20.81402 -9.0318604 0.88303822 0.43213251 0.18304336 0
-44.018158 -21.442881 -9.6641951 0.36172795 0.15489902 0.91932541 0
-41.270844 -21.273586 -10 0.00056331436 0.00064615469 0.99999958 0
-38.661983 -21.215691 -10 0.00042655261 0.00042655261 0.99999982 0
-36.26487 -21.331491 -10 0.0005219747 0.0005219747 0.9999997 0
-33.853943 -21.250673 -10 0.00050964521 0.00050964521 0.99999976 0
-31.105492 -21.503849 -9.6796522 -0.13476738 0.3034305 0.94327497 0
-28.78101 -21.418793 -9.2994919 -0.141445 0.80431789 0.57711875 0
-26.221838 -21.478851 -9.2956047 0.20493145 0.83196002 0.51560235 0
-23.947502 -21.663774 -9.807023 0.10506702 0.25081113 0.96231741 0
-22.16157 -22.167751 -10 0.020603674 0.0094681028 0.99974293 0
21.979595 -22.235889 -10 -0.18793166 0.1683504 0.96764654 0
24.086226 -21.667376 -9.6584692 -0.15737215 0.28278473 0.94618541 0
26.274239 -21.430277 -9.3379078 -0.19609526 0.81332767 0.54776335 0
28.84193 -21.391249 -9.2948561 0.17177433 0.75881416 0.62824738 0
31.091246 -21.472275 -9.7619123 0.1233092 0.24839845 0.96077728 0
33.772232 -21.211327 -10 0.00039443639 0.00048018346 0.99999982 0
36.191151 -21.256468 -10 0.00056679506 0.00056679506 0.9999997 0
38.673218 -21.286114 -10 0.00052635488 0.00052635488 0.99999976 0
41.116261 -21.223213 -10 0.00048875815 0.00048875815 0.99999982 0
44.016201 -21.452858 -9.6716337 -0.32779589 0.16279404 0.93061692 0
45.379025 -20.839258 -8.8564005 -0.89138997 0.42943281 0.1449526 0
-46.079975 -18.687559 -9.1688557 0.81244844 0.31251231 0.49220273 0
-43.848854 -18.79594 -10 0.0005175086 0.0005175086 0.99999976 0
-41.274288 -18.686701 -10 0.00044084073 0.00044084073 0.99999982 0
-38.68766 -18.802998 -10 0.00050246163 0.00050246163 0.9999997 0
-36.263237 -18.738771 -10 0.00045951622 0.00045951622 0.99999982 0
-33.865589 -18.801489 -10 0.00053163164 0.00049733283 0.99999976 0
-31.422844 -18.764982 -10 0.00063251046 0.00059417653 0.99999964 0
-28.847755 -18.790001 -10 0.00039516622 0.00037436801 0.99999994 0
-26.256102 -18.720503 -10 0.0095528839 0.0099404622 0.99990499 0
-24.637671 -19.257681 -10 0.031147383 0.065141201 0.99738973 0
24.271193 -19.529902 -10 -0.28609422 0.25842214 0.92269611 0
26.35388 -18.828753 -10 -0.0072156647 -0.0080964845 0.99994123 0
28.669012 -18.777687 -10 0.00048875815 0.00048875815 0.9999997 0
