# .PCD v0.7 - Point Cloud Data file format
VERSION 0.7
FIELDS x y z normal_x normal_y normal_z curvature
SIZE 4 4 4 4 4 4 4
TYPE F F F F F F F
COUNT 1 1 1 1 1 1 1
WIDTH 698
HEIGHT 1
VIEWPOINT 0 0 0 1 0 0 0
POINTS 698
DATA ascii
-23.603987 -15.914469 -12.437733 -0.64981753 -0.41474494 0.63696456 0
-3.3447893 -15.084027 -12.318673 0.34650058 0.93222564 0.10436744 0
-2.2414386 -15.24726 -12.427549 0.12442669 0.79508108 0.5936026 0
-0.68788427 -15.332725 -12.514691 0.042508788 0.73897022 0.67239577 0
0.80234116 -15.350288 -12.511019 -0.040231667 0.84149921 0.53875822 0
2.4504845 -15.229682 -12.482657 -0.15096289 0.90853989 0.38957095 0
3.5208075 -15.04225 -12.243751 -0.25684422 0.96645284 0 0
23.60269 -15.94302 -12.466058 0.64386773 -0.43592137 0.62881386 0
24.265959 -15.581321 -13.045214 0.79401374 -0.51822156 0.31778693 0
26.560476 -15.864384 -12.712302 -0.85463858 0.51922345 5.5902568e-05 0
27.060934 -15.042333 -12.476466 -0.85463846 0.51922333 0.00044722029 0
-27.497686 -14.255313 -12.756012 0.89299077 0.45007485 -0.00022447217 0
-24.862858 -14.197806 -12.716442 -0.74582911 -0.44042447 0.49976516 0
-23.892849 -14.76055 -12.045799 -0.48590949 -0.24546131 0.83883291 0
-7.5120602 -13.54105 -12.4738 0.4184829 0.90822375 -0.0012956096 0
-6.7371984 -13.82955 -12.486877 0.41256264 0.84479761 0.34074789 0
-5.1501112 -14.273682 -12.539622 0.17467186 0.66503519 0.72609776 0
-3.8184519 -14.274649 -12.649997 0.09917669 0.16711587 0.98093641 0
-2.2292364 -14.251048 -12.700005 -0.00088758889 0.012118304 0.99992621 0
-0.71644741 -14.195716 -12.700006 0.00015205823 0.00019550341 1 0
0.80201405 -14.250371 -12.700006 -4.8506429e-12 -0.00012218962 1 0
2.1212864 -14.348518 -12.700002 -3.3707503e-05 -0.00030336744 0.99999994 0
3.8381193 -14.362052 -12.624812 -0.065079384 0.24600405 0.96708155 0
5.1945415 -14.194421 -12.552807 -0.23258665 0.58773321 0.77490205 0
6.53408 -13.833405 -12.519728 -0.38858542 0.61771619 0.68368715 0
23.9758 -14.856 -12.1346 0.55770993 -0.33785897 0.75816286 0
24.767824 -14.358144 -12.733303 0.74080926 -0.4393304 0.50812441 0
27.577148 -14.097821 -12.694003 -0.90285075 0.42995426 0.0001160819 0
-28.502899 -12.041849 -12.681999 0.91386378 0.40601891 -0.0012889496 0
-28.168539 -12.792822 -12.743553 0.91386425 0.40601927 -0.00060151028 0
-25.819759 -12.677951 -12.928228 -0.83437103 -0.37091866 0.4077307 0
-25.252981 -12.936568 -12.326924 -0.63749492 -0.30403242 0.70792967 0
-9.4198322 -12.229429 -12.427543 0.55264151 0.80514359 0.21524659 0
-8.119832 -12.799061 -12.558863 0.36822757 0.51247543 0.77574319 0
-6.6246276 -12.747565 -12.700006 4.2500738e-05 0.0004250074 0.99999982 0
-5.2149801 -12.750506 -12.700003 0.00042766382 -0.00042766382 0.99999982 0
-3.7553604 -12.756196 -12.700006 -0.00015913069 -0.00020459661 1 0
-2.2922618 -12.706676 -12.700005 4.6548441e-05 -9.3096882e-05 1 0
-0.82403141 -12.940781 -12.700005 -7.5193631e-05 0.00012532272 1 0
0.72219115 -12.810719 -12.700006 0.00013329778 -1.5874833e-11 1 0
2.246659 -12.659329 -12.700006 4.0729879e-05 0.00012218964 1 0
3.7490387 -12.799725 -12.700006 0.00028239383 0.0002823938 0.99999994 0
5.3800602 -12.798676 -12.700004 -6.4675262e-12 0.00016291956 1 0
6.6795259 -12.758616 -12.700005 -0.00011920941 -0.00016689317 1 0
8.2011652 -12.821844 -12.51484 -0.40061569 0.5419361 0.73879111 0
9.3870592 -12.244755 -12.438916 -0.53635871 0.79946154 0.27051899 0
25.309826 -12.920501 -12.34476 0.6438961 -0.32312179 0.69353455 0
25.84544 -12.434246 -12.780909 0.79187256 -0.38008228 0.47799101 0
28.148369 -12.838127 -12.798244 -0.91386449 0.40601936 0.00022006471 0
28.5135 -12.0179 -13.3304 -0.91386378 0.40601891 0.0012889496 0
-28.868546 -11.209162 -12.843161 0.92611438 0.37718859 0.0063941916 0
-26.261097 -11.298781 -12.640693 -0.74263769 -0.32916945 0.58321244 0
-25.465599 -11.7433 -12.0166 -0.45144412 -0.21747304 0.86539221 0
-10.95627 -10.847889 -12.423023 0.68932414 0.71259201 0.130556 0
-9.6934967 -11.289689 -12.645722 0.12922095 0.1245926 0.98375744 0
-8.3485832 -11.266462 -12.700006 -0.00016291949 0.00024437925 0.99999994 0
-6.8498158 -11.274966 -12.700002 -0.00030336744 -0.00010112248 0.99999994 0
-5.1527462 -11.338739 -12.700003 3.1532814e-05 -0.00028379538 1 0
-3.7609346 -11.347762 -12.700005 0.00015434482 0.00030868963 0.99999988 0
-2.3350153 -11.29835 -12.700004 7.9258149e-05 0.00044912953 0.99999988 0
-0.75699359 -11.262445 -12.700006 -0.00032583898 -0.00010861299 0.99999994 0
0.80591929 -11.250431 -12.700006 -1.9167002e-05 0.00047917495 0.99999994 0
2.2388401 -11.376725 -12.700006 0.00026659557 -0.00013329778 1 0
3.8195312 -11.221192 -12.700003 0.00012218968 0.00042766388 0.99999994 0
5.1193337 -11.28932 -12.700005 0.00051203271 -0.00032583901 0.99999982 0
6.6642928 -11.224396 -12.700004 -2.6419391e-05 -7.9258141e-05 1 0
8.1921577 -11.270176 -12.700006 -2.1722595e-05 -2.1722595e-05 1 0
9.9002237 -11.376873 -12.538641 -0.42936546 0.45638779 0.77933013 0
10.812852 -10.939248 -12.491673 -0.69550413 0.58609742 0.41564879 0
25.420551 -11.835649 -12.016399 0.45144412 -0.21747304 0.86539221 0
26.33794 -11.265322 -12.717699 0.78849941 -0.35369265 0.50316012 0
28.799767 -11.372405 -12.77725 -0.91798991 0.3965759 0.0047012838 0
-29.354088 -9.817255 -12.682205 0.95839262 0.2854532 0.00010411639 0
-27.185524 -9.6247959 -13.066299 -0.88346374 -0.35470515 0.30606544 0
-26.694843 -9.865428 -12.453369 -0.71621507 -0.27972975 0.63936472 0
-12.242213 -9.3701515 -12.391567 0.78021443 0.53507584 0.32397422 0
-11.345515 -9.8352146 -12.619546 0.15596883 0.14133248 0.97759855 0
-9.7161369 -9.7569857 -12.700005 7.5193639e-05 7.5193631e-05 1 0
-8.1671419 -9.7336235 -12.700002 -0.00023595247 0.00050561235 0.99999982 0
-6.7474985 -9.7698917 -12.700005 -4.8875852e-05 0.00019550344 1 0
-5.303164 -9.7425623 -12.700004 8.3787199e-05 0.00019550347 1 0
-3.7799001 -9.8055744 -12.700004 0.00034500606 0.00057501008 0.99999976 0
-2.2003701 -9.5437012 -12.700002 -0.00013964533 6.9822665e-05 1 0
-0.70381784 -9.774868 -12.7 -0.00024437931 -9.7012884e-12 0.99999994 0
0.75721163 -9.8896503 -12.700006 -0.00038646022 -2.2732938e-05 0.99999994 0
2.3495338 -9.7856264 -12.700006 9.3096882e-05 -5.5435929e-12 1 0
3.7893395 -9.6611233 -12.700006 0.00011366479 -0.00015913069 1 0
5.3075185 -9.7266493 -12.700005 0.00016689319 -0.0001192094 1 0
6.9008298 -9.6782579 -12.700001 -0.00052635546 -0.00015038726 0.99999988 0
8.2204494 -9.812685 -12.7 0.00043010761 -0.00019550345 0.99999994 0
9.8876476 -9.6518879 -12.700005 -0.00032583904 -0.0001396453 0.99999988 0
11.340202 -9.9253759 -12.590207 -0.27124274 0.26966545 0.92396319 0
12.115229 -9.5984631 -12.294914 -0.79493839 0.59110582 0.13662697 0
26.665468 -9.8206053 -12.371081 0.68804741 -0.24883272 0.68166935 0
27.208866 -9.5759373 -13.084724 0.88573623 -0.34710851 0.30819967 0
29.378666 -9.7352009 -12.768228 -0.9583925 0.28545317 -0.00052058202 0
-30.016474 -7.604825 -12.690426 0.9583925 0.28545314 0.00060734531 0
-29.802397 -8.3198338 -12.669078 0.95839244 0.28545308 -0.00063626672 0
-27.484779 -8.2699747 -12.800989 -0.85413623 -0.22247872 0.47005805 0
-26.861153 -8.5347967 -12.104782 -0.59618038 -0.19234398 0.77946949 0
-12.869607 -8.2038994 -12.556623 0.66858292 0.44674277 0.59448957 0
-11.292486 -8.3158636 -12.700005 9.7751719e-05 0.00014662759 1 0
-9.8248587 -8.2862434 -12.700002 3.3707522e-05 -0.00010112249 1 0
-8.3859997 -8.2145605 -12.700002 0.00032583912 0.00026067128 0.99999988 0
-6.7866006 -8.3418713 -12.700006 0.00040250691 0.00040250691 0.99999976 0
-5.215138 -8.3534031 -12.700006 -2.1722595e-05 0.00015205823 1 0
-3.6995468 -8.2012577 -12.700005 0.00024437931 0.00014662757 1 0
-2.3069286 -8.2902908 -12.700004 0.00017250306 -0.00017250309 1 0
-0.63126886 -8.1972427 -12.700006 0.00063264027 -0.020082027 0.99979812 0
0.85147542 -8.2659369 -12.700006 -0.01035706 -0.012696438 0.99986577 0
2.2131348 -8.2921877 -12.700006 0.0002346041 3.9100683e-05 1 0
3.7170503 -8.3291941 -12.700006 -0.00017250299 -5.7500994e-05 1 0
5.1903815 -8.2224073 -12.700006 -2.0798239e-05 -0.00014558763 1 0
6.7495775 -8.2496862 -12.700005 -2.5064548e-05 -0.00032583906 0.99999988 0
8.4199324 -8.2201929 -12.700001 0.00018102174 -3.6204339e-05 1 0
9.7154226 -8.27386 -12.700005 0.00011920941 0.00021457694 1 0
11.222805 -8.3999758 -12.700005 -7.9258149e-05 -0.00050196826 0.99999988 0
12.785548 -8.1818686 -12.531017 -0.54161936 0.35464826 0.76215023 0
13.5195 -7.5194302 -12.1432 -0.90084976 0.43412891 0.0013036897 0
26.835936 -8.6829882 -12.119067 0.56686723 -0.38382116 0.72893268 0
27.501581 -8.1773643 -12.7922 0.85169458 -0.23636639 0.46770427 0
29.803143 -8.3173447 -12.691165 -0.95837444 0.28551373 0.00055187428 0
30.032299 -7.5519352 -12.37685 -0.95839268 0.28545317 0 0
-30.232431 -6.7444029 -12.81811 0.98047352 0.19664446 -0.001624246 0
-27.794849 -6.7388663 -12.673882 -0.81404638 -0.22362848 0.53602135 0
-13.850576 -6.6896257 -12.416119 0.84289253 0.39066321 0.3700195 0
-12.837234 -6.6888156 -12.700004 -2.7929067e-05 0.00019550347 1 0
-11.0996 -6.856741 -12.700004 2.792906e-05 -0.00013964533 1 0
-9.808301 -6.6842752 -12.700005 0.00025724137 -0.00015434483 0.99999988 0
-8.1433744 -6.8292971 -12.700003 -0.00030547418 0.0001832845 0.99999994 0
-6.7416625 -6.7661295 -12.700006 7.5193617e-05 7.5193602e-05 1 0
-5.2318621 -6.8426828 -12.700005 0.00023777447 -7.9258163e-05 1 0
-3.7674305 -6.7699056 -12.613809 -0.21941544 -0.34394112 0.91299582 0
-2.3466783 -7.1761708 -12.487273 -0.20866063 -0.83801889 0.50416768 0
-0.80947793 -7.4287701 -12.386159 -0.17160495 -0.9755829 0.13707589 0
0.81366944 -7.4319201 -12.440521 0.072268829 -0.99123842 0.11056007 0
2.2850444 -7.2056832 -12.481874 0.23447125 -0.51702094 0.82323295 0
3.8651233 -6.7144728 -12.537508 0.31418294 -0.53604108 0.78354895 0
5.3328657 -6.6651464 -12.700006 0.030861685 -0.011337733 0.99945933 0
6.6254382 -6.6546154 -12.700005 -7.9258163e-05 -0.00013209693 1 0
8.2555885 -6.6666045 -12.700002 -0.00030336744 0.00023595248 0.99999994 0
9.8138285 -6.8909798 -12.700005 5.1448271e-05 -6.1271296e-12 1 0
11.324524 -6.8881855 -12.700006 -0.0001629195 0.00020364938 1 0
12.746695 -6.7247281 -12.700006 -0.0014468865 -0.00017189138 0.99999893 0
13.875436 -6.6618462 -12.497646 -0.84483117 0.36381397 0.39230052 0
27.88641 -6.7023888 -12.773291 0.85062075 -0.22529699 0.47506392 0
30.196331 -6.9067969 -12.660766 -0.97398096 0.22661565 -0.0025473365 0
-30.495329 -5.2098885 -12.73971 0.98666567 0.16276005 7.8313322e-05 0
-28.5481 -4.658565 -13.32125 -0.96965045 -0.16964573 0.1760637 0
-28.09833 -5.2786665 -12.649566 -0.83128989 -0.10084531 0.54661453 0
-14.180215 -5.316412 -12.564976 0.4336623 0.15980589 0.88679147 0
-12.634889 -5.1831803 -12.700004 8.8865214e-05 8.8865228e-05 1 0
-11.18132 -5.2056179 -12.700006 -0.00044802853 0.00040729865 0.99999976 0
-9.8397274 -5.2414789 -12.700004 -6.8479692e-12 -5.7501016e-05 1 0
-8.2033787 -5.2689962 -12.700005 -0.00032583906 0.00012532269 0.99999988 0
-6.8320851 -5.232398 -12.700006 -0.00015640272 -0.00011730203 1 0
-5.3749995 -5.3981481 -12.470023 -0.53643924 -0.49628299 0.68259519 0
5.3952889 -5.365355 -12.498442 0.54292887 -0.57075542 0.61600846 0
6.7513719 -5.2498469 -12.700006 0.014200411 -0.0018196906 0.99989754 0
8.1070566 -5.4153996 -12.700004 -2.9621748e-05 8.8865214e-05 1 0
9.7752295 -5.33218 -12.700004 -0.00019550347 2.792906e-05 1 0
11.328427 -5.313889 -12.700005 -2.3841887e-05 2.3841876e-05 1 0
12.850924 -5.1801767 -12.700006 -8.8865199e-05 0.00017773038 1 0
14.302547 -5.1461053 -12.513439 -0.62313372 0.22869071 0.74793375 0
28.108238 -5.3254747 -12.645266 0.82782447 -0.12587973 0.54668182 0
28.532232 -4.8961601 -13.455632 0.97826403 -0.1785582 0.10543422 0
30.508718 -5.1283731 -12.763225 -0.98666573 0.16276005 0 0
-30.734798 -3.7517169 -12.741012 0.98586982 0.16659553 0.017509477 0
-28.657623 -3.5764046 -13.103644 -0.94359899 -0.15257485 0.2938399 0
-28.198885 -3.7577078 -12.388096 -0.73601085 -0.092884988 0.67056721 0
-15.100642 -3.3393998 -12.442086 0.96566337 0.2596308 0.0092819668 0
-14.182217 -3.802737 -12.638671 0.16031742 0.048231114 0.98588645 0
-12.820221 -3.7477987 -12.700006 0.00027370476 0.00011730203 1 0
-11.340743 -3.9726524 -12.700006 0.00015913069 -6.8198868e-05 1 0
-9.7998896 -3.7174838 -12.700006 0.00030994441 -0.00045299571 0.99999988 0
-8.1027355 -3.7164397 -12.700005 -0.00032583904 5.5435925e-12 0.99999988 0
-6.6348739 -3.8465219 -12.510468 -0.58863264 -0.37146184 0.71800256 0
6.6762018 -3.8325095 -12.537453 0.56676161 -0.38234147 0.72979194 0
8.2868805 -3.637013 -12.700004 -0.00023000404 0.00040250708 0.99999976 0
9.7405453 -3.7605286 -12.700003 -0.00018328453 -0.00012218968 1 0
11.267444 -3.6586788 -12.700004 0.00010861302 0.00043445209 0.99999988 0
12.806036 -3.7509766 -12.700005 0.00022558088 0.00012532269 0.99999988 0
14.479246 -3.8363304 -12.58979 -0.44497874 0.15830001 0.88143921 0
15.058615 -3.4959371 -12.439842 -0.96887404 0.20914872 0.13243847 0
28.17643 -3.9694486 -12.406906 0.753371 -0.095881052 0.65056825 0
28.656738 -3.593349 -13.121263 0.94465101 -0.12469774 0.303455 0
30.72028 -3.8403525 -12.77905 -0.98735398 0.15850864 -0.0026770046 0
-30.89352 -2.1517015 -12.696865 0.99790132 0.063976809 -0.0099932747 0
-28.717396 -2.2748806 -13.015685 -0.93662512 -0.064685389 0.34430978 0
-28.162737 -2.298681 -12.190253 -0.65400684 -0.055482421 0.75445127 0
-15.259192 -2.1825721 -12.45951 0.90203774 0.099766403 0.4199698 0
-14.242456 -2.2169461 -12.700006 0.00011366479 0.00029552844 1 0
-12.779713 -2.2658498 -12.700006 0.00028510913 -0.00016291949 0.99999994 0
-11.225101 -2.2799811 -12.700006 -5.5331133e-05 -5.5331133e-05 1 0
-9.7232676 -2.1519425 -12.700006 8.1459752e-05 4.8506429e-12 1 0
-8.1685591 -2.187201 -12.700005 0.00018619372 9.309686e-05 0.99999988 0
-7.1650691 -2.3192751 -12.444167 -0.80067998 -0.30909726 0.51319629 0
7.1575036 -2.2697301 -12.464572 0.83868593 -0.3439016 0.4223004 0
8.2857037 -2.2692378 -12.700001 0.00025343039 -0.00039824776 0.99999988 0
9.7002068 -2.3229072 -12.700006 4.2500735e-05 -8.5001469e-05 1 0
11.274693 -2.2426183 -12.700005 0.00027570996 0.00012532269 0.99999988 0
12.647069 -2.1999116 -12.700005 -5.1448264e-05 -0.00051448273 0.99999988 0
14.19794 -2.4326532 -12.700002 0.00018102174 0.00018102174 1 0
15.270835 -2.2263227 -12.410461 -0.94521689 0.083962061 0.3154605 0
28.268047 -2.2575228 -12.286699 0.69191337 -0.059530567 0.71952212 0
28.719257 -2.242609 -12.984343 0.92544264 -0.029075786 0.37777033 0
30.890711 -2.2081397 -12.753188 -0.99872988 0.050382789 0.00024051371 0
-30.968229 -0.6417703 -12.838184 0.99878275 0.049001329 0.0056480812 0
-28.800373 -0.7351765 -12.946215 -0.9319157 -0.031429075 0.36131063 0
-28.25721 -0.71351314 -12.177105 -0.63804162 -0.01469238 0.76986176 0
-15.349507 -0.7361815 -12.520275 0.72567046 0.038731448 0.68695146 0
-14.223341 -0.89484662 -12.700005 0.00034213101 0.00014662757 0.99999988 0
-12.697231 -0.84580308 -12.700004 -5.4306522e-05 0.00032583912 1 0
-11.298967 -0.71809727 -12.700006 -0.0002792906 -9.309686e-05 0.99999988 0
-9.7410336 -0.75942951 -12.700006 8.5001469e-05 -8.5001469e-05 1 0
-8.2650843 -0.73834592 -12.700003 -0.022235576 -0.022691533 0.99949521 0
-7.4468722 -0.65514779 -12.354388 -0.99544495 -0.088951081 0.034310851 0
7.4282107 -0.8954789 -12.449338 0.93872553 -0.26222935 0.223674 0
8.2178564 -0.75645256 -12.700006 0.037381656 -0.018346792 0.99913263 0
9.7383337 -0.69892627 -12.700006 0.00035546071 0.00026659554 0.99999994 0
11.174513 -0.77758366 -12.700006 0.00032583901 -0.00010861299 0.99999994 0
12.754715 -0.69273347 -12.700005 0.00010289655 5.1448282e-05 1 0
14.346552 -0.68155581 -12.700005 2.3841887e-05 -2.3841876e-05 1 0
15.391354 -0.83142298 -12.482388 -0.86169612 0.081613936 0.50081831 0
28.247595 -0.89803094 -12.176505 0.64575005 -0.024868518 0.76314372 0
28.826471 -0.69466197 -13.003704 0.93678319 -0.042838905 0.347278 0
30.962307 -0.76172835 -12.854053 -0.99885923 0.047742195 0.00093177886 0
-30.96246 0.758618 -12.747465 0.9988187 -0.048590526 -0.00042105274 0
-28.780546 0.83799469 -12.92873 -0.91400665 0.038243435 0.40389264 0
-28.356247 0.79221237 -12.26949 -0.7039144 0.035036851 0.70942014 0
-15.33567 0.80093443 -12.45521 0.83856618 -0.069786154 0.54031152 0
-14.269977 0.86828953 -12.700005 0.00010289654 0.00025724137 0.99999988 0
-12.767936 0.75671452 -12.700005 -0.0001754518 -2.5064537e-05 1 0
-11.316203 0.77191365 -12.700004 0.00016291958 -0.00010861304 1 0
-9.7392082 0.87191874 -12.700003 -7.7610323e-12 0.00013033567 1 0
-8.2268496 0.72155869 -12.700003 -0.0028345487 0.016378375 0.99986184 0
-7.4257398 0.91733205 -12.493745 -0.92194486 0.09629932 0.37515891 0
7.4444532 0.67472953 -12.387279 0.98206365 0.14823085 0.11652691 0
8.1971292 0.66317391 -12.700004 0.059120271 0.0036574961 0.99824417 0
9.7185297 0.75854498 -12.700003 -8.8865214e-05 -8.8865228e-05 1 0
11.343416 0.84361815 -12.700005 0.00012532274 0.0001754518 1 0
12.743108 0.79768986 -12.700006 -0.00036656886 0.00020364938 0.99999994 0
14.174834 0.80134255 -12.700004 0.00023000407 -0.00017250306 0.99999988 0
15.364685 0.74093646 -12.475827 -0.9493494 -0.070617504 0.30618453 0
28.220272 0.52693903 -12.138439 0.63481754 0.015405235 0.77250844 0
28.781664 0.90830255 -12.92229 0.91610634 0.035127524 0.39939353 0
30.96814 0.64368975 -12.704659 -0.99901694 -0.044329077 -0.00032392296 0
-30.891537 2.1915708 -12.777577 0.99868721 -0.051214833 -0.00093286415 0
-28.725212 2.2870052 -13.018153 -0.92650568 0.07623639 0.36847693 0
-28.219942 2.1935825 -12.233416 -0.68114471 0.052794293 0.73024285 0
-15.261469 2.2348762 -12.449243 0.95175761 -0.13298254 0.27653751 0
-14.30914 2.3743274 -12.700005 -4.6548426e-05 0.00046548431 0.99999988 0
-12.694911 2.1434519 -12.700006 0.00015913068 0.00034099433 0.99999994 0
-11.258411 2.2795877 -12.700004 -5.4306522e-05 -0.00010861304 1 0
-9.7111979 2.2744424 -12.700004 -2.9621733e-05 -0.00026659566 1 0
-8.3160639 2.2831094 -12.700006 -4.2500735e-05 0.00021250371 1 0
-7.1695127 2.2191479 -12.439069 -0.88514304 0.34866866 0.30814248 0
7.1734686 2.2428794 -12.385279 0.89865595 0.29564828 0.32405183 0
8.2799053 2.3020959 -12.700005 7.9258156e-05 0.00013209695 1 0
9.6907301 2.117029 -12.700005 -7.1525654e-05 0.0002622607 1 0
11.17815 2.1038966 -12.700003 0.00026659566 8.8865199e-05 1 0
12.77907 2.1703937 -12.700004 0.00016291958 0.00010861304 1 0
14.268089 2.2920649 -12.700004 0.00013209692 0.00018493571 1 0
15.236345 2.2538233 -12.453233 -0.82460392 -0.026053365 0.56511033 0
28.257193 2.4084754 -12.280344 0.69179082 0.052563936 0.72018224 0
28.745958 2.1675978 -13.042063 0.93858796 0.071397297 0.33757231 0
30.889502 2.2329109 -12.776608 -0.99873954 -0.050193012 0.00010782637 0
-30.71096 3.8976252 -12.693261 0.98705178 -0.16040055 0.00070538069 0
-28.657732 3.626889 -13.144347 -0.94789237 0.14646386 0.28292847 0
-28.147018 3.9767334 -12.374241 -0.73410589 0.12959175 0.66655415 0
-15.103987 3.3042822 -12.301424 0.96539599 -0.24478486 0.089949593 0
-14.341702 3.8391833 -12.637242 0.29024333 -0.045317955 0.95587921 0
-12.708323 3.6998763 -12.700005 0.00010289656 0.00015434483 1 0
-11.356918 3.736089 -12.700004 0.00010861304 0.00021722607 1 0
-9.7196331 3.7250791 -12.700004 -0.00016291956 0.00016291956 1 0
-8.1798677 3.6671321 -12.700006 0.00023894862 0.00015205822 1 0
-6.6931715 3.9939919 -12.565322 -0.46294513 0.35449219 0.81241441 0
-5.9949598 4.4623699 -12.4074 -0.81336421 0.58175313 0.0013624204 0
6.6750212 3.8530602 -12.565986 0.51765245 0.29183269 0.80428207 0
8.0835276 3.7619305 -12.700003 0.00038508265 2.9621733e-05 1 0
9.78267 3.7820697 -12.700002 0.0005585812 0.00062840385 0.99999964 0
11.216212 3.7019095 -12.700006 0.00022558082 0.00015038722 0.99999994 0
12.796157 3.8240769 -12.700006 8.1459759e-05 -4.8506429e-12 1 0
14.413766 3.7212598 -12.624481 -0.35359517 -0.028148688 0.93497497 0
15.10689 3.3248186 -12.349778 -0.96693039 -0.24572673 0.06829302 0
28.206682 3.7284837 -12.39067 0.74893194 0.10346196 0.65452003 0
28.644455 3.6342893 -13.10247 0.94185621 0.26164517 0.21082859 0
30.748844 3.6671269 -12.758414 -0.98662448 -0.16300359 0.0013978896 0
-30.489332 5.2463593 -12.797587 0.98666567 -0.16276003 3.4014865e-05 0
-28.539877 4.7343745 -13.35323 -0.96728379 0.15798888 0.19849814 0
-28.081318 5.2258525 -12.618363 -0.8173191 0.13855657 0.55927771 0
-14.174727 5.1746354 -12.556632 0.53946805 -0.16853005 0.8249678 0
-12.738308 5.3129439 -12.700005 -2.6419379e-05 7.9258156e-05 1 0
-11.243623 5.245626 -12.700002 -0.00013964534 0.00013964534 1 0
-9.8178082 5.2894506 -12.700004 -0.00018493571 0.00013209693 1 0
-8.1595907 5.2119408 -12.700004 -3.1532829e-05 -0.00015766411 1 0
-6.7493076 5.2548118 -12.700005 0.00012532269 0.00037596811 0.99999988 0
-5.2532949 5.4870677 -12.503619 -0.5201031 0.67027384 0.52936345 0
5.3269281 5.371222 -12.514309 0.52532679 0.64967072 0.54950845 0
6.6810131 5.2098904 -12.700005 -0.0001754518 -0.00037596811 0.99999988 0
8.2239037 5.2159157 -12.700004 -0.00013209693 -0.00023777447 1 0
9.9106789 5.1829586 -12.700004 0.00030721971 0.00019550344 0.99999988 0
11.222118 5.1597052 -12.700005 0.00021457694 2.3841887e-05 1 0
12.782743 5.3517575 -12.700004 0.00017250305 0.00046000813 0.99999988 0
14.213034 5.2130399 -12.499235 -0.70386106 -0.23905556 0.66890365 0
28.100586 5.385529 -12.637564 0.815364 0.16321483 0.555466 0
28.544685 4.6487699 -13.30285 0.9648087 0.16923049 0.20125881 0
30.481344 5.2949982 -12.783948 -0.98666573 -0.16276006 -0.00016717955 0
-30.230017 6.7414641 -12.693433 0.97795874 -0.20879765 -0.00057041581 0
-27.785368 6.7729478 -12.65847 -0.80111581 0.21074016 0.56018037 0
-13.839612 6.5793171 -12.534247 0.61757743 -0.2585195 0.74280941 0
-12.8047 6.7252154 -12.700005 0.0003601379 -5.1448278e-05 0.99999988 0
-11.245005 6.6606579 -12.700006 0.00047739199 0.00029552839 0.99999982 0
-9.727829 6.7880335 -12.700004 0.00032583912 0.00050356955 0.99999988 0
-8.1994553 6.6718025 -12.700005 7.1525632e-05 0.0001192094 1 0
-6.6601238 6.9460058 -12.700003 -0.00030336744 -0.00037078242 0.99999988 0
-5.334075 6.6934657 -12.700006 4.2500738e-05 -0.00046750807 0.99999982 0
-3.7898476 6.8065314 -12.572554 -0.18269841 0.43486908 0.88176537 0
-2.2257266 7.1784425 -12.472141 -0.24072076 0.89103043 0.38486123 0
-0.59826916 7.4506793 -12.34894 -0.088750742 0.98918998 0.11673227 0
0.55900139 7.4585276 -12.433211 0.17128249 0.89452672 0.41289729 0
2.3808813 7.1129503 -12.474232 0.34679386 0.88852865 0.30041778 0
3.874655 6.7438593 -12.563889 0.22176006 0.4296864 0.87532401 0
5.2724552 6.7320576 -12.700005 0.00015434483 0.00015434482 1 0
6.8033366 6.7667685 -12.700005 -0.00011920941 0.00021457694 1 0
8.2558374 6.7040133 -12.700006 0.00018798403 0.00011279042 1 0
9.8075275 6.8721962 -12.700005 -2.3841876e-05 7.1525639e-05 1 0
11.24996 6.6267333 -12.700006 -6.8198875e-05 6.8198853e-05 1 0
12.774025 6.6381178 -12.700005 0.00027570996 2.5064548e-05 0.99999988 0
13.823327 6.6741118 -12.458544 -0.7469241 -0.3772701 0.54751402 0
27.848774 6.6617188 -12.727057 0.84153485 0.19039196 0.50553942 0
30.210657 6.8620944 -12.804076 -0.98247653 -0.18555853 -0.017545519 0
-30.02725 7.5688119 -12.684933 0.95839262 -0.28545314 -0.00040489691 0
-29.82543 8.2428885 -12.87178 0.95839256 -0.28545314 0.00036440734 0
-27.558971 8.1671991 -12.902033 -0.87220919 0.25003245 0.42039841 0
-26.865667 8.3901272 -12.079135 -0.55147374 0.18287346 0.81390053 0
-12.852816 8.2233286 -12.53105 0.63965964 -0.47294426 0.60593665 0
-11.33729 8.2473516 -12.700003 3.1532829e-05 -3.1532829e-05 1 0
-9.6398172 8.274251 -12.700006 0.0002823938 0.00023894862 0.99999994 0
-8.2872639 8.2435017 -12.700003 7.275968e-12 -0.00024437936 1 0
-6.7445116 8.214221 -12.700005 -0.00014662759 0.00029325517 1 0
-5.3242955 8.2429008 -12.700006 0.00023460407 -3.9100672e-05 1 0
-3.7653322 8.1798477 -12.700005 0.00060512958 -4.6548419e-05 0.99999982 0
-2.1958842 8.1828852 -12.700005 -0.0001754518 0.00022558088 0.99999988 0
-0.73395663 8.2050581 -12.700006 -0.012158894 0.015751185 0.99980205 0
0.7118215 8.1473417 -12.700004 0.015482104 0.047556505 0.99874866 0
2.2666187 8.2688951 -12.700005 2.5064537e-05 -0.0001754518 1 0
3.6386333 8.2455988 -12.700005 -0.00023274215 -9.309686e-05 0.99999988 0
5.2779951 8.1964407 -12.700006 -0.00018718411 -0.00027037703 1 0
6.7587576 8.2649508 -12.700005 0.00022558088 -2.5064535e-05 0.99999988 0
8.2288485 8.3458166 -12.700006 -0.00028510913 -8.1459744e-05 0.99999994 0
9.8000307 8.1937199 -12.700005 9.7751705e-05 4.8875863e-05 1 0
11.295528 8.2807169 -12.700005 -0.0002622607 2.3841876e-05 1 0
12.79965 8.2177191 -12.597286 -0.43541273 -0.29732558 0.84971356 0
13.5126 7.5338702 -12.0593 -0.887631 -0.45150399 0.090859897 0
26.833542 8.6134262 -12.10012 0.63575768 0.11672358 0.76301241 0
27.530373 8.1664753 -12.84549 0.8660326 0.22239853 0.44780174 0
29.794647 8.3457432 -12.770087 -0.95834029 -0.285629 0.0001103059 0
30.02268 7.583952 -12.610118 -0.95839262 -0.28545314 -0.00024293814 0
-29.377331 9.7396479 -12.766585 0.95838362 -0.28548339 0.00011029735 0
-27.195942 9.602808 -13.050274 -0.87143379 0.34383461 0.34982982 0
-26.67116 9.885685 -12.400114 -0.70034313 0.24106798 0.67186737 0
-12.24233 9.4282789 -12.152029 0.81336498 -0.58175373 0.00019463166 0
-11.285275 9.8643312 -12.62958 0.17111062 -0.12571006 0.97719908 0
-9.8139505 9.7576609 -12.700006 0.00025500444 0.00021250368 0.99999994 0
-8.1519966 9.6789904 -12.700005 0.00037596811 0.00037596811 0.99999982 0
-6.7427645 9.6861706 -12.700005 5.8207727e-12 0.00024437931 1 0
-5.1532745 9.7422342 -12.700004 -0.00017250302 0.00051750906 0.99999976 0
-3.6664901 9.8156137 -12.700006 6.8198868e-05 2.273294e-05 1 0
-2.4096999 9.7519627 -12.700005 0.00030994447 7.1525639e-05 1 0
-0.82172894 9.668293 -12.700005 7.1525639e-05 7.1525632e-05 1 0
0.79387373 9.6486454 -12.700005 -5.5435929e-12 -5.5435929e-12 1 0
2.1602733 9.7138262 -12.700005 5.5435925e-12 0.00046548431 0.99999988 0
3.8599927 9.8639374 -12.700004 -0.00013209695 -0.00018493571 1 0
5.1620173 9.7125349 -12.700006 0.00023894865 -0.0001520582 1 0
6.8036761 9.7656803 -12.700006 0.00011366477 -6.8198868e-05 1 0
8.2576914 9.7475033 -12.700005 0.00016689318 7.1525654e-05 1 0
9.8722868 9.7591448 -12.700006 -0.00021083701 9.5834999e-05 1 0
11.307426 9.7905064 -12.666362 -0.097382188 -0.081990212 0.99186403 0
12.225452 9.416172 -12.413733 -0.74165064 -0.65124422 0.160734 0
26.68586 10.026309 -12.502143 0.7212441 0.30270091 0.6230402 0
27.255154 9.4590778 -13.090611 0.89048296 0.33737311 0.30531883 0
29.362528 9.7891188 -12.717115 -0.95838284 -0.2854856 -0.00044453773 0
-28.875584 11.196754 -12.721476 0.92574412 -0.37815017 -0.0005955064 0
-26.243513 11.266072 -12.565083 -0.7547043 0.29890403 0.58401865 0
-10.86616 10.877438 -12.471755 0.56421381 -0.60434669 0.56251919 0
-9.8693829 11.350753 -12.591311 0.19115578 -0.20215698 0.96051651 0
-8.3119717 11.251878 -12.700005 0.00013209693 2.6419391e-05 1 0
-6.7071085 11.152741 -12.700005 -4.8875852e-05 4.8875852e-05 1 0
-5.3665805 11.186828 -12.700005 -0.00041158617 -0.00015434483 0.99999988 0
-3.7564003 11.247415 -12.700006 0.00017250297 0.00028750495 0.99999994 0
-2.1960778 11.219621 -12.700005 -0.0002622607 0.00026226067 0.99999988 0
-0.76429093 11.270485 -12.700006 0.0004561746 -0.00015205819 0.99999994 0
0.60138571 11.226736 -12.700002 -0.00013964534 -0.00013964534 1 0
2.130352 11.261176 -12.700004 0.00042766388 -0.00012218968 0.99999994 0
3.8225274 11.116408 -12.700006 0.00044432591 -0.00017773036 0.99999994 0
5.3207464 11.250423 -12.700006 6.8198868e-05 -0.00025006256 1 0
6.7624731 11.31367 -12.700004 -0.00013209695 0.00029061324 1 0
8.2572613 11.163669 -12.700005 -5.5435929e-12 -0.00013964532 1 0
9.8272247 11.357186 -12.615877 -0.15023173 -0.17136455 0.97368616 0
10.910674 10.840787 -12.528232 -0.37451655 -0.5752098 0.7272352 0
26.260984 11.300658 -12.631721 0.75402415 0.33109659 0.56729424 0
28.811152 11.346148 -12.62948 -0.91666347 -0.39965993 -9.4342417e-05 0
-28.514765 12.015201 -12.796833 0.91386449 -0.40601924 -0.00042965024 0
-28.163998 12.803007 -12.801202 0.91386443 -0.40601933 0.00013712238 0
-25.78591 12.699721 -12.887261 -0.80126452 0.40247294 0.44270825 0
-25.230469 13.014931 -12.344983 -0.64783496 0.24388446 0.72168571 0
-9.3563709 12.254642 -12.546493 0.53464687 -0.78877187 0.30330136 0
-8.1042433 12.790975 -12.531401 0.28301141 -0.43240455 0.85611385 0
-6.7292514 12.66858 -12.700003 0.0023771054 -0.0035224892 0.99999094 0
-5.149786 12.654862 -12.700004 -0.00039629074 -0.000343452 0.99999988 0
-3.6946964 12.67663 -12.700005 9.309686e-05 0.00037238744 0.99999988 0
-2.2085271 12.705581 -12.700006 0.00015913069 -0.00020459661 1 0
-0.76492178 12.723566 -12.700006 -0.00011366479 0.00020459661 1 0
0.75740892 12.713772 -12.700005 0.00034213101 -0.00014662757 0.99999988 0
2.3534427 12.671948 -12.700003 0.00038508265 8.8865214e-05 1 0
3.7290211 12.848881 -12.700005 0.00015434482 -0.00010289655 1 0
5.3574638 12.740443 -12.700006 0.00011362024 0.00034103886 0.99999994 0
6.7851472 12.643836 -12.700005 -0.00027570996 -0.00022558088 0.99999988 0
8.1991262 12.876425 -12.479123 -0.46938595 -0.6902439 0.55067253 0
9.3200321 12.247562 -12.510491 -0.62314087 -0.68266952 0.38165134 0
25.172266 13.019231 -12.263906 0.62144727 0.30071911 0.72344404 0
25.832848 12.614236 -12.891631 0.81545162 0.38343009 0.43361279 0
28.188848 12.74719 -12.714842 -0.91386449 -0.40601936 -3.1437819e-05 0
28.510099 12.025576 -12.483974 -0.91386455 -0.40601924 0 0
-27.501957 14.252447 -12.805088 0.89017129 -0.45562327 -0.0016027602 0
-25.52195 13.619499 -13.2568 -0.87219983 0.41715398 0.2554408 0
-24.833071 14.36263 -12.833929 -0.77085423 0.45298356 0.44787231 0
-23.863535 14.850533 -12.0612 -0.45231262 0.29612947 0.84126133 0
-7.5324697 13.531651 -12.3402 0.4184829 -0.90822375 0.0012956096 0
-6.7974591 13.817478 -12.429528 0.41146246 -0.86035436 0.30081394 0
-5.2651315 14.234242 -12.497552 0.25907174 -0.69973189 0.66577548 0
-3.6851389 14.441474 -12.611971 0.059935879 -0.24063003 0.96876454 0
-2.2157075 14.292212 -12.700004 0.0004747941 8.3787199e-05 0.99999988 0
-0.70371264 14.24329 -12.700006 0.0004367629 0.00014558762 0.99999994 0
0.79538524 14.219846 -12.700004 -7.9258156e-05 0.00023777447 1 0
2.3114483 14.247005 -12.700005 -0.00012532272 -0.00017545182 1 0
3.8592014 14.325279 -12.576356 -0.16103987 -0.40019605 0.90216917 0
5.1779599 14.149337 -12.581352 -0.13866223 -0.42415255 0.894912 0
6.6830225 13.859548 -12.425236 -0.42186597 -0.78702533 0.4501335 0
7.5473299 13.5248 -12.609 -0.427571 -0.90381998 0.017102901 0
23.9914 14.6675 -12.0638 0.49605134 0.1702861 0.85143155 0
24.787169 14.195405 -12.633805 0.72856063 0.39591137 0.55897546 0
27.508532 14.235529 -12.726504 -0.89460826 -0.44685107 -0.00035854874 0
-27.030167 15.0929 -12.9141 0.8546378 -0.51922292 0.0013416598 0
-26.606556 15.788709 -12.639506 0.85463846 -0.51922339 0.00018295385 0
-24.326162 15.490586 -13.081557 -0.82343417 0.4691698 0.31911755 0
-23.585852 15.9537 -12.467787 -0.64088041 0.42007142 0.64250481 0
-3.3947322 15.073441 -12.363947 0.21636528 -0.97221231 0.089383177 0
-2.2435281 15.257746 -12.456719 0.079906605 -0.92412895 0.37363163 0
-0.56316459 15.364475 -12.497585 0.011935452 -0.81417906 0.58049119 0
0.69374299 15.348675 -12.544797 0.083597466 -0.75869203 0.64606339 0
2.066371 15.242155 -12.541255 -0.0042374707 -0.75028628 0.66109943 0
3.2550278 15.091644 -12.560788 -0.21256356 -0.75422782 0.6212545 0
23.565374 16.011887 -12.465259 0.63364756 0.45768169 0.6237132 0
24.270306 15.467389 -12.901183 0.81132644 0.4360089 0.38941705 0
26.584288 15.825276 -12.703601 -0.8546384 -0.51922345 -0.00042368245 0
27.043951 15.07025 -12.77185 -0.85463858 -0.51922333 0 0
-25.844896 17.039762 -12.849409 0.85463852 -0.51922345 -3.1201431e-05 0
-25.360535 17.81362 -12.812957 0.8041057 -0.59414929 0.020013649 0
-22.991182 17.164785 -12.790835 -0.70235121 0.5397507 0.46408194 0
-22.18796 17.629751 -12.278243 -0.55350929 0.40817568 0.72596145 0
22.19315 17.567108 -12.2224 0.49756879 0.42203093 0.75783587 0
23.063629 17.166262 -12.92669 0.73531252 0.55232674 0.39274761 0
25.332098 17.856831 -12.75595 -0.78782165 -0.61465383 -0.039214935 0
25.858948 17.016701 -12.678912 -0.85458809 -0.51930648 -7.0582195e-05 0
-24.587477 18.788416 -12.765575 0.7810027 -0.62452757 -0.00020442848 0
-22.5338 18.224001 -13.4799 -0.74902946 0.65521741 0.098209366 0
-21.72056 18.710941 -12.7512 -0.65190774 0.58787751 0.47897434 0
-20.789083 19.08695 -12.158501 -0.47205058 0.44125652 0.76319128 0
20.75108 19.253 -12.240199 0.54406232 0.40981397 0.73215348 0
21.750809 18.691662 -12.75545 0.66038066 0.57067281 0.48808816 0
22.578867 18.111933 -13.3133 0.79149431 0.57503891 0.2070432 0
24.661791 18.695549 -12.725094 -0.7810027 -0.62452757 -0.00026395984 0
-23.339235 20.344854 -12.864415 0.76824111 -0.64016038 0.00042438364 0
-21.1073 19.751583 -13.253201 -0.74246007 0.56065035 0.36663914 0
-20.257849 20.319016 -12.770308 -0.61376619 0.63007408 0.47570756 0
-19.183588 20.822765 -12.244656 -0.49311036 0.38694084 0.77917844 0
19.226799 20.793222 -12.245631 0.43553984 0.53796679 0.72173184 0
20.256203 20.251884 -12.723803 0.62211001 0.5861432 0.51905227 0
21.173248 19.685575 -13.263662 0.72881055 0.6553064 0.1985161 0
23.402924 20.267509 -12.735138 -0.77636397 -0.63028473 -0.0003167348 0
-22.674519 21.110321 -13.097241 0.69456887 -0.71942484 -0.0013808497 0
-21.869251 21.88796 -12.77301 0.69456935 -0.71942574 3.0685587e-05 0
-19.523001 21.3745 -13.4476 -0.66914833 0.72121036 0.17915408 0
-18.703476 21.77808 -12.827435 -0.54896259 0.7060762 0.4473215 0
-17.558565 22.133192 -12.203193 -0.41387507 0.50210118 0.75934303 0
17.579178 22.233067 -12.266364 0.41300488 0.58017582 0.70201355 0
18.711449 21.717884 -12.743422 0.58159631 0.65679252 0.47996795 0
19.63196 21.180002 -13.171071 0.69122815 0.67780644 0.25056368 0
21.842117 21.914165 -12.83976 -0.69456935 -0.71942574 0.00035324093 0
22.647013 21.136887 -13.007413 -0.69702733 -0.71704429 -0.0006925381 0
-21.118824 22.612633 -12.661167 0.69456953 -0.71942556 0.00015342787 0
-20.37327 23.322462 -12.813963 0.67785531 -0.7351954 5.2133251e-05 0
-18.120699 22.559601 -13.341667 -0.60147876 0.77674377 0.18679543 0
-17.215532 22.982954 -12.875409 -0.54095674 0.7189737 0.43639722 0
-16.054792 23.504978 -12.4402 -0.43489915 0.6339134 0.63954395 0
-14.7998 23.878332 -12.050601 -0.25328928 0.46918172 0.84599829 0
14.9494 23.6933 -12.0032 0.26158491 0.41279086 0.8724547 0
15.89144 23.637869 -12.497611 0.43762374 0.66627109 0.60379499 0
17.161631 23.086 -12.935415 0.55295885 0.73989183 0.3831405 0
18.12985 22.558451 -13.36705 0.58759195 0.78191286 0.20820197 0
20.302917 23.384108 -12.85939 -0.66600949 -0.74594319 -0.00040391224 0
21.085058 22.64522 -12.534719 -0.69456929 -0.71942526 0.00082851027 0
-19.5077 24.0453 -12.5675 0.59715313 -0.80212611 0.0013664803 0
-18.744223 24.613766 -12.745193 0.59715331 -0.80212712 0.00012891332 0
-17.804565 25.313303 -12.690771 0.59715348 -0.80212659 0.0007808464 0
-15.480521 24.302866 -13.016688 -0.50176829 0.7934041 0.34458455 0
-14.310482 24.805115 -12.705599 -0.43836913 0.73562586 0.51641762 0
-12.901283 25.312428 -12.36661 -0.33175907 0.66464889 0.66946077 0
13.031125 25.124905 -12.242155 0.30733529 0.62217921 0.72002637 0
14.192123 24.886221 -12.735478 0.42390054 0.74273455 0.51831812 0
15.508499 24.288214 -13.044671 0.4849152 0.80133605 0.35031092 0
17.780951 25.330898 -12.751605 -0.5971536 -0.80212688 0.00027329629 0
18.700041 24.646646 -12.736441 -0.59715331 -0.80212706 0.00021022788 0
19.533001 24.026501 -12.41665 -0.59715313 -0.80212611 -0.0013664803 0
-17.004158 25.893948 -12.705768 0.56707603 -0.82366538 -0.00030643211 0
-15.665649 26.683332 -12.741714 0.49082941 -0.87125564 -0.00038004582 0
-13.7121 25.503901 -13.4395 -0.37568891 0.90993774 0.17570196 0
-12.615202 25.832975 -12.902173 -0.36430922 0.83532482 0.41171739 0
-11.235187 26.368435 -12.756922 -0.32441857 0.80841386 0.49114114 0
-9.9385414 26.68663 -12.461082 -0.28630352 0.72080255 0.631248 0
-8.5309086 26.808481 -12.071849 -0.13824472 0.58333147 0.80038291 0
8.6603718 26.855679 -12.134379 0.13138445 0.55644387 0.82043189 0
9.898468 26.681993 -12.424322 0.27278456 0.70072711 0.65921932 0
11.111193 26.418089 -12.763505 0.3172684 0.80949736 0.49401909 0
12.4992 25.852779 -12.824178 0.41006473 0.79633617 0.44462982 0
13.593349 25.52865 -13.26775 0.44398803 0.87771904 0.18023302 0
15.685318 26.672268 -12.666655 -0.49082947 -0.87125558 -0.00022710058 0
16.98588 25.909725 -12.824357 -0.5498597 -0.83525467 -0.0019966597 0
-15.0758 27.014776 -12.59905 0.49082929 -0.87125552 0.00066508038 0
-14.137846 27.541851 -12.836431 0.4910562 -0.87112784 -0.00043313787 0
-12.857461 28.171349 -12.7494 0.38093796 -0.92459732 0.0024418081 0
-9.5998144 27.228901 -13.111621 -0.3265897 0.88355613 0.33566031 0
-8.166131 27.534208 -12.881082 -0.24966532 0.87441069 0.41602072 0
-6.6692934 27.903864 -12.803611 -0.18408349 0.86335313 0.46982411 0
-5.2230492 28.080513 -12.609873 -0.16782716 0.81811595 0.55001849 0
-3.7507889 28.174986 -12.35734 -0.089448757 0.729707 0.67788386 0
-2.2927394 28.196268 -12.212687 -0.065325052 0.64622176 0.76034868 0
-0.82273072 28.174736 -12.115634 0.0088693723 0.58423179 0.81153834 0
0.84632266 28.296276 -12.220728 0.095292293 0.71995622 0.6874463 0
2.2957096 28.171654 -12.193409 0.072562873 0.6401487 0.76481652 0
3.896884 28.166319 -12.367252 0.080880433 0.71705186 0.69231141 0
5.3195477 28.03475 -12.5475 0.15939003 0.79231626 0.58892256 0
6.8062558 27.794338 -12.674779 0.21695143 0.82335657 0.52441978 0
8.1675739 27.472878 -12.745437 0.24444099 0.83577794 0.49165407 0
9.5849571 27.225485 -13.092033 0.34216321 0.88824129 0.30651575 0
12.67988 28.242926 -12.75863 -0.3781594 -0.92574036 0.00029199728 0
14.340613 27.427914 -12.824577 -0.49082944 -0.8712557 -0.00012872521 0
15.027076 27.04215 -13.171949 -0.49082899 -0.87125498 0.00133016 0
-11.229217 28.829247 -12.753468 0.37511447 -0.92697847 -7.2759646e-12 0
-9.6560583 29.433653 -12.825924 0.30634707 -0.95191973 -0.00064140221 0
-8.2472849 29.820051 -12.733556 0.25402313 -0.96719807 0.00019414435 0
-4.6180062 28.551125 -13.272178 -0.16126969 0.96385449 0.21207719 0
-3.5465202 28.639187 -13.060357 -0.039941784 0.94812429 0.31538078 0
-2.1203344 28.748219 -13.028725 -0.079737648 0.93885887 0.33494174 0
-0.78491175 28.790997 -12.960491 -0.0091018174 0.93261904 0.36074761 0
0.79724157 28.806032 -12.995952 -0.00036974013 0.90100396 0.43381077 0
2.0999637 28.72452 -12.961746 0.077033572 0.9263677 0.36865798 0
3.796083 28.635895 -13.159813 0.11837527 0.95472044 0.27293992 0
4.697813 28.538733 -13.266167 0.17908491 0.96473753 0.19289894 0
8.2756329 29.81263 -12.862408 -0.25402322 -0.96719807 0.00018069711 0
9.7161846 29.412081 -12.64313 -0.31027278 -0.95064515 0.0021716023 0
11.272391 28.811792 -12.729846 -0.37511444 -0.92697847 0.00032528557 0
12.0155 28.511551 -12.71315 -0.37511393 -0.92697787 -0.0012715699 0
-6.9744015 30.153198 -12.585278 0.25402325 -0.96719807 4.4170407e-05 0
-5.3578572 30.50132 -12.718699 0.13875099 -0.9903267 0.0010759821 0
-3.7966802 30.703068 -12.687565 0.12793693 -0.99178225 0.0004262678 0
-2.2960799 30.887592 -12.716941 0.099593334 -0.9950282 -0.00010397505 0
-0.69614547 30.936508 -12.648066 -0.00034500615 -0.99999988 0.00017250307 0
0.70333928 30.936512 -12.785445 -0.00037238744 -0.99999988 5.5435925e-12 0
2.2118268 30.896276 -12.788728 -0.082905032 -0.99655366 0.0027564177 0
3.668092 30.719608 -12.742502 -0.12793705 -0.99178219 -0.00026597927 0
5.1658878 30.526035 -12.494238 -0.14320174 -0.98969263 0.0013066783 0
6.7424421 30.213896 -12.804855 -0.25402313 -0.96719801 -0.00039753356 0
7.5367699 30.006001 -12.750851 -0.2540231 -0.96719742 -0.0011926005 0
-7.5305963 -30.007635 -11.395233 0.25402325 0.96719801 0.00039753373 0
-6.6755085 -30.231421 -11.257792 0.25402313 0.96719813 -0.00011358105 0
-5.3381066 -30.504204 -11.24052 0.13711143 0.99055558 0.00033412609 0
-3.8342576 -30.698233 -11.22473 0.12793702 0.99178231 0.00015621005 0
-2.4429479 -30.874784 -11.298656 0.11123223 0.99379408 -0.00084835046 0
-0.66883111 -30.93651 -11.126273 5.4306522e-05 1 -0.00010861304 0
0.80281866 -30.936512 -11.234101 0.00055250956 0.99999982 -4.2500727e-05 0
2.2994785 -30.888458 -11.221794 -0.1021729 0.99476618 0.00095172948 0
3.6985364 -30.715694 -11.227063 -0.127937 0.99178225 0.00020828005 0
5.3191729 -30.506672 -11.247373 -0.1365011 0.99063993 0.00029408926 0
6.7219577 -30.219267 -11.12811 -0.25402313 0.96719807 2.7734906e-05 0
-12.0156 -28.511499 -11.8128 0.37511393 0.92697787 -0.0012715699 0
-11.230956 -28.828527 -11.281051 0.37511441 0.92697853 0.00011559732 0
-9.7694483 -29.39819 -11.240046 0.32264751 0.94651318 0.0033726238 0
-8.2178402 -29.827744 -11.12841 0.25402316 0.96719813 -0.00017889016 0
8.26863 -29.814463 -11.304099 -0.2540231 0.96719819 0.00019876684 0
9.7085609 -29.415142 -11.289927 -0.32163537 0.94686359 0.00037134389 0
11.206903 -28.83824 -11.162822 -0.37511444 0.92697853 0.00014128564 0
12.0257 -28.507401 -10.873 -0.37511393 0.92697787 0.0012715699 0
-15.0647 -27.021025 -11.02015 0.49082899 0.87125498 0.00133016 0
-14.282916 -27.460331 -11.319798 0.49038455 0.87150621 -3.4661527e-05 0
-12.820599 -28.186129 -11.173413 0.38155451 0.92434579 0.00093551155 0
-6.4615016 -27.124868 -11.915229 -0.11662602 -0.47022313 0.87480778 0
-5.2362432 -27.174599 -11.8407 -0.060039148 -0.34443679 0.93688768 0
-3.6027241 -27.320381 -11.809839 -0.040802881 -0.31379813 0.94861263 0
-2.3296769 -27.507994 -11.825281 -0.023786854 -0.33613184 0.94151443 0
-0.81753451 -27.561295 -11.815737 -0.033739507 -0.30516687 0.95170105 0
0.59107673 -27.54314 -11.812235 0.0093373377 -0.29997313 0.95390201 0
2.0647886 -27.341129 -11.77058 0.0094522238 -0.22338176 0.97468525 0
3.6043413 -27.417366 -11.838345 0.050725043 -0.33739036 0.93999714 0
5.0784802 -27.273359 -11.865266 0.039539635 -0.39329502 0.91856176 0
6.6241121 -27.133551 -11.941425 0.16060793 -0.47702107 0.86409265 0
12.739861 -28.218794 -11.248057 -0.37887034 0.92544359 -0.0033976112 0
14.274061 -27.465319 -11.308259 -0.4908295 0.87125552 0.00046266444 0
15.07355 -27.016048 -11.2149 -0.49082941 0.8712557 0 0
-16.977207 -25.916859 -11.310496 0.5465765 0.8373934 -0.0051391139 0
-15.731604 -26.646263 -11.218168 0.49082959 0.87125558 0.00014150645 0
-10.77125 -25.674236 -11.906863 -0.16411702 -0.38965601 0.90621948 0
-9.6891899 -25.884619 -11.837013 -0.13203929 -0.32340738 0.93700224 0
-8.2334671 -26.210712 -11.796521 -0.075558946 -0.26592511 0.96102792 0
-6.6531286 -26.318525 -11.745379 -0.022055553 -0.11702152 0.9928844 0
-5.2610841 -26.124846 -11.71099 6.13597e-05 -0.042198397 0.99910927 0
-3.6655748 -26.35586 -11.702042 0.01071957 -0.012340027 0.99986643 0
-2.285327 -26.339006 -11.700214 -0.0012323697 -0.0049978974 0.99998671 0
-0.73397261 -26.329626 -11.700025 0.00086151873 0.0027366523 0.99999583 0
0.82005209 -26.30986 -11.700025 0.00091084134 -0.0045416541 0.99998927 0
2.3437259 -26.239639 -11.700447 0.0017087581 -0.0084935091 0.99996251 0
3.6962917 -26.245182 -11.700707 -0.00026714013 -0.006128306 0.99998122 0
5.2029004 -26.278238 -11.713426 0.0040386086 -0.058199383 0.99829686 0
6.8027229 -26.284113 -11.74694 0.049007867 -0.15223941 0.9871279 0
8.2966204 -26.081646 -11.773508 0.055778459 -0.21228793 0.97561389 0
9.6684513 -25.988932 -11.867119 0.14404413 -0.36310396 0.92054701 0
10.715878 -25.70602 -11.908978 0.17778808 -0.41962808 0.89011437 0
15.888218 -26.558256 -11.256162 -0.49082941 0.87125558 0.00030696005 0
17.076788 -25.845293 -11.35993 -0.575598 0.81765932 0.010969624 0
-19.545401 -24.0173 -10.9663 0.59715313 0.80212611 0.0013664803 0
-18.71991 -24.631865 -11.270339 0.59715348 0.802127 0.00018633839 0
-17.793772 -25.321356 -11.378487 0.59715366 0.80212682 -0.00039042326 0
-14.012825 -24.143776 -11.9356 -0.21852939 -0.42461291 0.87860614 0
-12.654718 -24.424744 -11.80988 -0.11880466 -0.25088394 0.96069902 0
-11.390388 -24.680542 -11.750438 -0.067491628 -0.13827096 0.98809212 0
-9.8330622 -24.746241 -11.706342 -0.013862859 -0.0382686 0.99917138 0
-8.2796097 -24.738438 -11.700003 -0.00010248472 -0.0018516997 0.99999827 0
-6.7579494 -24.84313 -11.700006 3.9100665e-05 -3.9100672e-05 1 0
-5.1475377 -24.690701 -11.700004 -2.6419379e-05 -0.00013209693 1 0
-3.7823553 -24.743637 -11.700006 0.00039824759 0.0002896346 0.99999988 0
-2.1727571 -24.624176 -11.700005 5.1448264e-05 0.00030868963 0.99999988 0
-0.71014714 -24.783728 -11.700006 0.00026659551 5.3319109e-05 1 0
0.8348015 -24.726467 -11.700003 6.1094819e-05 6.1094834e-05 1 0
2.208863 -24.867525 -11.700004 5.4306511e-05 0.00021722607 1 0
3.8245695 -24.712194 -11.700006 0.00040877974 0.00047987184 0.99999982 0
5.1867404 -24.717506 -11.700006 -0.00010399117 0.00027037709 1 0
6.7180223 -24.851833 -11.700003 0.00032583912 0.00013033565 0.99999994 0
8.2897024 -24.676283 -11.700003 3.1532814e-05 -9.4598458e-05 1 0
9.6570644 -24.786518 -11.705235 0.013011649 -0.031329487 0.9994244 0
11.204235 -24.881554 -11.767564 0.093930639 -0.18746845 0.9777692 0
12.647708 -24.516418 -11.826792 0.13096373 -0.26771036 0.95455736 0
13.94555 -24.155849 -11.93015 0.21133581 -0.36777446 0.90558219 0
17.741837 -25.359993 -11.213781 -0.59715354 0.80212671 0.00056266878 0
18.653303 -24.681452 -11.192727 -0.59715319 0.80212724 -0.00028133427 0
19.520849 -24.035601 -11.22355 -0.59715313 0.80212611 0.0013664803 0
-21.122875 -22.608725 -10.959661 0.69456953 0.71942556 -0.0003452127 0
-20.368326 -23.325235 -11.193068 0.67059803 0.74181026 0.0039720833 0
-15.389178 -22.919605 -11.820756 -0.16730811 -0.26542041 0.94950515 0
-14.199811 -23.330524 -11.778378 -0.10539235 -0.17821974 0.97833031 0
-12.701923 -23.342516 -11.700945 -0.0059406743 -0.0094517982 0.99993765 0
-11.278086 -23.274923 -11.700006 -0.00031354313 -0.00020288085 0.99999994 0
-9.8098774 -23.308546 -11.700006 0.00016599342 0.00027665572 0.99999994 0
-8.2587118 -23.248688 -11.700006 0.0003119735 0.00027037703 0.99999994 0
-6.7067575 -23.140711 -11.700005 0.00042609719 0.00017545182 0.99999988 0
-5.2066321 -23.163225 -11.700005 0.00030868963 -6.1271288e-12 0.99999988 0
-3.7892427 -23.261881 -11.700004 -2.6419391e-05 0.00034345203 1 0
-2.1543214 -23.234232 -11.700005 0.00027570999 -2.5064535e-05 0.99999988 0
-0.71146691 -23.300447 -11.700006 1.9949319e-05 0.00033913853 0.99999994 0
0.73010588 -23.250837 -11.700003 -2.9621719e-05 2.9621733e-05 1 0
2.2143471 -23.086674 -11.700005 -5.1448282e-05 0.00015434483 1 0
3.8208935 -23.232477 -11.700005 -0.00013209695 2.6419391e-05 1 0
5.2144823 -23.24185 -11.700005 0.00023777447 -7.9258156e-05 1 0
6.82266 -23.202366 -11.700002 -0.00019550347 6.5167813e-05 0.99999994 0
8.3139391 -23.283804 -11.700005 0.00050067942 0.0004053119 0.99999982 0
9.7345333 -23.253176 -11.700006 -0.00015205822 0.00023894862 1 0
11.110104 -23.203688 -11.700006 6.8198868e-05 2.2732962e-05 1 0
12.741661 -23.17695 -11.702577 0.0067174244 -0.018507818 0.99980617 0
14.152086 -23.365747 -11.775052 0.122471 -0.18358299 0.97534519 0
15.498858 -22.907604 -11.832146 0.18382522 -0.28298217 0.94134438 0
20.268248 -23.410801 -11.207441 -0.66292942 0.74868059 -0.0013793278 0
21.156565 -22.576218 -11.451625 -0.69456941 0.7194255 -0.00046028354 0
-22.634809 -21.148668 -11.055367 0.69515002 0.71886468 0.00024040679 0
-21.842733 -21.913578 -11.262712 0.69456935 0.71942574 0.00018011103 0
-18.0546 -21.136568 -11.877 -0.4520089 -0.13173233 0.88223267 0
-17.117935 -21.531336 -11.793893 -0.16542248 -0.21320851 0.96290052 0
-15.747742 -21.683834 -11.716722 -0.040073682 -0.055453833 0.9976567 0
-14.078017 -21.706274 -11.700005 0.00015434482 6.1271296e-12 1 0
-12.80742 -21.691778 -11.700005 0.00042609719 -2.5064548e-05 0.99999988 0
-11.216739 -21.703459 -11.700006 4.4432589e-05 -4.44326e-05 1 0
-9.779829 -21.839388 -11.700006 0.00027370476 -3.9100672e-05 1 0
-8.1978922 -21.784317 -11.700004 0.00034500612 0.00023000407 0.99999988 0
-6.7647681 -21.764965 -11.700006 0.00011279041 7.5193617e-05 1 0
-5.1330428 -21.627548 -11.700004 0.00013209693 0.00034345203 1 0
-3.700038 -21.793512 -11.698711 0.0010439191 -0.0050330414 0.99998677 0
-2.3326678 -21.822033 -11.697456 -0.0006932235 -0.0067726551 0.99997687 0
-0.76587737 -21.825211 -11.697679 -0.0039534527 -0.0042327321 0.99998325 0
