# .PCD v0.7 - Point Cloud Data file format
VERSION 0.7
FIELDS x y z normal_x normal_y normal_z curvature
SIZE 4 4 4 4 4 4 4
TYPE F F F F F F F
COUNT 1 1 1 1 1 1 1
WIDTH 706
HEIGHT 1
VIEWPOINT 0 0 0 1 0 0 0
POINTS 706
DATA ascii
-6.1543059 -10.875708 1.7616688 -0.4943451 -0.86926359 0.0019118092 0
-5.3646116 -11.277984 1.8232247 -0.42891544 -0.90334129 0.0024588893 0
-4.2123818 -11.758428 1.8412076 -0.33762011 -0.94127631 0.0033985293 0
-3.5517676 -11.979587 1.8187951 -0.28482389 -0.95857483 0.0031014076 0
3.5498872 -11.99106 1.7574918 0.22372571 -0.97431314 -0.025704993 0
4.2186685 -11.841275 1.8077707 0.22498029 -0.95263195 -0.20463681 0
5.4411116 -11.530847 1.8761512 0.24428935 -0.76897931 -0.59075665 0
6.5853348 -11.454288 1.9859982 0.10630974 -0.53337342 -0.83917284 0
7.7735505 -11.540795 2.0454757 0.0022112315 -0.36947292 -0.92923886 0
8.988493 -11.574932 2.0565944 -0.005589752 -0.41672197 -0.90901673 0
10.17066 -11.507843 2.0428319 0.004152366 -0.33687222 -0.94154119 0
11.427686 -11.557527 2.0506012 -0.0084118182 -0.39442796 -0.91888839 0
12.569495 -11.535666 2.0442145 0.0045995559 -0.36812925 -0.92976326 0
13.798758 -11.555717 2.0580978 0.0042328895 -0.41490957 -0.90985286 0
14.996554 -11.517948 2.0441086 0.00054283073 -0.34932473 -0.93700165 0
16.179506 -11.522982 2.0467446 0.0048808516 -0.34750724 -0.93766457 0
17.428322 -11.528707 2.0530863 -0.0079992628 -0.38997814 -0.92078936 0
18.602482 -11.588029 2.0591393 -0.0014648827 -0.43934879 -0.89831537 0
19.799322 -11.514676 2.0345762 -0.0035758324 -0.32468563 -0.94581527 0
21.01759 -11.560218 2.0507262 0.0083465986 -0.37825453 -0.92566401 0
22.152731 -11.463318 2.0248547 -0.015567962 -0.2375692 -0.97124588 0
23.389717 -11.379423 2 -0.016796695 -0.040969897 -0.99901915 0
24.717119 -11.343219 1.8171539 -0.63748676 0.00074994424 -0.77046096 0
41.347382 -11.428705 1.8340098 0.89824259 -0.43950009 -5.8955378e-05 0
-7.5864191 -9.9257069 1.7731714 -0.60696077 -0.79473025 0.0015641456 0
-6.7466211 -10.51248 1.8101177 -0.5400371 -0.84163898 0.0019173597 0
6.773376 -10.539989 1.6799685 0.49102834 -0.77911294 -0.38971025 0
7.7431483 -10.120585 1.8260444 0.40326941 -0.5280931 -0.74732286 0
9.0174913 -10.208735 2 0.0026109759 -0.0049948799 -0.99998409 0
10.190849 -10.204353 2 -0.00097751536 -0.00097751536 -0.99999917 0
11.38833 -10.244007 2 -0.00097751524 -0.00097751524 -0.99999893 0
12.623179 -10.18972 2 -0.00097751536 -0.00097751536 -0.99999905 0
13.787457 -10.199523 2 -0.00097751536 -0.00097751536 -0.99999905 0
14.992802 -10.261519 2 -0.00097751536 -0.00097751536 -0.99999905 0
16.173475 -10.178542 2 -0.00097751536 -0.00097751536 -0.99999905 0
17.379688 -10.189107 2 -0.00097751536 -0.00097751536 -0.99999911 0
18.606634 -10.205058 2 -0.00097751524 -0.00097751524 -0.99999899 0
19.785704 -10.224741 2 -0.00097751524 -0.00097751524 -0.99999893 0
20.999929 -10.207655 2 -0.00097751524 -0.00097751524 -0.99999905 0
22.212448 -10.23129 2 -0.00097751536 -0.00097751536 -0.99999917 0
23.389692 -10.19235 2 -0.00097751524 -0.00097751524 -0.99999899 0
24.719145 -10.177526 1.8320243 -0.60728639 0.0079820137 -0.79444289 0
41.822899 -10.405134 1.8287112 0.91645163 -0.40014514 -0.00053642131 0
42.078793 -9.7993374 1.7966805 0.92580575 -0.3779996 -4.8311111e-05 0
-8.8428354 -8.8226757 1.8053879 -0.7077961 -0.70641243 0.0024869093 0
-8.213047 -9.4161205 1.7875239 -0.6565935 -0.75424135 0.0022189561 0
8.2381334 -9.4114017 1.638473 0.62678224 -0.7239188 -0.2882458 0
8.9706106 -8.961153 1.7769537 0.52838737 -0.52319241 -0.66863781 0
10.197484 -9.0142345 2 0.0041526249 -0.0047638328 -0.99998009 0
11.383373 -9.0281916 2 -0.00097751536 -0.00097751536 -0.99999905 0
12.560277 -9.0720911 2 -0.00097751536 -0.00097751536 -0.99999911 0
13.810529 -9.020463 2 -0.00097751536 -0.00097751536 -0.99999911 0
15.022659 -9.0036659 2 -0.00097751536 -0.00097751536 -0.99999905 0
16.252783 -8.9827003 2 -0.00097751536 -0.00097751536 -0.99999911 0
17.37542 -9.0184021 2 -0.00097751524 -0.00097751524 -0.99999899 0
18.616892 -8.9947062 2 -0.00097751536 -0.00097751536 -0.99999911 0
19.793831 -8.9862299 2 -0.00097751524 -0.00097751524 -0.99999905 0
21.008881 -8.977828 2 -0.00097751536 -0.00097751536 -0.99999905 0
22.200165 -9.0327072 2 -0.00097751536 -0.00097751536 -0.99999905 0
23.350807 -9.0167294 2 -0.00097751536 -0.00097751536 -0.99999917 0
24.695274 -8.9674797 1.8293509 -0.60453159 -0.0039515714 -0.79657137 0
42.387959 -8.9981403 1.8107966 0.93822634 -0.34602207 7.3410316e-05 0
-9.9124708 -7.6021028 1.8084656 -0.79363328 -0.60839212 0.0022975116 0
-9.4392509 -8.1844969 1.8139331 -0.75589937 -0.65468132 0.0029397702 0
9.4503279 -8.1860161 1.6451256 0.72017282 -0.61837685 -0.3145811 0
10.133874 -7.7663832 1.8313388 0.47286952 -0.36636543 -0.8013556 0
11.379375 -7.8287969 2 -0.00019128772 -0.0013516367 -0.99999905 0
12.582045 -7.8380718 2 -0.00097751536 -0.00097751536 -0.99999911 0
13.774355 -7.7819571 2 -0.00097751524 -0.00097751524 -0.99999893 0
15.010361 -7.8157525 2 -0.00097751536 -0.00097751536 -0.99999905 0
16.216511 -7.8373713 2 -0.00097751536 -0.00097751536 -0.99999905 0
17.40884 -7.7861133 2 -0.00097751536 -0.00097751536 -0.99999905 0
18.606874 -7.8292809 2 -0.00097751524 -0.00097751524 -0.99999899 0
19.79253 -7.772903 2 -0.00097751536 -0.00097751536 -0.99999905 0
21.021759 -7.8368711 2 -0.00097751536 -0.00097751536 -0.99999905 0
22.178726 -7.7920847 2 -0.00097751536 -0.00097751536 -0.99999911 0
23.422028 -7.8448443 2 -0.00097751536 -0.00097751536 -0.99999911 0
24.719347 -7.7633076 1.8288116 -0.60680038 -0.00022232423 -0.79485416 0
42.795437 -7.8034434 1.7680659 0.95385718 -0.30026069 0.00022560696 0
-10.880095 -6.1447372 1.8295395 -0.87127101 -0.49080059 0.0012380582 0
-10.516702 -6.7410316 1.7942817 -0.84166908 -0.53998995 0.001964259 0
10.526501 -6.7970052 1.7041955 0.75238127 -0.49389705 -0.43587628 0
11.334624 -6.4935884 1.9409477 0.20311649 -0.11511813 -0.97236389 0
12.593997 -6.6171737 2 -0.00097751524 -0.00097751524 -0.99999905 0
13.82065 -6.579092 2 -0.00097751536 -0.00097751536 -0.99999917 0
15.003539 -6.6074772 2 -0.00097751524 -0.00097751524 -0.99999899 0
16.209106 -6.6289864 2 -0.00097751536 -0.00097751536 -0.99999911 0
17.415804 -6.5992126 2 -0.00097751536 -0.00097751536 -0.99999911 0
18.553255 -6.6373711 2 -0.00097751524 -0.00097751524 -0.99999899 0
19.792643 -6.5902042 2 -0.00097751536 -0.00097751536 -0.99999911 0
20.990812 -6.6008749 2 -0.00097751536 -0.00097751536 -0.99999905 0
22.226393 -6.5746956 2 -0.00097751536 -0.00097751536 -0.99999905 0
23.424875 -6.6554255 2 -0.00097751536 -0.00097751536 -0.99999905 0
24.74371 -6.6216955 1.821594 -0.65355366 -0.00017313473 -0.7568801 0
43.093296 -6.7927551 1.7934686 0.96525192 -0.26132101 -0.00018223486 0
43.249355 -6.192975 1.7424192 0.9709183 -0.23941122 0.00012230803 0
-11.256479 -5.4111614 1.8072776 -0.90138823 -0.43300545 0.0023416381 0
11.396164 -5.4693065 1.78572 0.67381585 -0.32513809 -0.66351897 0
12.563877 -5.439754 2 0.0018093621 -0.0014810407 -0.99999726 0
13.79445 -5.4071059 2 -0.00097751536 -0.00097751536 -0.99999905 0
15.01831 -5.394814 2 -0.00097751524 -0.00097751524 -0.99999899 0
16.180838 -5.3921318 2 -0.00097751536 -0.00097751536 -0.99999911 0
17.415695 -5.3906941 2 -0.00097751536 -0.00097751536 -0.99999911 0
18.585762 -5.3338609 2 -0.00097751536 -0.00097751536 -0.99999905 0
19.806637 -5.4136019 2 -0.00097751536 -0.00097751536 -0.99999905 0
21.032007 -5.4024882 2 -0.00097751536 -0.00097751536 -0.99999917 0
22.217228 -5.4327154 2 -0.00097751536 -0.00097751536 -0.99999905 0
23.356907 -5.4357266 2 -0.00097751536 -0.00097751536 -0.99999905 0
24.72205 -5.3946786 1.8227656 -0.66595459 0.00069614989 -0.745992 0
43.434464 -5.368938 1.7738787 0.97855097 -0.20600475 7.6693323e-05 0
-11.742325 -4.256803 1.8116497 -0.93979996 -0.34171388 0.0027735524 0
11.786716 -4.253849 1.6972244 0.85499775 -0.29956147 -0.42336935 0
12.603199 -4.2037039 2 0.068263382 -0.025180945 -0.99734944 0
13.763205 -4.2060752 2 -0.00097751536 -0.00097751536 -0.99999911 0
14.998446 -4.1852107 2 -0.00097751524 -0.00097751524 -0.99999893 0
16.228863 -4.205575 2 -0.00097751536 -0.00097751536 -0.99999905 0
17.386826 -4.2032804 2 -0.00097751536 -0.00097751536 -0.99999905 0
18.631029 -4.1915059 2 -0.00097751536 -0.00097751536 -0.99999911 0
19.769756 -4.1968303 2 -0.00097751536 -0.00097751536 -0.99999911 0
21.012489 -4.1871524 2 -0.00097751536 -0.00097751536 -0.99999911 0
22.194155 -4.1892724 2 -0.00097751536 -0.00097751536 -0.99999917 0
23.385063 -4.1708603 2 -0.00097751536 -0.00097751536 -0.99999905 0
24.718042 -4.2012529 1.8196634 -0.63912904 -0.0090592597 -0.76904619 0
43.650112 -4.2207179 1.7663958 0.98666942 -0.16273716 4.980656e-05 0
-12.135405 -2.9634638 1.8284556 -0.97155231 -0.23680018 0.0034398886 0
-11.981696 -3.5537927 1.8345656 -0.95835549 -0.28556171 0.003047002 0
11.981336 -3.5526025 1.5335556 0.95000178 -0.27678666 -0.14451933 0
12.455617 -3.0064082 1.8415107 0.57686198 -0.13831469 -0.80504614 0
13.809795 -3.0247824 2 -0.00097751536 -0.00097751536 -0.99999905 0
14.986235 -3.0286267 2 -0.00097751524 -0.00097751524 -0.99999893 0
16.218006 -3.0140641 2 -0.00097751524 -0.00097751524 -0.99999905 0
17.382687 -3.0097659 2 -0.00097751536 -0.00097751536 -0.99999905 0
18.622313 -3.0360417 2 -0.00097751536 -0.00097751536 -0.99999911 0
19.793556 -2.9858181 2 -0.00097751524 -0.00097751524 -0.99999893 0
21.010704 -2.9826057 2 -0.00097751536 -0.00097751536 -0.99999905 0
22.211521 -3.0019011 2 -0.00097751536 -0.00097751536 -0.99999911 0
23.402702 -3.0388896 2 -0.00097751524 -0.00097751524 -0.99999905 0
24.700323 -3.0537846 1.8130021 -0.61665446 -0.0019213688 -0.78723156 0
43.821793 -3.000474 1.7862179 0.99336636 -0.11499261 -1.5293117e-05 0
-12.356287 -1.830874 1.7914109 -0.98919648 -0.14656734 0.0028809116 0
12.569563 -1.8039379 1.8127627 0.68368852 -0.094544224 -0.72362381 0
13.793557 -1.8120267 2 -0.00097751536 -0.00097751536 -0.99999911 0
15.057589 -1.7993608 2 -0.00097751536 -0.00097751536 -0.99999905 0
16.201609 -1.7806438 2 -0.00097751536 -0.00097751536 -0.99999911 0
17.394255 -1.7559606 2 -0.00097751536 -0.00097751536 -0.99999911 0
18.627172 -1.8284774 2 -0.00097751536 -0.00097751536 -0.99999905 0
19.793634 -1.7705852 2 -0.00097751524 -0.00097751524 -0.99999905 0
20.986879 -1.8186964 2 -0.00097751536 -0.00097751536 -0.99999911 0
22.186209 -1.7977581 2 -0.00097751524 -0.00097751524 -0.99999893 0
23.433868 -1.8179808 2 -0.00097751536 -0.00097751536 -0.99999911 0
24.732893 -1.784722 1.8226843 -0.63901067 0.0075968672 -0.76916033 0
43.92844 -1.8524399 1.804173 0.9974637 -0.071177356 8.5059473e-05 0
-12.477587 -0.58766556 1.8061008 -0.99891061 -0.046522319 0.0036602567 0
12.632624 -0.60366613 1.7874496 0.76070094 -0.039251618 -0.64791465 0
13.770949 -0.61117017 2 -0.00097751536 -0.00097751536 -0.99999911 0
14.972116 -0.58117783 2 -0.00097751524 -0.00097751524 -0.99999899 0
16.166874 -0.61219049 2 -0.00097751536 -0.00097751536 -0.99999911 0
17.360294 -0.59753424 2 -0.00097751536 -0.00097751536 -0.99999905 0
18.622889 -0.58097172 2 -0.00097751536 -0.00097751536 -0.99999917 0
19.82103 -0.58297008 2 -0.00097751524 -0.00097751524 -0.99999905 0
21.000774 -0.5445236 2 -0.00097751536 -0.00097751536 -0.99999905 0
22.215454 -0.57586616 2 -0.00097751536 -0.00097751536 -0.99999917 0
23.377369 -0.60869771 2 -0.00097751536 -0.00097751536 -0.99999905 0
24.73632 -0.62096667 1.8275231 -0.63521278 -0.0024401001 -0.77233332 0
43.988903 -0.59340215 1.8102301 0.99973446 -0.023043366 -0.00016534906 0
-12.476751 0.59566748 1.829275 -0.99882007 0.048437569 0.0035061343 0
12.636138 0.61718917 1.7894396 0.76321661 0.026868638 -0.64558387 0
13.79522 0.59746248 2 -0.00097751524 -0.00097751524 -0.99999899 0
14.993218 0.60229033 2 -0.00097751524 -0.00097751524 -0.99999893 0
16.187775 0.58674866 2 -0.00097751536 -0.00097751536 -0.99999905 0
17.418148 0.58683372 2 -0.00097751536 -0.00097751536 -0.99999905 0
18.61978 0.60977089 2 -0.00097751536 -0.00097751536 -0.99999917 0
19.792768 0.62504923 2 -0.00097751536 -0.00097751536 -0.99999911 0
20.994457 0.60320848 2 -0.00097751536 -0.00097751536 -0.99999905 0
22.167742 0.6445294 2 -0.00097751524 -0.00097751524 -0.99999893 0
23.435886 0.59964305 2 -0.00097751536 -0.00097751536 -0.99999905 0
24.751808 0.6224817 1.8025271 -0.70659351 -0.00041919277 -0.70761961 0
43.987457 0.62434685 1.801302 0.99969947 0.024514249 -0.00016964372 0
-12.365096 1.7671969 1.8193468 -0.99003524 0.14079584 0.0025992673 0
12.582211 1.8152442 1.8008728 0.67694813 0.10855287 -0.72798181 0
13.790923 1.7929845 2 -0.00097751536 -0.00097751536 -0.99999905 0
15.008623 1.8522128 2 -0.00097751524 -0.00097751524 -0.99999899 0
16.207653 1.8317424 2 -0.00097751536 -0.00097751536 -0.99999905 0
17.386011 1.7612509 2 -0.00097751536 -0.00097751536 -0.99999905 0
18.62257 1.822032 2 -0.00097751524 -0.00097751524 -0.99999899 0
19.806379 1.7837646 2 -0.00097751536 -0.00097751536 -0.99999911 0
20.999315 1.7992275 2 -0.00097751536 -0.00097751536 -0.99999911 0
22.179491 1.7903441 2 -0.00097751536 -0.00097751536 -0.99999911 0
23.391399 1.7976606 2 -0.00097751536 -0.00097751536 -0.99999905 0
24.717293 1.7762172 1.8309004 -0.62773246 -0.0019090943 -0.77842683 0
43.933029 1.7971786 1.7764617 0.99761915 0.068964213 4.024239e-05 0
-12.142697 2.932507 1.8141292 -0.97211891 0.23447441 0.0025634053 0
-11.98249 3.5469263 1.8545978 -0.95852667 0.28499338 0.0023237967 0
11.983891 3.5539134 1.7090135 0.8887617 0.248964 -0.38486305 0
12.452489 2.9673495 1.8397255 0.57092023 0.12720379 -0.81109148 0
13.818231 3.0050781 2 -0.00097751524 -0.00097751524 -0.99999899 0
15.004669 3.0289886 2 -0.00097751536 -0.00097751536 -0.99999905 0
16.224131 2.9921679 2 -0.00097751536 -0.00097751536 -0.99999905 0
17.411642 3.0120969 2 -0.00097751536 -0.00097751536 -0.99999905 0
18.558167 2.9678757 2 -0.00097751536 -0.00097751536 -0.99999911 0
19.78693 2.9897416 2 -0.00097751536 -0.00097751536 -0.99999905 0
21.009569 3.0162885 2 -0.00097751536 -0.00097751536 -0.99999905 0
22.186277 2.9849904 2 -0.00097751524 -0.00097751524 -0.99999905 0
23.45038 3.0899367 2 -0.00097751536 -0.00097751536 -0.99999911 0
24.702522 3.0170403 1.826052 -0.61079711 -0.0020307417 -0.79178452 0
43.826904 2.9544036 1.846257 0.99355197 0.11337751 -6.5583059e-05 0
-11.751557 4.2321367 1.7940725 -0.94058424 0.33954617 0.0031145646 0
11.774343 4.252193 1.6796947 0.86021674 0.31041247 -0.40456316 0
12.612331 4.1814117 2 0.062253885 0.018237414 -0.99789375 0
13.791522 4.2405133 2 -0.00097751536 -0.00097751536 -0.99999905 0
15.007567 4.1684809 2 -0.00097751536 -0.00097751536 -0.99999911 0
16.227404 4.2146983 2 -0.00097751536 -0.00097751536 -0.99999911 0
17.42688 4.225359 2 -0.00097751524 -0.00097751524 -0.99999899 0
18.593395 4.1969051 2 -0.00097751536 -0.00097751536 -0.99999905 0
19.780853 4.1914592 2 -0.00097751524 -0.00097751524 -0.99999899 0
20.992167 4.2396159 2 -0.00097751536 -0.00097751536 -0.99999905 0
22.19953 4.219996 2 -0.00097751536 -0.00097751536 -0.99999905 0
23.444809 4.1586566 2 -0.00097751536 -0.00097751536 -0.99999911 0
24.699221 4.1908708 1.7945031 -0.64434528 0.0049814302 -0.76471853 0
43.652813 4.2038884 1.8210006 0.98674792 0.16226037 0.00030359509 0
-11.274208 5.3745265 1.810024 -0.9028492 0.42995086 0.0023881472 0
11.430587 5.4172182 1.7596226 0.71041709 0.32921851 -0.62203115 0
12.590184 5.4045076 2 0.0015422612 -0.00013969316 -0.99999881 0
13.820518 5.3955703 2 -0.00097751536 -0.00097751536 -0.99999905 0
15.027862 5.3838143 2 -0.00097751536 -0.00097751536 -0.99999905 0
16.197916 5.4068217 2 -0.00097751536 -0.00097751536 -0.99999905 0
17.409685 5.3644123 2 -0.00097751524 -0.00097751524 -0.99999893 0
18.60326 5.3920979 2 -0.00097751536 -0.00097751536 -0.99999911 0
19.851377 5.3621593 2 -0.00097751536 -0.00097751536 -0.99999905 0
21.016575 5.4000297 2 -0.00097751524 -0.00097751524 -0.99999899 0
22.21904 5.3994279 2 -0.00097751524 -0.00097751524 -0.99999899 0
23.420458 5.3663406 2 -0.00097751536 -0.00097751536 -0.99999905 0
24.770819 5.3979263 1.7957708 -0.73646361 0.00021055021 -0.67647707 0
43.426338 5.40592 1.8070391 0.97814405 0.20792836 -0.00021125007 0
-10.873033 6.16084 1.748404 -0.86956418 0.49381799 0.0014153589 0
-10.518828 6.7379289 1.8145379 -0.84207088 0.53936398 0.0017690387 0
10.512763 6.8048148 1.6910245 0.77836025 0.49680188 -0.38385308 0
11.325039 6.5160575 1.9403303 0.22512351 0.13244584 -0.96528625 0
12.614118 6.592947 2 -0.00097751536 -0.00097751536 -0.99999905 0
13.839844 6.6210384 2 -0.00097751536 -0.00097751536 -0.99999917 0
14.979754 6.5832229 2 -0.00097751536 -0.00097751536 -0.99999905 0
16.249861 6.6159854 2 -0.00097751536 -0.00097751536 -0.99999905 0
17.374973 6.5803394 2 -0.00097751536 -0.00097751536 -0.99999911 0
18.625101 6.5948291 2 -0.00097751536 -0.00097751536 -0.99999911 0
19.772682 6.6022396 2 -0.00097751536 -0.00097751536 -0.99999911 0
20.989313 6.5590248 2 -0.00097751536 -0.00097751536 -0.99999911 0
22.198517 6.5874734 2 -0.00097751536 -0.00097751536 -0.99999905 0
23.414375 6.5965743 2 -0.00097751536 -0.00097751536 -0.99999911 0
24.744244 6.6025562 1.820567 -0.64735782 -0.00173754 -0.7621842 0
43.097866 6.7739062 1.8610519 0.96547687 0.26048899 -5.095049e-05 0
43.248753 6.197154 1.7880363 0.97137839 0.23753749 0.00015175556 0
-9.9133129 7.6019549 1.7646509 -0.79325169 0.60889071 0.001977839 0
-9.4299688 8.196085 1.7967967 -0.75488359 0.65585321 0.0027042183 0
9.4468946 8.1912193 1.6528192 0.71716881 0.60704237 -0.34229872 0
10.144476 7.7769995 1.8401494 0.46900967 0.36669716 -0.80346948 0
11.382634 7.8073087 2 -0.00097751536 -0.00097751536 -0.99999905 0
12.591918 7.7725787 2 -0.00097751536 -0.00097751536 -0.99999911 0
13.799178 7.8000898 2 -0.00097751536 -0.00097751536 -0.99999905 0
15.004745 7.7806454 2 -0.00097751536 -0.00097751536 -0.99999911 0
16.219786 7.8112478 2 -0.00097751536 -0.00097751536 -0.99999905 0
17.410723 7.8326354 2 -0.00097751536 -0.00097751536 -0.99999911 0
18.643394 7.8324232 2 -0.00097751536 -0.00097751536 -0.99999911 0
19.822132 7.8031735 2 -0.00097751536 -0.00097751536 -0.99999911 0
20.989649 7.7710624 2 -0.00097751536 -0.00097751536 -0.99999905 0
22.174503 7.8207846 2 -0.00097751524 -0.00097751524 -0.99999893 0
23.39328 7.817256 2 -0.00097751524 -0.00097751524 -0.99999905 0
24.720087 7.7778568 1.8187206 -0.62241066 -0.003457797 -0.78268319 0
42.787918 7.828269 1.7949555 0.95349365 0.30141294 -0.00023439544 0
-8.8307562 8.8346615 1.7823359 -0.70694393 0.70726478 0.0026147093 0
-8.2178602 9.4108467 1.7663753 -0.6573844 0.75354981 0.0029094217 0
8.1992474 9.4465246 1.6963464 0.61390197 0.69454437 -0.37514314 0
8.965209 8.9755583 1.8040562 0.48954573 0.49932036 -0.71485955 0
10.174162 9.0471764 2 0.0054682386 0.0047984966 -0.99997354 0
11.374096 9.0199776 2 -0.00097751536 -0.00097751536 -0.99999905 0
12.616206 9.038002 2 -0.00097751536 -0.00097751536 -0.99999917 0
13.776254 8.9853373 2 -0.00097751536 -0.00097751536 -0.99999905 0
15.01931 9.012372 2 -0.00097751536 -0.00097751536 -0.99999905 0
16.193811 9.0002003 2 -0.00097751536 -0.00097751536 -0.99999905 0
17.401464 9.0241337 2 -0.00097751536 -0.00097751536 -0.99999905 0
18.588148 9.0198927 2 -0.00097751536 -0.00097751536 -0.99999917 0
19.814171 9.0039806 2 -0.00097751524 -0.00097751524 -0.99999899 0
20.973852 8.957159 2 -0.00097751536 -0.00097751536 -0.99999911 0
22.212362 9.0577211 2 -0.00097751536 -0.00097751536 -0.99999911 0
23.431696 8.9911556 2 -0.00097751536 -0.00097751536 -0.99999911 0
24.723398 8.9723721 1.8351766 -0.6234622 -0.012061441 -0.78176051 0
42.391499 8.9867897 1.7880552 0.93841332 0.34551468 0.00015066437 0
-7.601728 9.9133091 1.8087083 -0.60861182 0.79346615 0.0017770418 0
-6.7907853 10.484518 1.7679391 -0.54415882 0.83898062 0.0016132204 0
6.7835083 10.540874 1.6999892 0.48956713 0.75491112 -0.43638664 0
7.7504086 10.140717 1.8560055 0.36435437 0.48367831 -0.7958023 0
9.0133495 10.204121 2 0.0040765717 0.0050065247 -0.99997914 0
10.167547 10.248352 2 -0.00097751536 -0.00097751536 -0.99999911 0
11.363252 10.183613 2 -0.00097751536 -0.00097751536 -0.99999917 0
12.627622 10.212736 2 -0.00097751536 -0.00097751536 -0.99999905 0
13.774508 10.187082 2 -0.00097751536 -0.00097751536 -0.99999905 0
14.972824 10.215901 2 -0.00097751524 -0.00097751524 -0.99999905 0
16.162083 10.168687 2 -0.00097751536 -0.00097751536 -0.99999905 0
17.36507 10.178741 2 -0.00097751536 -0.00097751536 -0.99999911 0
18.608562 10.211718 2 -0.00097751536 -0.00097751536 -0.99999905 0
19.780659 10.195004 2 -0.00097751536 -0.00097751536 -0.99999905 0
21.035917 10.228022 2 -0.00097751524 -0.00097751524 -0.99999893 0
22.178831 10.169011 2 -0.00097751536 -0.00097751536 -0.99999905 0
23.399208 10.164334 2 -0.00097751536 -0.00097751536 -0.99999905 0
24.705948 10.194252 1.8232653 -0.61414576 0.005754896 -0.78917164 0
41.817982 10.416542 1.7982551 0.91621089 0.40069646 -0.00027012452 0
42.080063 9.8003578 1.8380299 0.92615354 0.37714675 -0.00026685494 0
-6.1541319 10.874699 1.8377342 -0.49299976 0.87002796 0.0016241287 0
-5.4124002 11.25501 1.8130094 -0.43275836 0.90150654 0.0024749408 0
-4.1625919 11.775951 1.8148754 -0.33389586 0.94260609 0.0027104607 0
-3.5395074 11.985394 1.8680236 -0.28433195 0.95872056 0.003198439 0
3.5250008 11.990079 1.520046 0.26729712 0.96350914 -0.014220565 0
4.2486186 11.777921 1.6873835 0.2821649 0.93730396 -0.20455845 0
5.4408798 11.404413 1.786808 0.31302667 0.76209152 -0.56677228 0
6.5082116 11.308838 1.9301145 0.14997192 0.42230526 -0.89396125 0
7.8530078 11.437108 2 -0.0041668629 0.20440038 -0.9788785 0
8.9870806 11.424694 2 0.0020528759 0.18216966 -0.98326498 0
10.232543 11.40182 2 -0.0041000363 0.1590112 -0.98726821 0
11.436187 11.397417 2 0.00068105507 0.18178238 -0.98333853 0
12.606819 11.419167 2 -0.002168041 0.17769973 -0.98408228 0
13.773875 11.391757 2 0.0034426961 0.17282631 -0.98494625 0
15.005626 11.414032 2 -0.0067742285 0.20029452 -0.97971237 0
16.232128 11.372128 2 0.0030474442 0.1577273 -0.98747802 0
17.391411 11.345365 2 0.0015034995 0.13344115 -0.99105567 0
18.607283 11.399605 2 -0.0037825278 0.16250335 -0.98670077 0
19.837778 11.439514 2 -0.0031104307 0.19274153 -0.98124462 0
21.017673 11.398406 2 -0.00038580241 0.17935044 -0.98378521 0
22.192719 11.375264 2 -0.012108532 0.13672477 -0.99053508 0
23.378298 11.368977 2 -0.020158531 0.046848107 -0.99869853 0
24.707449 11.386786 1.8254768 -0.60824627 -0.0036972295 -0.7937398 0
41.352547 11.417406 1.8023374 0.89822829 0.4395293 0.00013668937 0
-2.9212246 12.145367 1.8339922 -0.23435317 0.97214633 0.0031989641 0
-1.7979878 12.361742 1.785974 -0.14399192 0.98957497 0.0027713517 0
-0.61100602 12.476463 1.8160833 -0.048928689 0.99879718 0.0031862324 0
0.59694916 12.476377 1.8264669 0.047567744 0.99886262 0.0032755111 0
1.7840167 12.362563 1.7629277 0.14229602 0.98982066 0.0026380233 0
2.9821808 12.130716 1.8152711 0.22271024 0.97488087 -0.0027345272 0
4.2166467 12 2.2195985 0.061743312 0.96908849 -0.23886237 0
5.3687038 12 2.2173188 -0.0057302057 0.89962167 -0.43663257 0
6.5736966 12 2.2199867 0.0027535697 0.91958791 -0.39287451 0
7.8037696 12 2.1807966 0.0043218513 0.89781576 -0.44035003 0
9.0982695 12 2.2020202 -0.0012546226 0.8906281 -0.45473069 0
10.240819 12 2.1911671 0.0012540342 0.87398469 -0.48595175 0
11.434843 12 2.2114947 -0.0047282423 0.91062558 -0.4132053 0
12.563286 12 2.2098699 0.010956055 0.89776784 -0.44033271 0
13.733088 12 2.1894393 0.012663485 0.90930218 -0.41594374 0
15.044408 12 2.1984746 -0.020541931 0.91992545 -0.39155483 0
16.209356 12 2.2272539 0.026023472 0.91552752 -0.40141284 0
17.460209 12 2.2056944 -0.025620129 0.88760477 -0.4598929 0
18.608625 12 2.1882544 -0.0016253442 0.90178543 -0.43218088 0
19.73583 12 2.2005968 0.0027037254 0.91050619 -0.41348657 0
20.996809 12 2.1849716 -0.0010386527 0.88908118 -0.45774823 0
22.209682 12.025972 2.1845031 -0.093887128 0.87164032 -0.48107007 0
23.504047 12.32057 2.1090498 -0.3360776 0.60565907 -0.72126889 0
24.694498 12.615178 1.8624814 -0.72291094 0.14952192 -0.67456865 0
40.577011 12.887795 1.8149911 0.86842382 0.4958224 -0.00022878342 0
40.926823 12.257142 1.8123685 0.88203251 0.47118831 0.00041307736 0
24.891092 13.775061 1.845518 -0.95252985 0.14308791 -0.26872435 0
40.037003 13.785103 1.7971735 0.84773552 0.53041917 0.00013328834 0
24.995436 14.969473 1.7742435 -0.99957919 0.023430426 -0.01710128 0
39.229172 15.000896 1.7606955 0.81667668 0.57709533 0.00051608501 0
39.624714 14.429778 1.7369933 0.83245051 0.55409926 0.00031260567 0
25 16.145264 1.8104441 -0.99999911 -0.00097751536 -0.00097751536 0
38.097366 16.488914 1.819308 0.77305543 0.63433838 -0.00031943872 0
38.598419 15.859262 1.781858 0.79254186 0.60981756 -6.530893e-05 0
25 17.426119 1.7770114 -0.99999905 -0.00097751536 -0.00097751536 0
36.963467 17.781507 1.8121874 0.72930259 0.68419117 0.00049234467 0
37.536488 17.149702 1.8197732 0.75157845 0.65964371 0.0001222502 0
25 18.61211 1.8089005 -0.99999911 -0.00097751536 -0.00097751536 0
35.750473 18.993195 1.8418109 0.68241125 0.73096853 -6.4321292e-05 0
36.388329 18.375051 1.7202979 0.70748484 0.70672834 0.0004240486 0
25 19.763309 1.8024945 -0.99999964 -0.00035889194 -0.00084672251 0
34.471546 20.111933 1.852639 0.63367516 0.77359903 -0.00062909955 0
35.143505 19.54183 1.7917072 0.65964895 0.7515738 -0.00011511197 0
25.045048 21.0777 1.8671616 -0.98896825 0.14810643 -0.0025161325 0
33.033375 21.205416 1.7882276 0.5786379 0.8155846 -5.2660953e-06 0
33.863537 20.596081 1.8130627 0.60996807 0.79242599 -0.00017942485 0
25.167618 21.689716 1.8639898 -0.94513315 0.32668272 -0.0013466121 0
25.48485 22.305735 1.7975539 -0.84438586 0.53573477 -0.00089086185 0
30.835186 22.607122 1.7916862 0.49399629 0.86946392 -0.00056195958 0
31.801054 22.027863 1.757452 0.53071678 0.8475492 -0.00022958162 0
32.431084 21.626259 1.9063492 0.5538587 0.83261073 0.00010391418 0
26.119177 23.034704 1.7758124 -0.62737954 0.77871358 -0.00037585921 0
26.994963 23.510099 1.803757 -0.33894154 0.9408071 -0.00077121245 0
28.198725 23.681446 1.8275182 0.065714993 0.99783832 0.0003966816 0
29.277655 23.410593 1.7676125 0.37544993 0.92684227 0.00085553835 0
30.244005 22.933403 1.8282162 0.4719595 0.88162023 1.6719092e-05 0
26.118439 -23.033884 3.0056574 -0.62851965 -0.77779347 -0.00059329416 0
26.993261 -23.509878 2.9918339 -0.33852488 -0.94095719 0.00059191854 0
28.222492 -23.67963 3.0198231 0.074674129 -0.99720776 -0.00060660567 0
29.318775 -23.391439 2.9776399 0.3811886 -0.92449725 0.0001327018 0
30.237167 -22.937153 2.9415445 0.47091937 -0.8821761 0.00051726331 0
25.167746 -21.692783 2.9136307 -0.94238913 -0.33451813 -0.00047128816 0
25.487738 -22.309259 3.0215669 -0.84274769 -0.53830886 3.0907095e-06 0
30.822958 -22.613998 3.020489 0.49302363 -0.8700158 0.00028843939 0
31.804934 -22.02566 3.0164351 0.53099167 -0.847377 8.080517e-05 0
32.437546 -21.622669 2.985348 0.55548823 -0.83152425 -0.00037946945 0
25.044428 -21.071543 2.9587643 -0.98904872 -0.14756998 0.0023998064 0
33.066864 -21.182716 3.005677 0.57983625 -0.81473303 -0.00015790587 0
33.868271 -20.592609 2.9775004 0.60993022 -0.79245496 -0.00036413848 0
25 -19.814121 3.0015798 -0.99999875 -0.0013195586 -0.00084673549 0
34.480034 -20.104971 3.0052025 0.63407606 -0.77327061 -0.00023078875 0
35.174995 -19.514208 2.9958742 0.66079217 -0.75056887 -0.00012862851 0
25 -18.617895 2.9948592 -0.99999905 -0.00097751536 -0.00097751536 0
35.741074 -19.001421 2.9427071 0.68234336 -0.7310316 0.00045091449 0
36.368107 -18.395658 2.9926529 0.70690972 -0.7073037 -3.7199737e-08 0
25 -17.401266 3.0458901 -0.99999905 -0.00097751524 -0.00097751524 0
36.977848 -17.765251 3.0373504 0.73013407 -0.68330395 1.6748107e-08 0
37.511837 -17.177704 2.996134 0.75086051 -0.66046077 0.00012223881 0
25 -16.220232 2.9830034 -0.99999893 -0.00097751524 -0.00097751524 0
38.121399 -16.459547 3.0109015 0.7740941 -0.63307059 -5.0550607e-05 0
38.597431 -15.861505 3.0504146 0.7927348 -0.60956663 -1.2027736e-05 0
24.988161 -14.9877 2.9784498 -0.9978829 -0.065029405 -0.00089989713 0
39.210632 -15.026332 3.0252247 0.81557536 -0.57865083 0.00022977374 0
39.624794 -14.433619 2.9142129 0.83180946 -0.55506134 0.00010414826 0
24.709509 -13.777286 3.0117538 -0.91161102 -0.41083485 -0.013415595 0
40.037903 -13.784167 2.9822428 0.84798831 -0.53001487 -0.00032918536 0
-2.9460938 -12.13727 2.967114 -0.23605594 -0.97173953 0.00014054499 0
-1.830391 -12.354074 3.0073545 -0.14574873 -0.98932165 7.2702693e-05 0
-0.59086818 -12.474332 2.9903615 -0.046126675 -0.99893552 0.00027018582 0
0.60101593 -12.474209 2.9700649 0.047951978 -0.99884957 0.0001452275 0
1.8093791 -12.356419 3.0118761 0.14376615 -0.98961174 -6.7456854e-06 0
2.954742 -12.135088 2.9525831 0.20290719 -0.9791978 -0.00047598843 0
22.400391 -12.039131 3.0127585 -0.14180884 -0.98980564 -0.013231127 0
23.411987 -12.385145 3.018214 -0.47504804 -0.87977409 -0.018082013 0
24.205332 -12.977628 2.9575634 -0.73712087 -0.67553341 -0.017535329 0
40.603062 -12.841583 2.997262 0.86940503 -0.49410009 -1.0445086e-05 0
40.942253 -12.227143 3.0109792 0.88212121 -0.47102255 -0.00015358733 0
-6.142427 -10.881748 2.9706573 -0.49325842 -0.86988282 -0.00012242267 0
-5.3767209 -11.270488 2.9840333 -0.42974162 -0.90295172 0.00048038168 0
-4.1890168 -11.764456 3.0202191 -0.33594319 -0.94188225 -0.00018757529 0
-3.5420983 -11.980265 3.0190423 -0.28733078 -0.95783138 -0.00024370562 0
3.5594847 -12 2.9504867 0.09678667 -0.99530387 -0.0015802186 0
4.1843486 -12 2.9830465 0.012267799 -0.99983239 -0.013589705 0
5.4028592 -12 3.0221634 -0.00038892776 -0.99989748 -0.014310236 0
6.5736165 -12 2.978451 -0.0010597503 -0.99981827 -0.019035079 0
7.8219924 -12 2.9826176 -0.00059044926 -0.99976093 -0.021858938 0
8.9882927 -12 3.0059137 -0.001787349 -0.99975121 -0.022234911 0
10.195961 -12 2.9589005 -0.00056335167 -0.99977833 -0.021044303 0
11.383516 -12 3.0461514 -0.00079841615 -0.99991459 -0.013048641 0
12.606993 -12 3.0013673 -0.00097698299 -0.99988341 -0.015236958 0
13.832808 -12 2.9581244 5.1358902e-06 -0.9997834 -0.02080786 0
14.987458 -12 2.9928153 -0.00015028597 -0.99984193 -0.017780866 0
16.214249 -12 3.0038979 -0.0010032824 -0.99991471 -0.013022167 0
17.365227 -12 2.9866118 -0.0019244817 -0.99977374 -0.021184998 0
18.595711 -12 3.0127604 3.5537119e-05 -0.99989295 -0.014632642 0
19.789923 -12 3.0041091 -0.00080255605 -0.99982619 -0.018626515 0
21.046717 -12 3.0159929 -0.0013760105 -0.99987578 -0.015703257 0
21.812691 -12 3.0079079 -0.015809214 -0.99974751 -0.015967784 0
41.350983 -11.420362 3.0211864 0.89859873 -0.43877128 -0.00022584083 0
-7.6161418 -9.8991966 2.9653316 -0.61010253 -0.7923221 0.00068974576 0
-6.7274971 -10.523 2.9970663 -0.53798819 -0.84295231 0.00022377285 0
41.826275 -10.397612 2.9674551 0.91641873 -0.40022054 0.00048142724 0
42.085293 -9.7836313 2.9398396 0.92597103 -0.37759459 0.00011565189 0
-8.8337612 -8.8289528 2.9984543 -0.70749849 -0.70671487 -0.00019191919 0
-8.2185268 -9.4074154 3.0184193 -0.65619689 -0.75458968 0.00020524992 0
42.37328 -9.0375814 3.0103681 0.9376654 -0.34753925 -4.4863846e-05 0
-9.9122362 -7.5988212 2.925734 -0.79332143 -0.6088028 0.00050464761 0
-9.44135 -8.1773882 3.0584242 -0.75641894 -0.65408742 2.7582999e-05 0
42.790565 -7.8195949 3.0107999 0.95364928 -0.30092034 -0.00019424268 0
-10.878828 -6.1498947 2.9907792 -0.87047911 -0.49220535 -0.00019592031 0
-10.504067 -6.7563767 3.030834 -0.84051371 -0.54179025 -4.6455974e-05 0
43.097832 -6.7754498 2.9759278 0.96550608 -0.26038021 0.00037213025 0
43.245518 -6.2081342 2.9827719 0.97097933 -0.23916326 0.00023575779 0
-11.273947 -5.3686686 2.9988737 -0.90332782 -0.42895085 0.00030959398 0
43.423153 -5.4221482 3.0378439 0.97799903 -0.20860933 -4.0569535e-05 0
-11.760798 -4.2001123 3.048964 -0.94164622 -0.33660415 6.3080288e-06 0
43.657768 -4.1722608 2.9796481 0.98696655 -0.16092546 -9.7548982e-05 0
-12.142435 -2.925915 3.0413249 -0.97206014 -0.23473224 0.00012445234 0
-11.977983 -3.5565355 3.0205088 -0.95786875 -0.28720534 -0.00065514265 0
43.822876 -2.9915469 3.0069785 0.99336594 -0.1149959 -0.00021607742 0
-12.364658 -1.7602853 2.9919672 -0.99008203 -0.14049099 0.00013656949 0
43.93338 -1.793047 3.0387518 0.99761033 -0.069090627 -0.000312274 0
-12.473192 -0.60984862 3.0189674 -0.99881703 -0.048627194 0.00015935021 0
43.988949 -0.59620291 2.9815283 0.99971902 -0.023703912 0.00019206799 0
-12.473102 0.6243791 3.0175977 -0.9987449 0.050086819 0.00012018986 0
43.988338 0.59777617 2.9861884 0.99972028 0.023652129 -0.0001044517 0
-12.352555 1.8411251 2.9739082 -0.98916584 0.14680254 8.4974017e-06 0
43.932686 1.7940998 3.0036454 0.99761069 0.069085874 1.7555798e-05 0
-12.144994 2.915179 3.0048783 -0.97238797 0.23337018 0.00012095812 0
-11.981086 3.547034 2.9071152 -0.95771545 0.28771472 0.0012187281 0
43.822922 2.9873953 2.9731896 0.99341023 0.1146125 0.00010017496 0
-11.759501 4.2034531 2.9942763 -0.94151032 0.33698416 -0.00015865461 0
43.646511 4.2438321 3.024437 0.98655945 0.16340271 2.9822935e-05 0
-11.251397 5.4166856 2.9875813 -0.90127069 0.43325642 0.00038094731 0
43.413967 5.4632511 2.9731994 0.9776125 0.21041343 0.00031186047 0
-10.87817 6.1510925 2.9339907 -0.87087828 0.49149802 0.00083793054 0
-10.501266 6.7618332 2.997611 -0.84077477 0.54138416 0.00091574015 0
43.078369 6.8467636 2.9883082 0.96468055 0.26342216 -0.00025850008 0
43.244156 6.2163453 3.0228777 0.9712255 0.23816149 -0.00043653449 0
-9.9087296 7.6034737 2.9863071 -0.79268909 0.6096257 0.00067575718 0
-9.4442911 8.1739664 2.9653339 -0.75648683 0.65400887 -5.9665603e-05 0
42.799007 7.7932258 2.9937665 0.95388895 0.3001596 -4.1002721e-05 0
-8.8243122 8.8381729 2.989064 -0.70652103 0.70769203 -0.00012598261 0
-8.1986446 9.4242496 2.9624178 -0.65459865 0.75597662 -0.00015683586 0
42.379147 9.0202684 3.0246828 0.93793708 0.34680519 -0.00034312063 0
-7.5981455 9.9130936 2.9927993 -0.60828668 0.79371727 0.00037052794 0
-6.7471185 10.510226 2.9872928 -0.54110318 0.84095627 -3.8228001e-05 0
41.82991 10.388646 2.9981518 0.91677922 0.39939436 -0.00017423571 0
42.077541 9.8065233 2.9670393 0.9259513 0.3776429 0.00037618761 0
-6.137825 10.884844 2.9598615 -0.49243534 0.87034905 0.00019795989 0
-5.4260383 11.247369 2.9850421 -0.43412617 0.90085208 -6.0314886e-07 0
-4.169826 11.771171 3.0266418 -0.33410713 0.9425351 -0.00026225453 0
-3.5237851 11.986094 3.0851839 -0.28597164 0.95823807 9.3927883e-05 0
41.341888 11.43895 2.9961698 0.89784873 0.44030398 0.00018130835 0
-2.9440792 12.137744 3.0033007 -0.23607433 0.971735 0.00012147152 0
-1.8040065 12.358324 2.9908955 -0.1429161 0.98973471 0.0002691485 0
-0.6150735 12.472944 2.9793348 -0.048436049 0.99882632 0.00020649872 0
0.6255514 12.473058 2.9857352 0.049872257 0.99875557 0.00028941716 0
1.8156009 12.356064 3.0282538 0.1444025 0.989519 3.680271e-05 0
2.9649501 12.133301 2.9732742 0.20325223 0.97912627 -0.00053172506 0
4.1734772 12 2.9834104 0.012506488 0.99982691 -0.01377112 0
5.3763719 12 3.0127609 0.00057914841 0.99987787 -0.015615889 0
6.5816069 12 2.9860513 0.00010330741 0.99977267 -0.021323651 0
7.7968135 12 2.967767 0.00084313744 0.99973911 -0.022829186 0
8.96593 12 3.0105197 0.0013745588 0.99989146 -0.014667288 0
10.2145 12 3.0417151 0.0010331735 0.99985754 -0.016843963 0
11.383689 12 3.0010715 0.00012934419 0.99982047 -0.01894314 0
12.628646 12 2.9720182 0.0012342143 0.99978662 -0.020621615 0
13.757848 12 3.0146976 0.00087801105 0.99993676 -0.011208574 0
15.017564 12 2.9891012 3.5396457e-05 0.9999342 -0.01147698 0
16.124781 12 2.9859161 0.0017052197 0.99988604 -0.01500216 0
17.400068 12 2.9985898 -0.00012156012 0.99990189 -0.014009061 0
18.64805 12 2.9765959 0.00068235304 0.99992794 -0.011982347 0
19.763174 12 3.0073755 0.0011982425 0.99992889 -0.0118637 0
20.976961 12 3.0050156 8.5200205e-05 0.99977392 -0.021266241 0
22.204344 12.024615 2.9873884 -0.1003615 0.99479967 -0.01735612 0
23.398764 12.377512 3.0296409 -0.47001821 0.88254285 -0.014181562 0
24.198921 12.971343 3.0349224 -0.73549086 0.67731631 -0.017202873 0
40.586727 12.870822 2.9678628 0.86884874 0.4950777 0.00014299179 0
40.937191 12.237558 3.0902102 0.88268858 0.46995729 -0.00095037569 0
24.717157 13.790567 2.9641175 -0.91353077 0.4064714 -0.015570489 0
40.025642 13.803385 3.0590546 0.84726238 0.53117454 -0.00030739926 0
24.99025 14.998524 3.0160325 -0.99826956 0.058786552 -0.0014147959 0
39.175728 15.076528 2.9910564 0.81448478 0.58018482 -0.00028479769 0
39.617874 14.440242 3.1063023 0.83198023 0.55480468 -0.00090325135 0
25 16.194725 2.9916978 -0.99999905 -0.00097751536 -0.00097751536 0
38.135769 16.441967 2.9909961 0.7744956 0.63257921 0.0001746569 0
38.577286 15.887032 3.013984 0.79161376 0.61102182 -5.7041281e-05 0
25 17.402912 3.0341694 -0.99999905 -0.00097751536 -0.00097751536 0
36.964382 17.78055 3.0149384 0.72948253 0.68399936 -0.00033226996 0
37.524464 17.163355 3.0139871 0.75111133 0.66017556 -0.00024541898 0
25 18.577089 2.9900813 -0.99999905 -0.00097751536 -0.00097751536 0
35.747776 18.99575 2.9336903 0.68247867 0.73090547 -0.00041065249 0
36.345993 18.417 3.0162168 0.70577335 0.70843768 -0.00034928374 0
25 19.809723 2.9887502 -0.9999997 -0.00018282117 -0.00070092437 0
34.435917 20.14098 3.0115502 0.63209945 0.7748872 0.00019986801 0
35.145779 19.539824 3.0282259 0.65957975 0.7516346 0.000111381 0
25.04244 21.057848 2.9157336 -0.98997861 0.14119796 0.0023542501 0
33.033573 21.205828 2.9561741 0.57851249 0.81567353 -8.076089e-07 0
33.874866 20.58741 3.0040789 0.61088914 0.7917161 -0.00020947502 0
25.166431 21.689667 2.9902496 -0.94186252 0.33599535 -0.0014613617 0
25.49938 22.327085 2.9967246 -0.83856452 0.54480231 0.00030747749 0
30.852667 22.597282 2.9540174 0.49451137 0.86917102 0.00057399349 0
31.803099 22.026581 2.9685338 0.53078365 0.84750742 4.0468665e-05 0
32.440598 21.619701 3.056782 0.55574846 0.83135039 -0.00039809768 0
26.13118 23.0453 2.9957674 -0.62349802 0.78182495 -0.0001803584 0
26.983152 23.504025 2.9891562 -0.3426919 0.93944782 0.00036323728 0
28.207088 23.681808 2.9929078 0.069422834 0.99758714 0.00047135915 0
29.286963 23.406019 2.9983821 0.37619913 0.92653877 0.0002167371 0
30.248463 22.930927 2.966624 0.47181293 0.88169867 0.00024912355 0
26.107094 -23.025669 4.1884556 -0.63333231 -0.77387977 0.00049814343 0
26.993277 -23.508373 4.2148647 -0.33843938 -0.94098818 -0.00035059257 0
28.216724 -23.67889 4.2109313 0.072786048 -0.99734753 -0.00022324595 0
29.307022 -23.396387 4.2268662 0.37911555 -0.92534924 -0.00026863153 0
30.237682 -22.936989 4.1978908 0.47141474 -0.8819117 0.0001317639 0
25.170109 -21.69413 4.1592927 -0.94275945 -0.33342937 0.0054285075 0
25.522785 -22.364677 4.167417 -0.82796866 -0.56076682 0.0029195161 0
30.851234 -22.597349 4.207231 0.49427399 -0.86930609 -0.00048146877 0
31.822754 -22.013758 4.1794381 0.53167439 -0.84694874 0.00046097327 0
32.4431 -21.619059 4.1575122 0.55430973 -0.83231026 0.00067748071 0
25.028852 -20.935612 4.2181683 -0.99443609 -0.10534155 0.00020088673 0
33.025337 -21.211927 4.1863842 0.57804769 -0.81600296 0.00030426128 0
33.852474 -20.604797 4.1710906 0.60924852 -0.79297894 0.00075590797 0
25 -19.780716 4.2181787 -0.99999899 -0.0012667825 -0.00066548295 0
34.472313 -20.111435 4.2013249 0.63356364 -0.77369058 6.2979074e-05 0
35.177818 -19.51199 4.2076821 0.66087657 -0.75049454 2.6480931e-05 0
25 -18.587669 4.2279215 -0.99999893 -0.00097751524 -0.00097751524 0
35.734913 -19.007132 4.2745452 0.68175763 -0.73157793 -0.0005348039 0
36.379906 -18.383568 4.1909719 0.70745218 -0.70676124 -4.8106296e-05 0
25 -17.397356 4.1973243 -0.99999917 -0.00097751536 -0.00097751536 0
36.972202 -17.771259 4.1751018 0.7296623 -0.68380761 -0.00039453071 0
37.543438 -17.141203 4.2065706 0.75149661 -0.65973681 -0.00010057845 0
25 -16.199909 4.1767173 -0.99999905 -0.00097751536 -0.00097751536 0
38.134197 -16.443634 4.2034955 0.77448887 -0.63258755 -2.9253479e-05 0
38.595898 -15.863546 4.1958251 0.7927354 -0.60956579 -0.00033180704 0
24.988729 -14.998884 4.2013092 -0.99808598 -0.061842132 -0.00013545794 0
39.180496 -15.069661 4.2251115 0.81454766 -0.58009654 1.2003802e-05 0
39.622093 -14.437812 4.0878329 0.83156323 -0.55542988 -0.00045165449 0
24.71315 -13.783964 4.2209048 -0.912727 -0.40856972 0.00046104175 0
40.035454 -13.787848 4.180316 0.84802818 -0.52995104 -0.00020848867 0
-2.9414546 -12.13829 4.1790848 -0.23501028 -0.97199291 6.4479129e-05 0
-1.7663665 -12.363899 4.165195 -0.14125784 -0.98997259 0.00071033859 0
-0.59140861 -12.474814 4.2262874 -0.047370814 -0.99887735 4.3464624e-05 0
0.63253903 -12.472307 4.1495986 0.051512334 -0.99867237 0.00028738091 0
1.7540028 -12.365142 4.1984081 0.13896886 -0.9902966 -0.00038159601 0
2.9560487 -12.13478 4.1307931 0.20774418 -0.97818303 0.00059749821 0
22.401737 -12.038382 4.2263098 -0.14207646 -0.98985553 0.00063962681 0
23.441278 -12.403296 4.1821632 -0.4856829 -0.87413496 -0.00046851145 0
24.218655 -12.991292 4.2050834 -0.74027616 -0.67230266 0.00060411036 0
40.587666 -12.868268 4.1453996 0.86865562 -0.4954164 0.00012360231 0
40.925095 -12.258646 4.220242 0.88146269 -0.47225362 0.00025296106 0
-6.1339188 -10.886938 4.2226057 -0.49308467 -0.86998111 -0.00065359048 0
-5.4278755 -11.246699 4.2414885 -0.4338221 -0.90099847 -0.000302389 0
-4.1879253 -11.764465 4.1650429 -0.33492234 -0.9422456 0.00055820192 0
-3.5475225 -11.978539 4.3202701 -0.28948078 -0.95718384 7.7749792e-07 0
3.5559614 -12 4.1510777 0.10077598 -0.99490708 0.0020113471 0
4.1912766 -12 4.214798 0.013368165 -0.99991059 -0.00024123873 0
5.4361386 -12 4.2435946 -0.00097751536 -0.99999905 -0.00097751536 0
6.578557 -12 4.2208815 -0.00097751536 -0.99999905 -0.00097751536 0
7.8097086 -12 4.208581 -0.00097751536 -0.99999911 -0.00097751536 0
9.0084286 -12 4.1875324 -0.00097751536 -0.99999911 -0.00097751536 0
10.210197 -12 4.2062807 -0.00097751536 -0.99999911 -0.00097751536 0
11.383445 -12 4.206296 -0.00097751536 -0.99999905 -0.00097751536 0
12.56364 -12 4.2229476 -0.00097751524 -0.99999905 -0.00097751524 0
13.81756 -12 4.2052398 -0.00097751536 -0.99999905 -0.00097751536 0
15.004705 -12 4.2041464 -0.00097751536 -0.99999905 -0.00097751536 0
16.190275 -12 4.2031484 -0.00097751536 -0.99999911 -0.00097751536 0
17.367496 -12 4.2007265 -0.00097751536 -0.99999905 -0.00097751536 0
18.610281 -12 4.2036729 -0.00097751536 -0.99999905 -0.00097751536 0
19.873787 -12 4.1977162 -0.00097751536 -0.99999905 -0.00097751536 0
21.001987 -12 4.2056332 -0.00099733099 -0.99999923 -0.00079977576 0
21.815071 -12 4.1435399 -0.016534001 -0.99986327 -0.00029083682 0
41.360893 -11.401092 4.1997967 0.89878094 -0.43839782 0.0004152903 0
-7.5804429 -9.9269457 4.23349 -0.6063168 -0.79522288 -0.0007164221 0
-6.7777748 -10.490075 4.1923132 -0.54386353 -0.83917373 8.787948e-06 0
41.83308 -10.381658 4.1839685 0.91686708 -0.39919242 0.00020996456 0
42.080589 -9.7949848 4.1603498 0.92589062 -0.37779149 -0.00010271399 0
-8.8299332 -8.8327093 4.2284179 -0.70721108 -0.7070024 0.00038404958 0
-8.1981325 -9.4246864 4.2070041 -0.65473145 -0.75586146 0.00035241767 0
42.377449 -9.0268459 4.1916938 0.93778741 -0.34720939 -0.00047719799 0
-9.9189548 -7.5904698 4.2291222 -0.7940594 -0.60784006 -0.00019557941 0
-9.4175282 -8.2050867 4.1825304 -0.75519043 -0.65550536 0.00022685328 0
42.79438 -7.807817 4.2066498 0.95374674 -0.30061123 -4.4224511e-05 0
-10.88236 -6.1432672 4.2428775 -0.8710987 -0.49110803 -0.00011672839 0
-10.51631 -6.7377305 4.1995583 -0.84207219 -0.53936481 0.00014171377 0
43.091015 -6.8015184 4.2375174 0.96518481 -0.26156893 -6.4895292e-05 0
43.245846 -6.2070427 4.2392921 0.97098023 -0.23915993 1.915859e-05 0
-11.243633 -5.4334497 4.2011957 -0.90056497 -0.43472132 -0.00015163957 0
43.432274 -5.3792653 4.1584582 0.97841626 -0.20664361 3.6779009e-05 0
-11.762777 -4.1916599 4.1950307 -0.94179332 -0.3361924 -0.00018753512 0
43.654842 -4.1907206 4.1727123 0.98686409 -0.16155282 1.0063481e-05 0
-12.139971 -2.9358861 4.2236824 -0.97181726 -0.23573534 -0.00023109997 0
-11.978803 -3.5540257 4.2012939 -0.95731157 -0.28905794 -5.2661941e-05 0
43.823162 -2.9904983 4.1774945 0.99339038 -0.11478472 5.3757307e-05 0
-12.360016 -1.7890604 4.1921344 -0.9898209 -0.14231879 -4.8826947e-05 0
43.929947 -1.8326983 4.1695485 0.99751741 -0.070420049 0.00027121408 0
-12.474539 -0.5773344 4.2149029 -0.99895972 -0.045600578 -0.00020885376 0
43.987694 -0.63260728 4.2207541 0.99968886 -0.024943046 0.00021363444 0
-12.473436 0.59194356 4.189065 -0.99890965 0.046685696 0.00020191219 0
43.988003 0.6154173 4.1758809 0.99970633 0.024231959 0.0002682301 0
-12.356402 1.8141087 4.2047281 -0.98953348 0.14430353 0.00021452518 0
43.931839 1.8088636 4.2223177 0.99758601 0.069442473 0.00012126607 0
-12.138617 2.9420137 4.1674657 -0.97176278 0.23595975 0.00034403059 0
-11.981469 3.5458605 4.0254817 -0.9572264 0.28933927 0.00054207153 0
43.816929 3.0405474 4.2087035 0.99314862 0.11685796 -0.00019019147 0
-11.753917 4.2195492 4.2144103 -0.94113523 0.33802962 0.00073140999 0
43.657528 4.1767263 4.2392344 0.98696941 0.16090789 -0.00012301527 0
-11.254787 5.408545 4.2353101 -0.90157032 0.43263274 -0.00011273222 0
43.43219 5.3757267 4.1929741 0.9784019 0.20671155 -6.4850821e-05 0
-10.877894 6.1517367 4.1954079 -0.87062132 0.49195376 -0.00033417335 0
-10.50419 6.7563925 4.2483416 -0.84033483 0.54206777 -0.00027576362 0
43.087234 6.8135028 4.1699791 0.96498746 0.2622962 0.00017254158 0
43.246181 6.2077131 4.2526417 0.97137535 0.23755021 -0.00016404531 0
-9.9295807 7.5754414 4.199594 -0.79515052 0.60641193 -0.00044801895 0
-9.4201641 8.2020235 4.1922503 -0.75512624 0.65557933 0.00039802957 0
42.79287 7.8126001 4.1691685 0.95363927 0.30095214 -6.6914331e-06 0
-8.8122416 8.8507042 4.1974764 -0.70594072 0.70827091 -0.00019932074 0
-8.1896915 9.4318361 4.1569061 -0.65390652 0.75657535 0.00026928255 0
42.387096 8.9991388 4.195292 0.93819916 0.34609583 0.00019565146 0
-7.6190453 9.8967133 4.2011795 -0.61047447 0.79203576 -0.0004925098 0
-6.7499156 10.507989 4.2036047 -0.54149902 0.84070128 0.00020234719 0
41.821022 10.409286 4.1376534 0.91626781 0.40056616 0.00012110099 0
42.088482 9.7800837 4.1897783 0.92652571 0.37623134 -3.3694243e-05 0
-6.1319633 10.888211 4.1517987 -0.49253532 0.87029237 -0.00021683745 0
-5.4087448 11.255435 4.2220969 -0.43266425 0.90155512 -0.0001616721 0
-4.1994333 11.75978 4.1663628 -0.33639157 0.94172221 0.00010551785 0
-3.5270126 11.985067 4.2446804 -0.28475076 0.95860147 -0.00026946008 0
41.376038 11.370067 4.1769977 0.8993088 0.43731412 0.00014948631 0
-2.924634 12.142406 4.2031331 -0.23487169 0.97202629 0.00031927362 0
-1.8382879 12.353418 4.2324295 -0.14704175 0.98913026 -0.00032368291 0
-0.56051409 12.476401 4.1468987 -0.04391183 0.99903536 0.00046244764 0
0.58290875 12.473961 4.1666031 0.046265677 0.99892914 0.00019645019 0
1.8463447 12.351291 4.2141957 0.14783603 0.98901188 -7.4663745e-05 0
3.0255897 12.118852 4.2227054 0.19741386 0.98032022 0.0002301248 0
4.2271037 12 4.2400322 0.012967356 0.99991554 0.00085962593 0
5.3920727 12 4.191102 0.00097751524 0.99999899 0.00097751524 0
6.6062746 12 4.210361 0.00097751536 0.99999911 0.00097751536 0
7.8066425 12 4.1759653 0.00097751536 0.99999905 0.00097751536 0
9.0221024 12 4.2058225 0.00097751524 0.99999905 0.00097751524 0
10.212426 12 4.2015133 0.00097751536 0.99999905 0.00097751536 0
11.424842 12 4.1912861 0.00097751536 0.99999905 0.00097751536 0
12.609247 12 4.2107792 0.00097751536 0.99999905 0.00097751536 0
13.791471 12 4.2031274 0.00097751536 0.99999905 0.00097751536 0
14.992731 12 4.1808643 0.00097751536 0.99999905 0.00097751536 0
16.179409 12 4.2365923 0.00097751536 0.99999911 0.00097751536 0
17.386583 12 4.1672568 0.00097751536 0.99999905 0.00097751536 0
18.606894 12 4.1960311 0.00097751536 0.99999905 0.00097751536 0
19.779297 12 4.153336 0.00097751536 0.99999905 0.00097751536 0
21.026365 12 4.2117939 0.00055506022 0.99999958 0.00075716799 0
22.233475 12.02858 4.166306 -0.10778249 0.99417442 -0.0004061675 0
23.427843 12.394465 4.2059822 -0.48145381 0.8764714 -0.00044458499 0
24.198786 12.969396 4.21417 -0.73461306 0.67848635 0.00016006322 0
40.598778 12.849282 4.213438 0.86937231 0.49415758 0.00013171609 0
40.938908 12.234458 4.1093426 0.88223749 0.47080377 0.00088633894 0
24.709518 13.777839 4.205821 -0.91130602 0.41172954 0.00031888965 0
40.029449 13.798214 4.2134356 0.84745264 0.53087103 9.8888318e-05 0
