# .PCD v0.7 - Point Cloud Data file format
VERSION 0.7
FIELDS x y z normal_x normal_y normal_z curvature
SIZE 4 4 4 4 4 4 4
TYPE F F F F F F F
COUNT 1 1 1 1 1 1 1
WIDTH 702
HEIGHT 1
VIEWPOINT 0 0 0 1 0 0 0
POINTS 702
DATA ascii
-1.25184 -13.846627 0.55800217 0.15079843 -0.45523149 -0.87751013 0
1.2582884 -13.913289 0.55016613 -0.16785374 -0.47504047 -0.86380643 0
4.5084014 -13.526002 0 -0.00097751524 -0.00097751524 -0.99999905 0
7.4906802 -13.477074 0 -0.00097751524 -0.00097751524 -0.99999899 0
10.488454 -13.523258 0 -0.00097751524 -0.00097751524 -0.99999905 0
13.673176 -13.654686 0.18148954 0.10364361 -0.10769723 -0.98876655 0
16.061317 -13.260462 1.2576199 0.73474693 -0.61157 -0.29347751 0
-18.477505 -9.8462906 1.3862436 -0.87307543 -0.46176949 -0.15655138 0
-16.719877 -10.645101 1.109708 0.28340858 0.55789489 -0.78002107 0
-13.334323 -10.580117 1.07373 -0.52720046 0.73334843 -0.42925495 0
-10.541692 -10.533872 0 -0.00097751524 -0.00097751524 -0.99999911 0
-7.3207779 -10.231697 0.70976496 0.37242502 0.52917016 -0.76241624 0
-4.5233312 -11.166472 1.2199838 0.35478202 0.88528687 -0.30066067 0
-1.5144868 -11.858532 1.5039637 0.12620085 0.9867686 -0.10178947 0
1.5711595 -11.850083 1.4551033 -0.12474697 0.98720324 -0.099336959 0
4.5003505 -11.168277 1.1420795 -0.34950966 0.88093436 -0.31905764 0
7.3344231 -10.280623 0.68599403 -0.36430261 0.50566465 -0.7820403 0
10.503638 -10.487517 0 -0.00097751524 -0.00097751524 -0.99999911 0
13.365028 -10.583982 1.0628151 0.52217841 0.74908006 -0.40768716 0
16.669598 -10.645047 1.0794197 -0.33364618 0.6024254 -0.72509575 0
18.467215 -9.8660498 1.3765976 0.87281668 -0.46310759 -0.15402089 0
-19.308296 -7.4060354 1.0211067 -0.82840192 -0.31693348 -0.46184793 0
-16.663605 -7.1699185 1.1081786 0.75969595 -0.5553121 -0.33836448 0
-13.082647 -7.0075192 1.24288 -0.71671385 -0.66113114 -0.22187148 0
-10.206584 -7.3290524 0.73207313 0.54261583 0.38636714 -0.74584746 0
-8.5077238 -8.4580002 1.3541389 0.70460117 0.69396114 -0.14817227 0
8.4964037 -8.4766769 1.3449283 -0.69396991 0.69452143 -0.18985707 0
10.236576 -7.3600874 0.71560663 -0.53859472 0.39221591 -0.74570936 0
13.047308 -7.0481076 1.2905675 0.73627442 -0.64329553 -0.2099306 0
16.676592 -7.1925406 1.1801406 -0.76800495 -0.55634886 -0.31724501 0
19.282892 -7.4838281 1.0085689 0.82075244 -0.31726044 -0.47509077 0
-19.626772 -4.5672879 1.1494799 -0.61244845 0.63990074 -0.46414867 0
-16.474184 -4.4351926 0.86654609 -0.027254136 0.8223843 -0.56827915 0
-13.895477 -4.1712661 0.4070473 -0.35448256 0.024493866 -0.9347418 0
-11.121642 -4.6013889 1.155467 0.88563669 0.36607641 -0.28571963 0
11.151155 -4.5975294 1.1903734 -0.87751216 0.35207358 -0.32560202 0
13.466316 -4.5424399 0 0.0071700029 -0.010845767 -0.99991548 0
16.334753 -4.1166286 0.9259907 0.18725395 0.80420429 -0.56408453 0
19.644032 -4.427072 1.156319 0.61256528 0.59392756 -0.52154946 0
-14.251727 -1.4752784 0.74976307 -0.71381372 -0.00093491405 -0.70033497 0
-11.85968 -1.4977437 1.4173061 0.98480761 0.12852122 -0.11677478 0
11.849049 -1.5693916 1.4987557 -0.98577696 0.13600188 -0.0987285 0
13.520926 -1.5441767 0 0.024094073 -0.001752252 -0.99970818 0
15 -1.5123035 1.51525 0.9992817 0.0020248946 -0.037840214 0
-14.250668 1.5055681 0.73254764 -0.68363285 -0.0013183535 -0.7298249 0
-11.854223 1.5138355 1.4275987 0.98725235 -0.12635456 -0.096784614 0
11.850353 1.5727208 1.4751575 -0.98595768 -0.13124233 -0.10326064 0
13.53704 1.495797 0 0.016897505 -0.002399459 -0.99985433 0
15 1.5335573 1.518864 0.99952 0.00088298187 -0.03096878 0
-19.60634 4.5893102 1.1600111 -0.62585729 -0.60673696 -0.49007449 0
-16.558573 4.4341617 0.84784687 -0.0266075 -0.79496747 -0.60606831 0
-13.863957 4.3030992 0.42475411 -0.33835036 -0.023220595 -0.94073367 0
-11.155682 4.5638795 1.1726074 0.88146156 -0.3557812 -0.31055632 0
11.12802 4.6171365 1.1886905 -0.87659431 -0.36141124 -0.31774914 0
13.524683 4.5169954 0 0.0089378897 0.0084458124 -0.99992436 0
16.249403 4.2571707 1.0180033 0.27840418 -0.79183167 -0.54359329 0
19.593426 4.5772614 1.1475321 0.60300028 -0.63863587 -0.47805321 0
-19.337696 7.5018096 1.0901728 -0.85610592 0.33161867 -0.39637324 0
-16.6593 7.1473608 1.1302655 0.73709732 0.57197523 -0.35990545 0
-13.071321 7.0083413 1.3076758 -0.71912569 0.66350985 -0.20642915 0
-10.192278 7.3159132 0.79399168 0.55922735 -0.40060541 -0.7257961 0
-8.4996262 8.4722433 1.3485383 0.69779658 -0.69110465 -0.188293 0
8.4742346 8.4847431 1.3640658 -0.70131677 -0.70035237 -0.13289529 0
10.194533 7.3206329 0.71598029 -0.53823018 -0.38597941 -0.7492184 0
13.062096 7.0559068 1.3081841 0.72882003 0.6554023 -0.19816482 0
16.671972 7.1994386 1.1997099 -0.77912331 0.55303586 -0.29515797 0
19.308533 7.456934 0.98456854 0.82893974 0.31826338 -0.45996439 0
-18.465605 9.8731718 1.4642881 -0.87360477 0.46482712 -0.14404993 0
-16.73934 10.65247 1.075399 0.30099812 -0.54158765 -0.78490949 0
-13.299067 10.550997 1.0659041 -0.54588515 -0.7143563 -0.43784073 0
-10.520609 10.505791 0 -0.00097751524 -0.00097751524 -0.99999911 0
-7.3338785 10.226576 0.71834928 0.38042477 -0.54132026 -0.74983287 0
-4.5900435 11.150316 1.1437247 0.36370593 -0.87541115 -0.31839186 0
-1.481124 11.863431 1.4278263 0.12210604 -0.98694766 -0.10499727 0
1.4897001 11.857867 1.4445466 -0.12288507 -0.98950845 -0.075974993 0
4.5929122 11.156994 1.1535743 -0.35376769 -0.86997026 -0.34351155 0
7.3155599 10.226025 0.71854234 -0.38402575 -0.52582991 -0.75896442 0
10.446527 10.461728 0 -0.00091153808 -0.00098072807 -0.99999917 0
13.271941 10.542105 1.0698062 0.54592341 -0.70849705 -0.44721305 0
16.708033 10.624142 1.0688115 -0.30133778 -0.54632932 -0.78148556 0
18.484468 9.8534594 1.3783404 0.87664586 0.46403104 -0.12715052 0
-16.059921 13.259831 1.2666903 -0.74125361 0.6133765 -0.27260292 0
-13.603591 13.6331 0.22880676 -0.12006634 0.12198428 -0.98524302 0
-10.546246 13.437414 0 -0.00097751524 -0.00097751524 -0.99999905 0
-7.4785819 13.560334 0 -0.00097751524 -0.00097751524 -0.99999905 0
-4.4670439 13.512924 0 -0.00097751524 -0.00097751524 -0.99999905 0
-1.3188839 13.821961 0.45462015 0.14067277 0.39947659 -0.90588605 0
1.2537386 13.867259 0.5533151 -0.15033664 0.45748672 -0.87641585 0
4.5381551 13.534053 0 -0.00097751536 -0.00097751536 -0.99999911 0
7.4730597 13.540247 0 -0.00097751536 -0.00097751536 -0.99999911 0
10.49857 13.531913 0 -0.00097751524 -0.00097751524 -0.99999905 0
13.635797 13.630936 0.16484594 0.097006612 0.10028397 -0.99021858 0
16.065973 13.226187 1.2022642 0.73400509 0.60213822 -0.31411171 0
-13.265244 16.036766 1.1919782 -0.60481036 0.73016429 -0.31790641 0
-10.715572 16.822212 0.49835014 -0.24597423 0.37862357 -0.89226729 0
-7.4959302 16.520969 0 -0.00097751524 -0.00097751524 -0.99999911 0
-4.4990087 16.5383 0 -0.00097751524 -0.00097751524 -0.99999905 0
-2.2982168 16.407494 1.2491252 0.93894488 0.23715645 -0.24927746 0
2.277976 16.330465 1.2467377 -0.93567097 0.27855435 -0.21662724 0
4.480782 16.496952 0 -0.00097751524 -0.00097751524 -0.99999899 0
7.4712248 16.554649 0 -0.00097751524 -0.00097751524 -0.99999905 0
10.784538 16.786524 0.56678027 0.26843816 0.41337705 -0.87009215 0
13.280939 16.027924 1.2241815 0.61034161 0.73136616 -0.30428061 0
-9.8498373 18.468922 1.3493167 -0.46749344 0.86786276 -0.1681193 0
-7.374661 19.33103 1.0481179 -0.3196924 0.83529758 -0.44729695 0
-4.4742513 19.88599 0.8702839 -0.16611344 0.75317889 -0.6364966 0
-1.4715892 19.909679 1.1472002 0.49356389 0.25475836 -0.83156055 0
1.5011201 19.877298 1.1375587 -0.48781613 0.26477712 -0.83182245 0
4.4836693 19.894661 0.88278562 0.1658209 0.75513548 -0.63425052 0
7.4118848 19.337221 1.0840266 0.32244208 0.83901417 -0.43827644 0
9.8507128 18.470119 1.4234749 0.46690372 0.86911923 -0.16319509 0
-9.8818359 -18.508768 4.5337882 -0.47372383 -0.88067341 0.00015415135 0
-7.5300517 -19.57023 4.5115433 -0.35952452 -0.93313563 -8.961714e-05 0
-4.5410104 -20.473688 4.47861 -0.21700622 -0.97617024 -5.8181045e-05 0
-1.3907852 -20.00622 4.4824467 0.82664526 -0.56272298 0.00054557581 0
1.3824662 -19.983717 4.5160208 -0.83728319 -0.5467692 0.00047145205 0
4.4728861 -20.489981 4.5644546 0.21472509 -0.97667456 -0.00013179604 0
7.4578185 -19.599461 4.5603042 0.35475612 -0.93495888 -0.00012245774 0
9.8912716 -18.505617 4.4853768 0.47420254 -0.8804158 1.1254177e-05 0
-13.368646 -16.150631 4.4990411 -0.63710046 -0.77078074 7.520261e-05 0
-11.405539 -17.617228 4.5506601 -0.54296553 -0.839755 0.00014488291 0
-2.2318463 -16.426245 4.5646253 0.96835095 -0.24959235 -0.00019735405 0
2.2349088 -16.379076 4.5190883 -0.96336097 -0.26820785 -0.00049104082 0
11.389895 -17.626547 4.418828 0.53897154 -0.8423239 0.00019315627 0
13.337351 -16.176645 4.4979882 0.63830847 -0.7697807 8.870053e-05 0
-16.168411 -13.348085 4.5172629 -0.77180487 -0.63585943 -3.9575676e-05 0
-14.832558 -14.85178 4.5119705 -0.69304365 -0.72089565 1.6909164e-05 0
-0.78646672 -14.677549 4.5517559 0.32296908 -0.94640952 0.00023891911 0
0.7695145 -14.672192 4.5141401 -0.31500992 -0.94908828 0.00032127259 0
14.840133 -14.839295 4.4723306 0.70016819 -0.71397793 0.00018134364 0
16.149025 -13.370264 4.5102563 0.76818913 -0.64022297 -4.6046553e-05 0
-18.501001 -9.897521 4.4094882 -0.88357335 -0.46829268 3.5072368e-05 0
-16.670418 -10.588155 4.4840002 0.4946478 0.86909354 0.00010142875 0
-13.382254 -10.324563 4.4743218 -0.59222174 0.80577499 -4.9921349e-05 0
-6.6633472 -9.4887686 3 0.10917316 0.15032259 -0.98259062 0
-4.3898363 -10.056087 3 0.01918588 0.046875551 -0.99871647 0
-1.4909838 -10.40061 3 0.0057450244 0.03616976 -0.99932915 0
1.4318867 -10.408629 3 -0.0045609665 0.037295185 -0.99929386 0
4.3513932 -10.090463 3 -0.019733571 0.052064817 -0.99844873 0
6.6876225 -9.4682236 3 -0.078672536 0.11263191 -0.99051738 0
13.398659 -10.338728 4.3993478 0.58448356 0.8114056 6.7631139e-05 0
16.694279 -10.614177 4.4711366 -0.4612107 0.88729036 -0.00074443128 0
18.487349 -9.9250994 4.5352635 0.88337255 -0.46867144 2.0901907e-05 0
-19.58042 -7.5089951 4.4818463 -0.93372422 -0.35799316 2.7619421e-05 0
-16.464443 -7.1202259 4.5206456 0.78378803 -0.62102842 0.00012943383 0
-13.136667 -7.0713892 4.5007582 -0.74369627 -0.66851753 -0.00039264467 0
-9.5134935 -6.6865277 3 0.13073175 0.098429345 -0.98651958 0
-7.5035467 -7.4315901 3 0.01542691 0.015760537 -0.99975675 0
-4.4239345 -7.4587679 3 -0.00043634043 -0.00055534235 -0.99999976 0
-1.4133469 -7.5725722 3.9357007 0.72803855 0.32202914 -0.60519177 0
1.3835133 -7.5293374 3.9891 -0.76098758 0.31862044 -0.56513625 0
4.506659 -7.5240898 3 -0.00044912897 -0.00034067058 -0.99999982 0
7.4157066 -7.447556 3 -0.016856875 0.016423 -0.99972302 0
9.4150276 -6.7564583 3 -0.13516654 0.10535682 -0.98520547 0
13.198943 -6.998642 4.4928579 0.71216083 -0.70201629 5.6131452e-05 0
16.522724 -7.2111349 4.501287 -0.812262 -0.58329254 -0.00043995274 0
19.538198 -7.6190782 4.5131922 0.93206084 -0.36230177 0.00012081501 0
-19.747978 -4.4176865 4.528563 -0.66657054 0.74543965 0.001858972 0
-16.486776 -4 4.4871159 -0.031637326 0.99949819 0.00159324 0
-15 -3.4898324 4.4306054 -0.99460804 0.10370634 -0.00020542757 0
-10.053014 -4.3695111 3 0.052154768 0.020499395 -0.99842858 0
-7.5077996 -4.5099797 3 -0.00065605086 -0.00067901268 -0.99999958 0
-4.4773941 -4.5883594 3 -0.00048123865 -0.00047823091 -0.99999982 0
-1.1013459 -4.4843354 3.664561 0.22448981 -0.0069674854 -0.97445154 0
1.0971063 -4.4594684 3.7586436 -0.28700173 0.02548662 -0.95759088 0
4.4857721 -4.5991964 3 -0.00040657748 -0.00039215983 -0.99999988 0
7.4484978 -4.4836001 3 -0.00073716691 -0.0008250993 -0.99999934 0
10.101391 -4.3312664 3 -0.06392578 0.024917763 -0.99764353 0
16.212482 -3.670891 4.5130229 0.25386781 0.96723598 0.0024006211 0
19.857161 -4.2893829 4.4798851 0.74242151 0.66993266 0.000785515 0
-15 -1.535851 4.4565835 -0.99999988 -0.00033949662 -0.00034827669 0
-10.479503 -1.4640393 3 0.033010922 0.0046634674 -0.99944407 0
-7.4748712 -1.4875311 3 -0.00063433044 -0.00050211966 -0.99999964 0
-4.1479964 -1.2660831 3.4485943 0.37919798 0.073790893 -0.92236853 0
-2.2783492 -2.2543936 4.2519445 0.69888842 0.69128352 -0.18352705 0
2.2467949 -2.289634 4.2790861 -0.68917483 0.69553405 -0.20315142 0
4.1532669 -1.2610788 3.4261827 -0.38428023 0.079206593 -0.91981256 0
7.5437551 -1.5328101 3 -0.00086301885 -0.00077428389 -0.9999994 0
10.440288 -1.436924 3 -0.037583806 0.0044306745 -0.99928361 0
15 -1.4957434 4.4956255 0.99999982 0.00035998345 0.00049753807 0
-15 1.4946553 4.4616222 -0.9999997 -0.00053785357 -0.00055544009 0
-10.3831 1.4460411 3 0.039873328 -0.0038398495 -0.99919736 0
-7.292294 1.786495 3.6175692 0.3260909 0.48220187 -0.81310898 0
-4.4173498 1.5093985 3.8364398 0.073629983 0.40501857 -0.91133887 0
-2.3378773 2.2136521 4.3239546 0.75709009 -0.63591981 -0.1497348 0
2.3318655 2.2281969 4.2612829 -0.75720763 -0.62107682 -0.20223765 0
4.3985429 1.5510637 3.8083925 -0.045729451 0.39335379 -0.91824919 0
7.2826271 1.7738398 3.6374433 -0.31514362 0.48152229 -0.81781465 0
10.385294 1.447287 3 -0.037647627 -0.0062580085 -0.99927151 0
15 1.5250559 4.4425282 0.99999982 0.00039504332 0.00042964568 0
-19.801586 4.4752016 4.4796982 -0.73004317 -0.68340099 -0.00029280674 0
-16.523838 4 4.5368991 -0.033104721 -0.99945098 -0.0013302239 0
-15 3.4831395 4.5254755 -0.99337685 -0.11489948 0.00080049998 0
-10.057467 4.3848448 3 0.047117885 -0.019350413 -0.99870187 0
-7.383966 4.5193324 3.8568101 0.58078504 -0.46749872 -0.66643363 0
-4.6417437 4.4514976 3.8618593 -0.60109359 -0.41728953 -0.6815834 0
-1.3880005 4.3277245 3.7565653 0.42440835 -0.48651323 -0.76366383 0
1.3423148 4.3126144 3.8133171 -0.43566567 -0.49865061 -0.74936175 0
4.618504 4.4413991 3.8317616 0.60702521 -0.40118673 -0.68598074 0
7.37678 4.4299474 3.9039469 -0.65728104 -0.43949825 -0.61222786 0
10.081245 4.2980776 3 -0.050509196 -0.024173323 -0.99843103 0
16.089087 3.8722122 4.4988213 0.32486826 -0.94575834 0.0013348038 0
19.78948 4.4529614 4.5071635 0.71456075 -0.69957304 -0.00064300682 0
-19.588812 7.4838676 4.4358559 -0.93437266 0.35629734 5.9456132e-05 0
-16.501574 7.1688027 4.4616776 0.80060357 0.59919435 -0.00022225665 0
-13.17575 7.0372329 4.4807835 -0.72655398 0.68710935 -0.00032527026 0
-9.4694757 6.7207875 3 0.1807642 -0.11952455 -0.97623682 0
-7.4051619 7.3694921 3 0.0099678775 -0.012187603 -0.99987602 0
-4.51301 7.4746723 3 -0.00079922652 -0.00081459625 -0.99999934 0
-1.4574987 7.5392165 3 -0.00062862755 -0.00057519419 -0.99999958 0
1.5344862 7.4614701 3 -0.00070827815 -0.00076028996 -0.9999994 0
4.4850898 7.5041676 3 -0.00041028135 -0.00046810624 -0.99999982 0
7.514389 7.3283381 3 -0.013802958 -0.014448734 -0.99980032 0
9.4310579 6.752305 3 -0.12977979 -0.084763743 -0.98791313 0
13.130905 7.0682817 4.5097656 0.74372697 0.66848326 -0.00055288768 0
16.499676 7.1667657 4.5617948 -0.80027401 0.59963441 3.835481e-05 0
19.556408 7.5675292 4.4667678 0.93254477 0.3610543 -9.4714822e-05 0
-18.510855 9.8793306 4.485559 -0.88457012 0.46640721 -0.00020128458 0
-16.698866 10.604685 4.4872789 0.48921251 -0.87216455 -9.6927513e-05 0
-13.354526 10.315602 4.4499664 -0.60187817 -0.79858768 -0.00065142347 0
-6.6699381 9.452446 3 0.087890156 -0.11477789 -0.98949546 0
-4.4054456 10.060672 3 0.015887002 -0.044674121 -0.99887526 0
-1.4994581 10.456879 3 0.0055769472 -0.040780161 -0.9991526 0
1.4845604 10.457883 3 -0.0055436376 -0.033026643 -0.99943918 0
4.3090434 10.083097 3 -0.027284337 -0.066527821 -0.99741143 0
6.7054038 9.4478931 3 -0.10209165 -0.14799505 -0.98370457 0
13.427613 10.360714 4.5133376 0.57077831 -0.82110423 -0.00014413358 0
16.691168 10.577652 4.4781518 -0.52036542 -0.85394365 0.00015426712 0
18.496349 9.9058161 4.5019231 0.88383442 0.46779996 3.7823604e-06 0
-16.151733 13.370894 4.5569205 -0.77105808 0.63676488 -0.00015627635 0
-14.84101 14.842301 4.3915644 -0.69506824 0.71894372 0.00018596774 0
-0.79129785 14.683379 4.6093059 0.32345191 0.9462446 8.5621083e-05 0
0.7906372 14.680264 4.5635533 -0.32266223 0.94651419 0.00024948546 0
14.838405 14.84482 4.4897561 0.69502413 0.71898627 0.00023006328 0
16.174152 13.340205 4.4817419 0.77230281 0.63525462 -8.1191436e-05 0
-13.375737 16.14456 4.5149093 -0.63779569 0.77020556 8.1417325e-05 0
-11.396103 17.622862 4.5358357 -0.5436641 0.83930284 1.0461213e-05 0
-2.2281902 16.389959 4.5091548 0.96435362 0.26461679 7.0003392e-05 0
2.2535803 16.50576 4.5581088 -0.97681028 0.21410693 9.7455115e-05 0
11.369885 17.640137 4.502038 0.54126775 0.84085035 8.9209003e-05 0
13.374721 16.14562 4.5160432 0.63679278 0.77103502 -3.8434668e-05 0
-9.9095449 18.495445 4.5362077 -0.47574615 0.87958258 -0.00024888024 0
-7.5145984 19.57798 4.507514 -0.35756651 0.9338876 0.00024504709 0
-4.5681462 20.468382 4.5307088 -0.21667099 0.97624469 1.3706641e-05 0
-1.3449107 19.936796 4.4646082 0.94405317 0.32979232 0.00083189888 0
1.4271841 19.978144 4.5243373 -0.83336061 0.55272949 0.00052961148 0
4.5241294 20.477083 4.4360547 0.21491863 0.97663194 -4.2228483e-05 0
7.4726353 19.594315 4.4074397 0.35691971 0.93413508 -3.8394548e-05 0
9.9123468 18.492649 4.46594 0.47701177 0.87889689 3.1566842e-06 0
0.000879934 21 5.3643198 0.00097751617 0.99999905 0.00097751617 0
-9.9190712 -18.488934 7.499496 -0.4769024 -0.8789562 -0.00017717802 0
-7.4933667 -19.586353 7.5836 -0.3577342 -0.93382347 7.1651426e-05 0
-4.5089426 -20.481951 7.5177517 -0.21567625 -0.97646493 -6.4084983e-05 0
-1.388275 -19.974808 7.5246987 0.85138345 -0.52454376 -0.00012377903 0
1.4062792 -19.906115 7.5101013 -0.96182799 -0.27365339 0.00087541685 0
4.4778786 -20.489517 7.4723463 0.2134953 -0.97694415 -2.4267685e-05 0
7.4781489 -19.591846 7.5180755 0.35608286 -0.93445438 4.0194696e-05 0
9.9227819 -18.488646 7.4589996 0.47644389 -0.87920481 0.00018293731 0
-13.33731 -16.176245 7.5024214 -0.63545948 -0.77213424 -0.00011990956 0
-11.400949 -17.620039 7.4951839 -0.54151642 -0.84069008 -0.00034906797 0
-2.2495606 -16.477791 7.5195603 0.97403848 -0.22638249 0.00015214615 0
2.2176352 -16.362778 7.4799361 -0.96113312 -0.27608514 4.6474845e-05 0
11.395432 -17.623285 7.5088005 0.54138672 -0.84077376 0.00016655949 0
13.386422 -16.137388 7.5316048 0.6405229 -0.76793909 -2.6708485e-05 0
-16.144787 -13.377783 7.5458298 -0.77070731 -0.63718933 -9.5182644e-05 0
-14.84206 -14.842669 7.3694711 -0.69377422 -0.72019255 1.451981e-07 0
-0.73789299 -14.660247 7.5569901 0.30089396 -0.95365757 0.00012172505 0
0.78351593 -14.678393 7.5301256 -0.32125288 -0.94699341 -0.00029239527 0
14.84465 -14.834843 7.4591041 0.70016819 -0.71397793 0.00015040612 0
16.163841 -13.354382 7.5038118 0.76910645 -0.6391207 -8.2090344e-05 0
-18.522333 -9.8582687 7.5636363 -0.88396198 -0.46755862 -0.00016362011 0
-16.757944 -10.606279 7.462718 0.46696827 0.88427407 -0.00027319894 0
-13.356643 -10.318206 7.4422488 -0.59987974 0.80009019 0.00015057792 0
13.37726 -10.342012 7.512784 0.58940774 0.80783576 9.4227784e-05 0
16.703848 -10.541929 7.4611301 -0.56038123 0.82823479 8.5360392e-05 0
18.494335 -9.9127941 7.4762454 0.8824833 -0.4703438 8.6169539e-06 0
-19.559 -7.5642562 7.5064616 -0.9328441 -0.36028019 -9.4377983e-06 0
-16.545149 -7.2294788 7.4909749 0.82053918 -0.57159019 -0.00033826963 0
-13.166203 -7.0526628 7.5213733 -0.73166597 -0.68166339 -0.00017466892 0
-0.92963123 -7.3835931 7.3259335 0.7535556 0.36508542 -0.54668689 0
0.96922261 -7.4358368 7.2904906 -0.77580017 0.37290451 -0.50899547 0
13.152082 -7.0669994 7.5010118 0.73830718 -0.67446458 2.1224869e-05 0
16.533892 -7.2123494 7.5154524 -0.81495011 -0.57953119 -0.00013736686 0
19.573418 -7.524941 7.5282865 0.93395323 -0.35739526 9.2345457e-05 0
-19.768604 -4.4318805 7.5203476 -0.678873 0.73425102 0.002627501 0
-16.460735 -4 7.4975982 -0.044954546 0.99898905 -5.577242e-05 0
-15 -3.4791298 7.4695201 -0.99554878 0.094175182 -0.0036861266 0
-0.61263055 -4.3178644 7.3472795 0.82315612 0.50843346 -0.25280309 0
0.58453745 -4.2854462 7.4290724 -0.77014184 0.57944489 -0.26669303 0
16.225306 -3.6662979 7.4918222 0.27400723 0.96172756 -0.00031237912 0
19.837536 -4.2710662 7.5111737 0.73721015 0.67565531 0.0033177917 0
-15 -1.4801143 7.505753 -0.9999997 -0.00050613267 -0.00056354475 0
-3.1660523 -0.61160672 7.5444574 0.98175669 0.19014144 0.00019491991 0
-2.2127085 -2.2593198 7.4891496 0.69985414 0.71428567 -2.2700951e-05 0
2.233474 -2.2386029 7.5410109 -0.70646036 0.70775259 6.0729981e-05 0
3.1756365 -0.55782568 7.5450983 -0.98496842 0.17273489 4.8541983e-06 0
15 -1.4701368 7.5082498 0.99999988 0.00023982537 0.00036732748 0
-15 1.5013268 7.46875 -0.99999964 -0.00065554475 -0.00051921466 0
-6.7764778 2.3894675 7.2563329 0.51587367 0.78959012 -0.33229765 0
-4.3228283 1.590523 7.3501663 0.5951705 0.71715206 -0.36258101 0
-2.3014514 2.1855781 7.4398446 0.76327831 -0.64606917 0.00094238791 0
2.2761173 2.2123156 7.4819179 -0.77369153 -0.63356006 0.0017392997 0
4.331254 1.6506993 7.317646 -0.48903278 0.77499884 -0.40027973 0
6.8143201 2.4046748 7.1908412 -0.56092989 0.78023237 -0.27675804 0
15 1.4839298 7.5223522 0.9999997 0.00047495944 0.00052724854 0
-19.777258 4.4818702 7.5527253 -0.70466721 -0.70953488 -0.0020705888 0
-16.530458 4 7.4276867 -0.038804911 -0.99924552 -0.0016096507 0
-15 3.521668 7.388113 -0.99441588 -0.10548892 0.0030389812 0
-6.9340215 4.1453872 7.3424559 0.67489332 -0.53307778 -0.51024222 0
-5.1034431 4.1196904 7.2507472 -0.74890953 -0.5134263 -0.41896057 0
-1.0895358 3.9693706 7.5011134 0.65750903 -0.75344646 0.0005135049 0
1.0850058 3.9473124 7.4688277 -0.6453945 -0.76384509 -0.0025545591 0
5.1076331 4.135386 7.3061376 0.729846 -0.51795244 -0.44615033 0
6.9726777 4.1057506 7.3007488 -0.72465265 -0.50476331 -0.46914011 0
16.158339 3.8708692 7.4888864 0.32550886 -0.94553757 -0.0016311227 0
19.771505 4.426918 7.5331473 0.66922289 -0.74305737 -0.0025331231 0
-19.580036 7.5085602 7.5315557 -0.93364227 0.35820681 -3.2686617e-05 0
-16.522175 7.2061296 7.4753113 0.81213146 0.58347434 -0.00016356635 0
-13.119163 7.0931063 7.4941258 -0.75129747 0.65996355 -0.00032295857 0
13.109148 7.087389 7.5095792 0.75221372 0.6589191 0.00032976194 0
16.504406 7.1768146 7.5040298 -0.80273992 0.59632921 -0.00033858619 0
19.599651 7.4561262 7.4879665 0.93453389 0.35587436 1.3731414e-05 0
-18.513187 9.875968 7.5041194 -0.883807 0.46785167 -8.0072474e-05 0
-16.698315 10.570718 7.4918814 0.52302116 -0.85231954 -0.00045999477 0
-13.416957 10.34179 7.5190048 -0.57867819 -0.81555599 -0.00017436338 0
13.386168 10.34476 7.4884839 0.58681381 -0.80972189 -0.00018870003 0
16.734993 10.618227 7.4966578 -0.42381307 -0.90574926 0.00080284826 0
18.505472 9.8903532 7.5623851 0.88353503 0.46836498 2.829561e-05 0
-16.163849 13.353365 7.5069051 -0.77166504 0.63602906 7.5959797e-05 0
-14.838779 14.844459 7.4574685 -0.69513834 0.71887594 -2.5865835e-05 0
-0.74913967 14.667399 7.5272899 0.30441931 0.95253778 -0.00078193384 0
0.76769012 14.672633 7.4865007 -0.31302786 0.94974393 4.6240297e-05 0
14.849194 14.834408 7.4022141 0.69527864 0.71874017 -0.00029750017 0
16.14784 13.373466 7.4429879 0.77049607 0.63744479 0.00017157846 0
-13.394068 16.129793 7.5229688 -0.64007217 0.76831484 9.1220478e-08 0
-11.426579 17.603914 7.5391536 -0.54552013 0.83809775 0.00021654746 0
-2.2431235 16.408728 7.475018 0.96708608 0.25444952 0.00013228675 0
2.2340257 16.408541 7.4994922 -0.96675295 0.25571203 0.00027331279 0
11.401811 17.619381 7.4104495 0.54331052 0.83953184 -1.1949472e-05 0
13.316178 16.194611 7.4802494 0.63460052 0.77284032 7.1692979e-05 0
-9.87181 18.51572 7.5253448 -0.47216526 0.88151008 -0.00010226636 0
-7.4768939 19.592775 7.5303965 -0.35702676 0.93409413 0.00011911275 0
-4.4874825 20.486288 7.510066 -0.21334028 0.97697794 -5.7521604e-05 0
-1.4535347 19.944618 7.4994922 0.88424015 0.46703163 -0.0008650886 0
1.3918064 20.020849 7.4996176 -0.80311656 0.59582192 0.000226477 0
4.5063825 20.482826 7.548595 0.21568675 0.97646254 -2.9779485e-05 0
7.5201812 19.574425 7.5390038 0.35858056 0.9334988 -3.2406628e-05 0
9.9318123 18.482803 7.5131803 0.47695071 0.87893009 -4.4748434e-05 0
0.00101638 21 8.5168505 -0.0029614193 0.99997175 0.0069099683 0
-9.7793303 -18.407068 9.5920067 -0.41416159 -0.77063477 0.48434722 0
-7.4173884 -19.076159 9.7593079 -0.20732458 -0.54013711 0.81563985 0
-4.4710941 -19.516338 9.85149 -0.074618839 -0.33969837 0.93756974 0
-1.5398885 -19.829922 9.7452908 0.18839318 -0.11217392 0.9756664 0
1.5649688 -19.824713 9.7415066 -0.189844 -0.075825378 0.97888196 0
4.4584684 -19.490278 9.848093 0.079933643 -0.3545967 0.9315964 0
7.3500028 -19.055666 9.7976418 0.18770401 -0.48552734 0.85383278 0
9.8024063 -18.455017 9.5380812 0.44328913 -0.82727277 0.34512958 0
-13.108289 -15.889269 9.7200232 -0.4305971 -0.51949787 0.73804337 0
-10.540955 -16.613312 9.9151936 -0.1086535 -0.1698778 0.97945696 0
-7.4994321 -16.550848 10 0.00091722811 0.00089139066 0.99999917 0
-4.4555058 -16.508774 10 0.00078143575 0.00082757213 0.99999934 0
-2.3533902 -16.31356 9.700243 0.78590029 -0.21475314 0.57986367 0
2.3569772 -16.326002 9.6906414 -0.75903344 -0.21770173 0.61357486 0
4.5145497 -16.526205 10 0.00080811657 0.00078867731 0.9999994 0
7.4967279 -16.450441 10 0.00092232134 0.00093975104 0.99999917 0
10.478818 -16.559883 9.9312525 0.088283218 -0.13550828 0.98683518 0
13.126781 -15.941998 9.6711845 0.4814505 -0.58149111 0.65579987 0
-15.942196 -13.127283 9.691659 -0.57247961 -0.47364002 0.66927737 0
-13.517566 -13.58174 9.9711237 -0.043617219 -0.044641122 0.99805051 0
-10.533553 -13.544496 10 0.00097751524 0.00097751524 0.99999905 0
-7.4850607 -13.515124 10 0.00055817573 0.00063184358 0.99999964 0
-4.4061294 -13.348444 10.086374 -0.027456855 -0.10262928 0.9943406 0
-1.4822818 -13.195239 10.363823 -0.023703041 -0.7278921 0.68528193 0
1.4982673 -13.262163 10.306566 0.014371298 -0.69997609 0.71402174 0
4.4180379 -13.440399 10.074089 0.026075255 -0.09150371 0.99546331 0
7.5664439 -13.527873 10 0.00062903587 0.00062903587 0.99999964 0
10.535571 -13.474216 10 0.00088759558 0.00089629745 0.99999917 0
13.515072 -13.580852 9.9707937 0.056833763 -0.056259833 0.99679726 0
15.932411 -13.117568 9.6994705 0.55578166 -0.46296644 0.69048446 0
-18.457312 -9.7149487 9.5879698 -0.7877689 -0.41527659 0.45493457 0
-16.712053 -10.668163 9.7614174 0.15188442 0.22839777 0.96164727 0
-13.312891 -10.733689 9.7637367 -0.36506599 0.51688814 0.77430844 0
-10.505361 -10.438116 10 0.00085071858 0.00086546241 0.99999928 0
-7.575253 -10.474903 10.466446 -0.40488017 -0.55669522 0.72537065 0
-4.7859964 -11.560085 10.801403 -0.36135584 -0.89877009 0.24826264 0
4.7993903 -11.550735 10.856704 0.36717573 -0.90583307 0.21130164 0
7.6118569 -10.455733 10.478037 0.41089493 -0.55993795 0.71946841 0
10.469545 -10.490074 10 0.00075127324 0.00075965014 0.9999994 0
13.249459 -10.763766 9.7873316 0.32699519 0.44513592 0.83362347 0
16.762226 -10.665917 9.7590771 -0.11193796 0.21550494 0.97006571 0
18.397427 -9.8251476 9.5949278 0.78361434 -0.4170793 0.46042743 0
-19.062811 -7.3742208 9.7940502 -0.49787706 -0.19165327 0.84580582 0
-16.865889 -7.2189813 9.728158 0.62566948 -0.40341154 0.66768026 0
-12.917457 -7.0500412 9.6494169 -0.68133783 -0.55942667 0.47203872 0
-10.491062 -7.5285449 10.471425 -0.56131256 -0.4046728 0.72191978 0
-8.8437834 -8.810298 10.893427 -0.73520058 -0.66629022 0.12464897 0
8.8425312 -8.8088522 10.953557 0.73173839 -0.67411274 0.1006524 0
10.458612 -7.5243688 10.475897 0.57206982 -0.42072999 0.70407569 0
12.971948 -7.0154219 9.6194983 0.67650998 -0.58835548 0.44291332 0
16.811514 -7.1611857 9.732234 -0.57300091 -0.44278994 0.68964267 0
19.066799 -7.4242692 9.7506504 0.5520944 -0.21390341 0.80587655 0
-19.486732 -4.6729398 9.7159653 -0.41833472 0.40866664 0.81116438 0
-16.447374 -4.5822129 9.8123884 -0.016497491 0.50382489 0.86364824 0
-13.531384 -4.328155 10.051279 -0.23094875 -0.018946948 0.97278136 0
-11.526038 -4.8494997 10.831967 -0.89593375 -0.37805137 0.23319471 0
-0.61017001 -3.1677697 10.533595 0.18990608 0.98180217 -0.00036493444 0
0.65079224 -3.1581895 10.448178 -0.202314 0.97932053 0.00046986449 0
11.532787 -4.8608079 10.833052 0.8924039 -0.3780216 0.24640392 0
13.349068 -4.3787489 10.113942 0.13070123 -0.037531696 0.99071109 0
16.41917 -4.4301276 9.8188734 0.10772445 0.4110229 0.90523785 0
19.432098 -4.5199647 9.7377186 0.38296002 0.31299186 0.86912471 0
-13.496576 -1.5363301 10.255177 -0.75073552 -0.0614517 0.65773857 0
-3.1605523 -0.6294319 10.539825 0.98062998 0.19586919 -6.0992345e-05 0
-2.2421336 -2.2264605 10.45936 0.71021676 0.70398313 0.00011044082 0
2.2029436 -2.2731445 10.528079 -0.69548267 0.71854293 -0.00012816781 0
3.1693301 -0.5960204 10.529592 -0.98293835 0.1839354 0.00017802109 0
13.084842 -1.5216467 10.449 0.64579648 -0.078211658 0.75949317 0
15 -1.4908696 9.4874868 0.99251163 0.00021349068 0.12214959 0
-13.426384 1.5133113 10.285808 -0.73533094 0.064643338 0.67461812 0
-3.1632373 0.62479419 10.56196 0.98114604 -0.19326703 0.00044222258 0
-2.297857 2.1914363 10.479461 0.769427 -0.63873363 -0.0012354729 0
2.3140059 2.1725392 10.511711 -0.78419644 -0.62051266 0.00016162641 0
3.1624346 0.62510198 10.529034 -0.98117691 -0.19311066 -0.00033154042 0
13.13306 1.5020132 10.419695 0.61127722 0.075596027 0.78779775 0
15 1.5360783 9.5011444 0.99448067 -0.0010082219 0.10491548 0
-19.395844 4.6893978 9.7208309 -0.34392631 -0.44556853 0.82654899 0
-16.487942 4.6413078 9.8230925 -0.0091061378 -0.47213015 0.88148183 0
-13.567455 4.3026762 10.044977 -0.22214077 0.022414748 0.97475696 0
-11.54843 4.8174634 10.789122 -0.89292032 0.37768406 0.24504691 0
-1.0748433 3.9541688 10.558245 0.64046049 -0.76799005 0.0013011511 0
1.1049588 3.944505 10.489791 -0.68935925 -0.72441202 -0.0033190914 0
11.547237 4.8149137 10.897602 0.90251178 0.37915659 0.20423691 0
13.31286 4.3378286 10.101964 0.12636438 0.039911278 0.9911806 0
16.338594 4.5586729 9.796648 0.14105584 -0.44899955 0.88232791 0
19.410105 4.7459455 9.7556505 0.36603016 -0.29995516 0.88093632 0
-19.101173 7.3747692 9.7775335 -0.53429401 0.20308717 0.82053977 0
-16.822466 7.1824565 9.7163115 0.60407066 0.45695177 0.65291178 0
-12.958427 6.9629774 9.6761045 -0.62012291 0.56801176 0.5411194 0
-10.493062 7.5458789 10.509373 -0.58330834 0.42912698 0.68963861 0
-8.8429384 8.8122644 10.823124 -0.72138 0.6839487 0.10874359 0
8.8517275 8.8038902 10.852057 0.72754371 0.67303258 0.13306881 0
10.463485 7.5292478 10.493383 0.55581492 0.40528533 0.72581929 0
12.961769 7.0048509 9.6477728 0.65171874 0.57160211 0.49853152 0
16.868851 7.213141 9.714283 -0.62920409 0.41794729 0.65530324 0
19.073612 7.4218211 9.7610931 0.52953482 0.20232995 0.82380551 0
-18.433283 9.746974 9.6058674 -0.7761935 0.41354224 0.47592685 0
-16.69488 10.706385 9.7589769 0.096202761 -0.24712841 0.96419531 0
-13.220764 10.736828 9.7899904 -0.34310189 -0.44968802 0.82465857 0
-10.490891 10.520815 10 0.00080994138 0.00083507749 0.99999928 0
-7.5662498 10.39941 10.523218 -0.44029683 0.59585011 0.67164081 0
-4.7893457 11.560569 10.86445 -0.36777458 0.90143716 0.22836997 0
4.7806754 11.566854 10.817827 0.36130553 0.89993674 0.2440744 0
7.5971532 10.418456 10.524242 0.42598847 0.5792945 0.69494724 0
10.518413 10.503513 10 0.00080462376 0.00078076881 0.99999934 0
13.276482 10.755587 9.783926 0.34617993 -0.46223009 0.81639624 0
16.743246 10.668017 9.7784567 -0.11312966 -0.23324101 0.9658159 0
18.473047 9.7005081 9.5597944 0.80095732 0.41902706 0.42764896 0
-15.95072 13.104929 9.68575 -0.56705725 0.4726623 0.67456394 0
-13.532549 13.487014 9.9740944 -0.036960352 0.039457005 0.99853748 0
-10.492019 13.489514 10 0.00093591894 0.00094483246 0.99999917 0
-7.5195751 13.449861 10 0.00069534621 0.00075005251 0.99999946 0
-4.3883357 13.405121 10.07754 -0.023776706 0.088796243 0.99576592 0
-1.4538316 13.217649 10.366334 -0.013063281 0.7264874 0.68705565 0
1.447081 13.250625 10.333609 0.012886937 0.70690155 0.70719463 0
4.4089513 13.341311 10.099231 0.030873708 0.10619929 0.99386543 0
7.5071902 13.524501 10 0.00064054161 0.00054758316 0.99999964 0
10.478364 13.540572 10 0.00079171819 0.00081667607 0.99999928 0
13.542341 13.552967 9.9788246 0.042768009 0.042959914 0.99816102 0
15.921254 13.178786 9.6939411 0.56884217 0.47534981 0.67116404 0
-13.077761 15.978351 9.699338 -0.46328947 0.56237835 0.68490392 0
-10.597692 16.565847 9.9226532 -0.10239617 0.16052267 0.98170644 0
-7.5330043 16.545122 10 0.00093672489 0.00089010713 0.99999917 0
-4.5354886 16.588617 10 0.0007838282 0.0008201446 0.99999934 0
-2.3756206 16.339657 9.6998301 0.74519521 0.2251969 0.62767065 0
2.356108 16.415264 9.6893682 -0.81645775 0.17289017 0.55091345 0
4.5200882 16.459568 10 0.00077770889 0.00082996598 0.99999934 0
7.4452314 16.483007 10 0.00097751524 0.00097751524 0.99999911 0
10.566323 16.548473 9.9265022 0.093016148 0.14496358 0.98505509 0
13.107924 15.942507 9.7067518 0.46013191 0.55713737 0.69128609 0
-9.7883873 18.429478 9.5895863 -0.4209742 0.78688824 0.45120692 0
-7.4115191 19.064344 9.7656422 -0.20657349 0.54197913 0.81460786 0
-4.427423 19.552816 9.8501043 -0.077961631 0.34951478 0.93368167 0
-1.5534648 19.861572 9.7298937 0.21587187 0.14182813 0.9660663 0
1.5271765 19.826321 9.7439346 -0.17970973 0.10530745 0.97806686 0
4.5299606 19.511604 9.8482771 0.081649214 0.36008617 0.92933917 0
7.3916864 19.051237 9.7824364 0.19178571 0.50005305 0.84449106 0
9.7907305 18.409645 9.5836458 0.41894957 0.77723354 0.46945649 0
-3.1877546 -12.057953 13.591081 -0.2710591 -0.96256274 0.00016840039 0
-1.529382 -12.358856 13.475435 -0.12188721 -0.99254394 -1.4734723e-05 0
1.4594724 -12.367122 13.431966 0.11462577 -0.99340874 -3.6886569e-05 0
3.1906109 -12.057159 13.419953 0.2710591 -0.96256268 -0.00026503633 0
-7.3739786 -10.030192 13.516943 -0.59103906 -0.80664206 -0.001132889 0
-4.6845593 -11.546259 13.481686 -0.36972225 -0.92914134 -0.0013550047 0
4.7458487 -11.521395 13.490201 0.37775078 -0.92590612 -0.0014663007 0
7.3187237 -10.065918 13.48592 0.58646291 -0.80997598 -0.00039709269 0
-10.023446 -7.3800125 13.446124 -0.80474794 -0.59361559 -0.0011308377 0
-8.8079233 -8.8443289 13.621747 -0.72925627 -0.68423998 -0.00091622252 0
8.8187075 -8.8347292 13.445454 0.72754282 -0.68606126 -0.0011548983 0
10.039 -7.361495 13.456205 0.8056528 -0.59238714 -0.0010391236 0
-12.059753 -3.2629585 13.447811 -0.96819675 -0.25018787 -0.00098137138 0
-11.515968 -4.743072 13.500262 -0.9226287 -0.38568899 -0.00048289265 0
-0.63983822 -3.1598983 13.426373 0.19884062 0.98003179 0.00026223267 0
0.60890692 -3.1686311 13.552056 -0.18858691 0.98205644 -0.0003677014 0
11.491917 -4.8051696 13.532207 0.92067337 -0.39033246 -0.0010551547 0
12.063349 -3.2499661 13.583087 0.96857971 -0.24870287 -0.00042763734 0
-12.363531 -1.4893956 13.531753 -0.99252456 -0.12204123 -0.00096644496 0
-3.1543949 -0.66657341 13.391717 0.97784752 0.20931841 0.0001911564 0
-2.2507162 -2.2219398 13.523754 0.71211249 0.70206529 -5.1843021e-05 0
2.2284 -2.2404206 13.467662 -0.70533729 0.70887184 -0.00017004728 0
3.1609223 -0.63237339 13.537276 -0.98046368 0.1967001 -0.00016658472 0
12.369377 -1.4405435 13.543572 0.99316955 -0.11667603 -0.00097988162 0
-12.355121 1.5534099 13.482335 -0.9916923 0.12863006 -0.00087151886 0
-3.1648955 0.61433148 13.461797 0.98140347 -0.19195612 -0.00021779934 0
-2.3182087 2.1690316 13.445787 0.77471799 -0.63230509 -0.0014972284 0
2.2684441 2.2162368 13.55222 -0.76336694 -0.64596415 0.0011144349 0
3.1624022 0.63163757 13.550228 -0.98062813 -0.19587868 -9.0738838e-05 0
12.361218 1.5028177 13.53656 0.99215281 0.12503108 -0.00041300186 0
-12.06474 3.2322531 13.537287 -0.97242939 0.23319587 -0.00090456649 0
-11.504208 4.7847648 13.529396 -0.9210307 0.38948843 -0.0010757102 0
-1.1026524 3.9736521 13.4971 0.64730304 -0.76222706 -0.0029357057 0
1.106585 3.9665112 13.472279 -0.64739662 -0.76215321 -9.7052703e-05 0
11.514503 4.7600188 13.443717 0.92250508 0.38598362 -0.0010275547 0
12.060868 3.2412069 13.450112 0.97200125 0.23497556 0.00013149912 0
-10.010168 7.4024091 13.494141 -0.80376333 0.59494829 -0.0010046717 0
-8.8486977 8.8063898 13.472083 -0.72667962 0.68697506 -0.0014133942 0
8.8447399 8.810976 13.602016 0.72720486 0.68641889 -0.0014638167 0
10.022699 7.3836336 13.47175 0.80378658 0.5949167 -0.0011337997 0
-7.3829641 10.022962 13.475983 -0.59158224 0.80624413 -0.00093666191 0
-4.7394314 11.521724 13.572211 -0.37665436 0.92635387 -0.00033378918 0
4.7547622 11.516155 13.515663 0.37432012 0.92729914 -0.00085351785 0
7.3723097 10.02753 13.529594 0.58979869 0.80754948 -0.0011274512 0
-3.1536958 12.067222 13.57663 -0.27471426 0.96152586 -0.00021493214 0
-1.5435256 12.359189 13.528584 -0.12300499 0.99240571 -0.00088378094 0
1.5086901 12.363468 13.494049 0.12233742 0.99248815 -0.00089921575 0
3.2204299 12.049584 13.419479 0.27170801 0.96237904 -0.0011763618 0
-3.2064385 -12.052713 16.420238 -0.2710591 -0.96256268 -0.00010951913 0
-1.5670191 -12.352975 16.508511 -0.12374949 -0.9923135 -0.00011145709 0
1.5064815 -12.360325 16.476961 0.11316723 -0.99357599 -6.9297239e-05 0
3.1848538 -12.058765 16.479877 0.2710591 -0.96256274 -0.00016840039 0
-7.3104453 -10.077951 16.49456 -0.58630204 -0.81009233 -0.00061299454 0
-4.6672816 -11.556001 16.508457 -0.36863446 -0.92957401 -0.00092251343 0
4.7017031 -11.542346 16.468975 0.37138814 -0.92847753 -0.00059546705 0
7.349359 -10.042815 16.505121 0.58743918 -0.80926812 -0.00049907889 0
-9.9987726 -7.4197841 16.485422 -0.8009671 -0.59870809 -0.00062664063 0
-8.8436146 -8.8107758 16.458055 -0.73107171 -0.68229955 -0.0012321474 0
8.8626261 -8.7935305 16.601952 0.72726703 -0.68635321 -0.0013818402 0
10.0379 -7.3708124 16.478712 0.80432391 -0.59419072 -0.00071135414 0
-12.062 -3.2529852 16.39518 -0.96694571 -0.2549817 0.00047837512 0
-11.500501 -4.7865944 16.512573 -0.92143255 -0.388538 -0.00049122376 0
-0.59972548 -3.166853 16.442116 0.18570188 0.98260611 -0.00015210042 0
0.60606205 -3.1656735 16.444111 -0.18710274 0.98234022 -0.000559868 0
11.514369 -4.7607622 16.51391 0.92303431 -0.38471705 -0.00063107559 0
12.064323 -3.243751 16.503595 0.96745807 -0.25303116 0.00027115628 0
-12.368483 -1.4752021 16.497646 -0.9928568 -0.11930928 -0.00075165025 0
-3.162365 -0.62187713 16.509371 0.98090506 0.19448702 -6.1330327e-05 0
-2.2462053 -2.2248521 16.504623 0.71056426 0.7036323 -0.00043024251 0
2.2464681 -2.2285938 16.529613 -0.71035153 0.70384699 0.00016236128 0
3.1660268 -0.60841531 16.516558 -0.98221326 0.1877678 -0.00056069141 0
12.364536 -1.4903651 16.465834 0.99279857 -0.11979335 -0.00071496173 0
-12.360166 1.5154901 16.492855 -0.99193168 0.12677163 -0.00071147579 0
-3.1575346 0.65118194 16.508972 0.97962821 -0.20081979 -0.00019572985 0
-2.3054709 2.1863251 16.49296 0.76862949 -0.63969398 0.0005821602 0
2.3124897 2.1724367 16.539879 -0.77153438 -0.63618684 0.0010602478 0
3.1572073 0.64797813 16.576153 -0.97945583 -0.20165864 0.00015270169 0
12.35275 1.5853328 16.52379 0.99104112 0.13355595 -0.00057717907 0
-12.065498 3.2311332 16.56513 -0.97223979 0.23398681 -9.5836433e-05 0
-11.5168 4.7592287 16.480839 -0.92287928 0.38508835 -0.00093851826 0
-1.0841978 3.9706633 16.522348 0.639175 -0.76906121 0.00055667869 0
1.0832222 3.9613006 16.499548 -0.65207922 -0.75813973 0.0041144458 0
11.514365 4.7768621 16.5229 0.92305321 0.38467172 -0.00062297774 0
12.059824 3.2474411 16.519033 0.97284073 0.23147368 0.00095295173 0
-10.02082 7.3913293 16.50453 -0.80420905 0.59434617 -0.00063520321 0
-8.822154 8.8405437 16.339314 -0.71647614 0.69761145 -0.00050734787 0
8.8234034 8.8385801 16.38196 0.71647257 0.69761479 -0.00077860901 0
10.018003 7.3894415 16.52969 0.80449206 0.59396315 -0.00058151031 0
-7.3822541 10.026265 16.489674 -0.59255922 0.80552649 -0.00081987941 0
-4.730269 11.528861 16.495195 -0.37171513 0.92834687 -0.00029665668 0
4.7615108 11.515152 16.503691 0.3755179 0.92681497 -0.00045524118 0
7.3595252 10.041451 16.534958 0.59167403 0.80617684 -0.00080019305 0
-3.2003362 12.057092 16.606632 -0.28365007 0.95892638 -0.0016816903 0
-1.5222826 12.364742 16.468086 -0.12019056 0.99275076 -0.00049945142 0
1.5692395 12.359287 16.431034 0.12477893 0.9921844 -0.00059038732 0
3.1959887 12.058744 16.468594 0.27971917 0.96008116 -0.0011599796 0
-3.2150891 -12.050296 18.873598 -0.26642278 -0.96219295 0.056599591 0
-1.5096197 -12.335372 19.116796 -0.12432195 -0.97292614 0.19483012 0
1.4863188 -12.338909 19.157194 0.11490072 -0.97308302 0.19976823 0
3.1945584 -12.054974 19.068365 0.28283915 -0.95159918 0.12025344 0
-7.3718953 -10.037934 19.490063 -0.59067231 -0.80691141 -0.00037072151 0
-4.5664201 -10.825744 19.758139 -0.0074045798 -0.72892362 0.68455505 0
-1.5347697 -10.438176 20 0.00067114847 -0.00015195747 0.99999976 0
1.4521632 -10.487659 20 0.00095693662 7.6527367e-06 0.99999958 0
4.5333986 -10.865434 19.778913 -0.0024153427 -0.755943 0.65463299 0
7.3747001 -10.030046 19.497396 0.58945531 -0.80780059 -0.00074971525 0
-9.9921093 -7.4323301 19.541769 -0.800394 -0.59947419 -0.00031558273 0
-8.8419838 -8.818512 19.432257 -0.7268976 -0.68674403 -0.0015939731 0
-4.2024355 -7.7199817 20.252308 0.3831664 -0.41041198 0.82749355 0
-1.4877014 -7.6244969 20.178583 0.00046971385 -0.49749881 0.86746454 0
1.5462625 -7.6526117 20.179752 0.00066857453 -0.49538606 0.86867267 0
4.255116 -7.7683558 20.278538 -0.45810312 -0.40923011 0.78909576 0
8.851532 -8.810668 19.551777 0.72315782 -0.69068193 -0.0010849398 0
10.027933 -7.3832555 19.506968 0.80447149 -0.59399122 -0.00034727689 0
-12.061623 -3.2443061 19.385815 -0.9661513 -0.25797424 0.00098136254 0
-11.522849 -4.7408757 19.509825 -0.92374396 -0.38301018 -0.00060520496 0
-0.63535249 -3.161217 19.520533 0.19824548 0.98015231 -0.00043942963 0
0.63245159 -3.1609948 19.526478 -0.19800884 0.98020005 -0.00046601621 0
11.515553 -4.7682753 19.516884 0.92349184 -0.38361746 -0.00063828944 0
12.066633 -3.2255299 19.424364 0.96612191 -0.2580843 0.00099049404 0
-12.367682 -1.4989402 19.532806 -0.99275368 -0.12016653 -0.00044962356 0
-3.1638536 -0.60053939 19.521982 0.98226851 0.18747784 -0.0007163246 0
-2.2410171 -2.2230048 19.506207 0.71008277 0.70411807 -0.00038816617 0
2.2177556 -2.2460644 19.465246 -0.70343214 0.71076244 -0.00031522778 0
3.1645234 -0.61152613 19.51692 -0.98163396 0.1907746 0.00020403569 0
12.369078 -1.5047406 19.547739 0.99251074 -0.12215643 -0.00046031136 0
-12.361003 1.5518155 19.490803 -0.99176002 0.12810872 -0.0003799902 0
-3.166687 0.60071522 19.439304 0.98215961 -0.18804854 -0.00041127228 0
-2.2847052 2.2012956 19.535553 0.76778728 -0.64070266 -0.0016618904 0
2.3143275 2.179908 19.447947 -0.756823 -0.6536172 -0.0018504803 0
3.1611888 0.6278131 19.496176 -0.98073763 -0.19532856 -0.0007536214 0
12.366932 1.4904617 19.510778 0.99231911 0.12370341 -0.00039156908 0
-12.069925 3.2152107 19.462477 -0.97287887 0.2313146 -0.0005418337 0
-11.515015 4.7770686 19.531914 -0.9233374 0.38398945 -0.00027820881 0
-1.1027918 3.9533794 19.506325 0.67114788 -0.7413221 -0.0014619972 0
1.0978385 3.9854903 19.474302 -0.62535262 -0.78034174 0.0009995657 0
11.525208 4.7497792 19.556164 0.92383403 0.3827934 -0.00012275585 0
12.063854 3.2275958 19.606186 0.97346425 0.22883812 0.00066142029 0
-10.025331 7.3876534 19.517654 -0.80583322 0.5921427 -0.00015759414 0
-8.8103485 8.8531551 19.549271 -0.70342362 0.71077067 0.00061701215 0
8.8507376 8.8134212 19.412706 0.70810002 0.70611209 0.00011474231 0
10.017982 7.3981795 19.513737 0.80523932 0.59294987 -0.00044606402 0
-7.3736153 10.038197 19.534712 -0.59224057 0.80576116 -0.00048209896 0
-4.7611089 11.516343 19.540251 -0.37618205 0.9265458 -9.2810922e-05 0
4.7466631 11.52385 19.461843 0.37550968 0.92681843 -3.503737e-05 0
7.4224076 9.999774 19.534273 0.59690315 0.80231315 -0.00042401146 0
-3.1963253 12.064816 19.583128 -0.28524253 0.95845413 -0.0015332692 0
-1.4935297 12.370917 19.465435 -0.11758404 0.99306291 -8.4997162e-05 0
1.5383399 12.3641 19.512047 0.12135048 0.99260962 -0.00032305173 0
3.1966105 12.064886 19.657236 0.28471887 0.95860982 -0.0015226456 0
-7.3271046 -10.071233 22.474051 -0.58831698 -0.80863035 5.6699159e-06 0
-5.1702032 -10.480339 22.522203 0.88173634 -0.47173342 0.0029330768 0
5.1697574 -10.535249 22.486294 -0.84352553 -0.53705704 -0.0058631599 0
7.3093553 -10.079008 22.480759 0.58560371 -0.81059676 -0.0010971952 0
-10.059983 -7.3407989 22.487087 -0.80679089 -0.59083706 0.0001438004 0
-8.8173723 -8.8495941 22.398048 -0.71692318 -0.69715196 -0.00051896542 0
-4.5132213 -7.5032477 22.49824 0.69686168 -0.71720219 0.0021994556 0
-1.4985905 -7 22.503456 -0.00069345132 -0.99999946 -0.00072965556 0
1.4352568 -7 22.504093 -0.0004368962 -0.99999982 -0.00047461386 0
4.4720931 -7.5130658 22.457813 -0.71556246 -0.69854593 -0.0019979118 0
8.8479147 -8.8187037 22.572603 0.72042584 -0.69353139 -0.0009489088 0
10.031872 -7.3815966 22.551258 0.8037774 -0.59493017 5.823818e-05 0
-12.059642 -3.2400663 22.551498 -0.9657079 -0.25962836 0.0011966997 0
-11.51711 -4.7643809 22.47937 -0.92446101 -0.3812764 -0.00044972636 0
-0.81056637 -3.3236179 22.873112 0.20694019 0.90614283 0.36889151 0
0.78778362 -3.2883132 22.795654 -0.21076985 0.92018491 0.32990265 0
11.520276 -4.7550879 22.495384 0.9251036 -0.37971473 -0.00026830513 0
12.064354 -3.2230866 22.396391 0.9657138 -0.25960627 0.0011966458 0
-12.365028 -1.5417329 22.532976 -0.99222517 -0.12445579 -1.1778635e-05 0
-3.2853854 -0.81176692 22.796017 0.91845363 0.21871008 0.32955843 0
-2.2957387 -2.2794802 22.432947 0.69912583 0.6935935 0.17364068 0
2.2738156 -2.2960434 22.427029 -0.69307315 0.70237529 0.16223018 0
3.2995691 -0.79570603 22.798298 -0.91595119 0.20575084 0.3445287 0
12.371473 -1.4811714 22.478348 0.99286228 -0.1192665 -0.00030838186 0
-12.372591 1.4531875 22.44916 -0.99298251 0.11826181 0.0001276391 0
-3.266515 0.90742081 22.8738 0.90716159 -0.23764817 0.34724814 0
-2.3226104 2.2652738 22.371527 0.74373883 -0.64877832 0.1610565 0
2.3321373 2.2332158 22.396769 -0.76017082 -0.63353235 0.14414254 0
3.2890527 0.7682932 22.793415 -0.92309308 -0.20773527 0.32364362 0
12.362238 1.5315769 22.472662 0.99203777 0.12594056 -0.00013704009 0
-12.0635 3.2439554 22.426008 -0.96909857 0.24667379 7.4588024e-05 0
-11.540165 4.7138357 22.526901 -0.92535281 0.37910676 0.00044593334 0
-1.1265393 3.9215147 22.638144 0.59571058 -0.79998904 0.071738735 0
1.1315296 3.9305391 22.530018 -0.64578795 -0.76071399 0.065361813 0
11.515384 4.7697659 22.489834 0.92319155 0.38434011 0.0002829929 0
12.061268 3.2438281 22.536226 0.96968174 0.24436614 -0.0015880588 0
-10.00539 7.415689 22.527506 -0.80466193 0.59373319 0.00010650354 0
-8.8279409 8.8330355 22.500021 -0.69900852 0.71511239 0.0011464867 0
8.8427496 8.818531 22.583158 0.69933981 0.71478868 0.00099746394 0
10.053072 7.3499966 22.574289 0.80883396 0.58803707 5.0666786e-05 0
-7.3648372 10.043152 22.492535 -0.5921405 0.80583477 -2.1100488e-05 0
-4.7628369 11.51769 22.473808 -0.3786729 0.92553061 1.9498329e-05 0
4.7526608 11.522351 22.451355 0.37777358 0.92589796 -5.672254e-05 0
7.387846 10.024516 22.511765 0.59342253 0.80489111 -0.00011031492 0
-3.1953056 12.071447 22.503008 -0.28020096 0.95994008 -0.0015526564 0
-1.4745312 12.371247 22.543686 -0.11425509 0.99345148 0.00021626997 0
1.4601979 12.374296 22.473669 0.11555529 0.99330109 0.00019974039 0
3.2006974 12.070297 22.712646 0.27930424 0.96020126 -0.0016635018 0
-7.0439315 -9.857214 24.705366 -0.4043555 -0.56195676 0.72159636 0
-5.2712045 -10.275528 24.701593 0.6164217 -0.32926837 0.71526676 0
5.2733493 -10.295435 24.691254 -0.60311502 -0.29817399 0.73982739 0
7.0798573 -9.8378067 24.708426 0.41552618 -0.5706982 0.70826662 0
-9.8448286 -7.1142602 24.67824 -0.60217613 -0.4419955 0.66484874 0
-7.5578938 -7.5151529 24.974188 -0.044849053 -0.043356024 0.99805248 0
-4.7263331 -7.2886424 24.775368 0.36701441 -0.35945654 0.85795766 0
-1.5700146 -6.7392097 24.758814 0.0043855286 -0.65806258 0.75295043 0
1.5654651 -6.7264261 24.777639 -0.00032932634 -0.62362814 0.78172106 0
4.7350287 -7.2321057 24.783941 -0.34122589 -0.32941502 0.8803696 0
7.4938283 -7.5356722 24.968691 0.052098367 -0.051035531 0.99733704 0
9.8357487 -7.1805706 24.673561 0.61706215 -0.45681232 0.64074713 0
-12.047601 -3.2578287 24.353371 -0.96219236 -0.25362927 0.099288054 0
-10.569234 -4.4490938 24.862787 -0.32212082 -0.13142353 0.93753189 0
-7.4791474 -4.4553676 25 0.00065565086 0.00060796714 0.99999964 0
-4.4790783 -4.431766 24.979746 0.046363909 0.049796779 0.99768263 0
-1.6200813 -4.6348677 24.718138 0.14910921 0.38757926 0.909697 0
