ply
format ascii 1.0
comment PCL generated
element vertex 697
property float x
property float y
property float z
property float nx
property float ny
property float nz
property float curvature
element camera 0
property float view_px
property float view_py
property float view_pz
property float x_axisx
property float x_axisy
property float x_axisz
property float y_axisx
property float y_axisy
property float y_axisz
property float z_axisx
property float z_axisy
property float z_axisz
property float focal
property float scalex
property float scaley
property float centerx
property float centery
property int viewportx
property int viewporty
property float k1
property float k2
end_header
36.753834 14.253656 -1.5 -0.00097751536 -0.00097751536 -0.99999911 0
38.294945 14.26503 -1.5 0.01170473 0.0081976373 -0.99989784 0
39.639084 14.187149 -0.98733211 0.74387306 0.49088773 -0.45352194 0
25.069855 15.750497 -0.95059639 -0.91504735 -5.4771062e-05 -0.40334642 0
26.233927 15.721642 -1.5 -0.0042521162 -0.00098772603 -0.99999052 0
27.771301 15.738419 -1.5 -0.00097751536 -0.00097751536 -0.99999905 0
29.217815 15.736571 -1.5 -0.00097751524 -0.00097751524 -0.99999905 0
30.721344 15.749175 -1.5 -0.00097751536 -0.00097751536 -0.99999905 0
32.288807 15.779766 -1.5 -0.00097751536 -0.00097751536 -0.99999911 0
33.795208 15.791419 -1.5 -0.00097751536 -0.00097751536 -0.99999911 0
35.25816 15.783976 -1.5 -0.00097751524 -0.00097751524 -0.99999899 0
36.747684 15.765104 -1.5 -0.00022586549 -0.00039377232 -0.99999988 0
38.378006 15.786579 -1.0381131 0.64587522 0.49771723 -0.57889783 0
39.113094 15.156664 -0.77721655 0.80060703 0.56668174 -0.19467959 0
25.060844 17.259829 -0.89762259 -0.94108224 -0.00038284037 -0.33817753 0
26.211174 17.257145 -1.5 -0.0056920182 -0.00086808554 -0.99998349 0
27.699711 17.287308 -1.5 -0.00097751536 -0.00097751536 -0.99999911 0
29.252472 17.261189 -1.5 -0.00097751536 -0.00097751536 -0.99999905 0
30.739325 17.299324 -1.5 -0.00097751536 -0.00097751536 -0.99999905 0
32.248524 17.212013 -1.5 -0.00097751536 -0.00097751536 -0.99999905 0
33.730694 17.232719 -1.5 -0.00097751524 -0.00097751524 -0.99999899 0
35.243572 17.283562 -1.5 -0.00097751536 -0.00097751536 -0.99999905 0
36.887394 17.358503 -1.1800966 0.47968209 0.43200183 -0.76372737 0
37.792339 16.828236 -0.83025402 0.73972332 0.63630217 -0.21892707 0
25.067364 18.763744 -0.95777631 -0.9183194 -0.0056613772 -0.39579961 0
26.261328 18.733984 -1.5 -0.0032037471 -0.00096799753 -0.99999446 0
27.695404 18.74992 -1.5 -0.00097751536 -0.00097751536 -0.99999905 0
29.252962 18.756048 -1.5 -0.00097751536 -0.00097751536 -0.99999899 0
30.752102 18.715502 -1.5 -0.00097751536 -0.00097751536 -0.99999899 0
32.234673 18.760271 -1.5 -0.00097751536 -0.00097751536 -0.99999899 0
33.775646 18.738146 -1.5 -0.00087753666 -0.00085248984 -0.99999928 0
35.401436 18.891991 -1.1592715 0.46995822 0.50981265 -0.72057647 0
36.345665 18.38089 -0.83848023 0.68009531 0.68425947 -0.26317182 0
25.06259 20.252689 -0.95569748 -0.92427337 0.024126749 -0.38096803 0
26.239662 20.282784 -1.5 -0.0061477968 -0.00095908571 -0.99998069 0
27.768301 20.284819 -1.5 -0.00097751536 -0.00097751536 -0.99999905 0
29.233395 20.24519 -1.5 -0.00097751536 -0.00097751536 -0.99999905 0
30.768454 20.232422 -1.5 -0.00097751536 -0.00097751536 -0.99999905 0
32.295021 20.23406 -1.5 0.0049095829 0.0069490476 -0.99996376 0
33.80751 20.341316 -1.0683304 0.49445552 0.63556659 -0.5929324 0
34.826092 19.788874 -0.85312897 0.62839681 0.74409723 -0.22679675 0
25.227312 21.655571 -0.87051463 -0.90855283 0.31516603 -0.27423012 0
26.190165 21.84387 -1.4238927 -0.13754712 0.089746051 -0.98642105 0
27.749147 21.787518 -1.5 -0.00097751536 -0.00097751536 -0.99999905 0
29.282148 21.759769 -1.5 -0.0008982172 -0.00086510071 -0.99999923 0
30.897882 21.890404 -1.2894361 0.20869927 0.35315219 -0.9119913 0
32.202759 21.647823 -0.96504861 0.49808443 0.7570585 -0.42281705 0
33.176266 21.101526 -0.82052684 0.57803518 0.79146743 -0.19863188 0
26.301134 23.043324 -0.91606146 -0.55691576 0.76073337 -0.33336112 0
27.775049 23.454601 -0.94158798 -0.056849714 0.85484093 -0.51576638 0
29.149506 23.323111 -0.93030632 0.31883839 0.86973137 -0.37670851 0
30.464815 22.77668 -0.86943191 0.45791861 0.84261841 -0.2833809 0
26.27957 -23.110525 0.83472288 -0.57988971 -0.81469154 -0.0023690851 0
27.748173 -23.667402 0.78770155 -0.085947774 -0.99629962 -0.00044581766 0
29.113148 -23.470366 0.76085424 0.33595657 -0.94187719 0.00070336432 0
30.514603 -22.784773 0.72534561 0.48153463 -0.87642694 0.00022379907 0
25.218967 -21.739807 0.76758134 -0.93667239 -0.35020247 -0.0018081404 0
25.54575 -22.432774 0.81122112 -0.8150146 -0.57943285 -0.0029496381 0
31.263458 -22.358047 0.77417386 0.5100264 -0.86015874 0.00028357771 0
32.258385 -21.732807 0.74940914 0.54841638 -0.83620536 -2.4316903e-05 0
33.169369 -21.114357 0.72710931 0.58370435 -0.81196612 -0.00049886102 0
25.001759 -20.305555 0.74587387 -0.99977118 -0.021393133 -0.00034912597 0
33.910374 -20.555048 0.74347132 0.61197132 -0.79087991 -0.0001188881 0
34.862087 -19.785183 0.74028987 0.64882183 -0.76094031 -0.00018899735 0
25 -18.778818 0.74863714 -0.99999899 -0.00097751524 -0.00097751524 0
35.612797 -19.119686 0.71394551 0.67735368 -0.73565745 0.00030762592 0
36.384281 -18.379436 0.76024586 0.70743799 -0.70677543 8.4219268e-05 0
25 -17.22995 0.77184796 -0.99999905 -0.00097751536 -0.00097751536 0
37.136456 -17.593552 0.7496922 0.73636806 -0.67658108 -0.00027350656 0
37.798538 -16.846567 0.7229619 0.76176542 -0.64785296 -0.00032323413 0
25 -15.749822 0.71318263 -0.99999899 -0.00097751536 -0.00097751536 0
38.522007 -15.952896 0.70641261 0.78923786 -0.61408764 -0.00014774094 0
39.12048 -15.159798 0.71777052 0.81274778 -0.58261555 0.00034478068 0
25 -14.245171 0.78839213 -0.99999541 -0.00097355194 -0.0028897997 0
39.737457 -14.250485 0.75290704 0.8362366 -0.54836875 -0.00025492848 0
-3.2418873 -12.061275 0.87885576 -0.25385514 -0.96033955 -0.11534952 0
-2.2134926 -12.257444 0.74641746 -0.17432392 -0.96096206 -0.214856 0
-0.75148481 -12.38626 0.62229848 -0.058578935 -0.9354443 -0.34858641 0
0.74812061 -12.397764 0.67133188 0.057506401 -0.94593519 -0.31921732 0
2.2047541 -12.256254 0.74407381 0.1716025 -0.95720071 -0.23306511 0
3.2189686 -12.068264 0.86733431 0.25792262 -0.95979005 -0.11081094 0
25 -12.778991 0.73838443 -0.99999428 -0.0008959386 -0.0032545282 0
40.344757 -13.285042 0.71883088 0.85947949 -0.51117027 -9.90759e-05 0
40.777267 -12.528262 0.74928981 0.87626982 -0.48182073 0.00012647656 0
-6.3642797 -10.721525 0.79234463 -0.5030238 -0.84530419 -0.18007752 0
-5.2232103 -11.166329 0.55353105 -0.37384561 -0.79767019 -0.47324601 0
-3.8017426 -11.454709 0.3368932 -0.20085108 -0.6027531 -0.77223539 0
-2.2712653 -11.244151 0.0036566094 -0.016031856 -0.074036807 -0.99712664 0
-0.72185749 -11.25351 7.5617485e-05 -0.0021723271 -0.030443074 -0.99953413 0
0.76695818 -11.242382 5.6638193e-05 0.0011656834 -0.028149609 -0.99960303 0
2.2444289 -11.261026 0.0041216924 0.017726472 -0.085546389 -0.99617642 0
3.8215575 -11.452953 0.37516513 0.20540598 -0.61660194 -0.76000684 0
5.2265711 -11.163954 0.54621273 0.37205258 -0.79630435 -0.47694468 0
6.3680758 -10.71477 0.78926063 0.50106514 -0.84238642 -0.19828971 0
25 -11.246556 0.74664295 -0.99998742 -0.00091896747 -0.0049132281 0
41.441994 -11.229195 0.74376214 0.9019357 -0.43187022 -0.00026924702 0
-8.0404587 -9.4584379 0.67606169 -0.61643845 -0.72274995 -0.31246781 0
-6.8362508 -9.9022865 0.32859471 -0.33951446 -0.49176365 -0.80180943 0
-5.2378197 -9.7377176 1.9285892e-05 -0.0058397376 -0.01041248 -0.99992877 0
-3.745424 -9.7477598 0 -0.00097751536 -0.00097751536 -0.99999905 0
-2.2861624 -9.7892675 0 -0.00097751536 -0.00097751536 -0.99999905 0
-0.77080655 -9.7884502 0 -0.00097751536 -0.00097751536 -0.99999905 0
0.7458635 -9.7430315 0 -0.00097751536 -0.00097751536 -0.99999905 0
2.2711356 -9.7289486 0 -0.00097751536 -0.00097751536 -0.99999905 0
3.7677236 -9.7509689 0 -0.00097751536 -0.00097751536 -0.99999905 0
5.2346649 -9.7808819 2.0208085e-05 0.0038155543 -0.0081499573 -0.99995947 0
6.8628473 -9.8937674 0.3121714 0.33104599 -0.47882238 -0.81310374 0
8.0527287 -9.4515305 0.67231923 0.61844712 -0.72341543 -0.30690917 0
25 -9.6897907 0.71381032 -0.99999326 -0.00076034199 -0.0035994214 0
41.890289 -10.25248 0.74244273 0.91899341 -0.39427277 0.0003103622 0
42.214577 -9.4564724 0.77086967 0.9316144 -0.36344802 -0.00022189629 0
-9.4575186 -8.0313101 0.66035891 -0.72230041 -0.61336309 -0.31948054 0
-8.3783169 -8.3632774 0.20034726 -0.27948382 -0.27975035 -0.91849256 0
-6.7658706 -8.2546291 0 -0.0010395624 -0.0010643791 -0.99999887 0
-5.2374778 -8.2362003 0 -0.00097751536 -0.00097751536 -0.99999905 0
-3.7082443 -8.2578135 0 -0.00097751536 -0.00097751536 -0.99999905 0
-2.2696698 -8.2692204 0 -0.00097751536 -0.00097751536 -0.99999905 0
-0.73818862 -8.2818689 0 -0.00097751524 -0.00097751524 -0.99999899 0
0.74819779 -8.2516432 0 -0.00097751536 -0.00097751536 -0.99999905 0
2.2695498 -8.2458582 0 -0.00097751524 -0.00097751524 -0.99999899 0
3.7566962 -8.2322845 0 -0.00097751524 -0.00097751524 -0.99999899 0
5.2801013 -8.2132921 0 -0.00097751536 -0.00097751536 -0.99999905 0
6.7336807 -8.2789898 0 -0.00085344515 -0.0010654888 -0.99999905 0
8.3823385 -8.3588018 0.19346823 0.26488292 -0.26669949 -0.92666525 0
9.4917526 -8.0265493 0.72926092 0.73583084 -0.62047958 -0.27121583 0
25 -8.300498 0.77473396 -0.99999464 -0.00086207403 -0.0031801781 0
42.646469 -8.2590923 0.77282304 0.9481473 -0.31783122 -2.3644043e-05 0
-10.710451 -6.3755579 0.74747896 -0.84242254 -0.49886468 -0.20361298 0
-9.8982306 -6.8846936 0.32721728 -0.49833319 -0.34822723 -0.79397851 0
-8.3045712 -6.737793 0 -0.0011314077 -0.0011504301 -0.99999863 0
-6.7187791 -6.7380533 0 -0.00097751536 -0.00097751536 -0.99999905 0
-5.2619176 -6.7628345 0 -0.00097751536 -0.00097751536 -0.99999911 0
-3.7248521 -6.7829981 0 -0.00097751536 -0.00097751536 -0.99999905 0
-2.2364779 -6.7429008 0 -0.00097751536 -0.00097751536 -0.99999905 0
-0.70777524 -6.7610407 0 -0.00097751536 -0.00097751536 -0.99999905 0
0.74748737 -6.7485075 0 -0.00097751536 -0.00097751536 -0.99999905 0
2.2743015 -6.7736392 0 -0.00097751536 -0.00097751536 -0.99999905 0
3.731951 -6.7612667 0 -0.00097751524 -0.00097751524 -0.99999899 0
5.2664227 -6.7207084 0 -0.00097751536 -0.00097751536 -0.99999905 0
6.7299533 -6.7621956 0 -0.00097751536 -0.00097751536 -0.99999905 0
8.2309494 -6.7593741 0 -0.00079379347 -0.0010477207 -0.99999911 0
9.8864784 -6.8554883 0.30887905 0.47600108 -0.32992873 -0.81521165 0
10.71147 -6.3780937 0.75634861 0.84125876 -0.50122577 -0.20262408 0
25 -6.791625 0.77954096 -0.99998897 -0.0008130332 -0.0046330313 0
43.097897 -6.7639174 0.75180721 0.96547598 -0.26049224 -7.7850782e-05 0
-11.175015 -5.2133894 0.57637995 -0.80760598 -0.37565178 -0.45459682 0
-9.7532053 -5.2679768 1.2985561e-05 -0.0098453192 -0.0051933681 -0.99993807 0
-8.2621889 -5.2701397 0 -0.00097751536 -0.00097751536 -0.99999899 0
-6.7532101 -5.2976251 0 -0.00097751536 -0.00097751536 -0.99999899 0
-5.2911754 -5.2336102 0 -0.00097751536 -0.00097751536 -0.99999905 0
-3.7811849 -5.2429147 0 -0.00097751524 -0.00097751524 -0.99999899 0
-2.250149 -5.2461224 0 -0.00097751536 -0.00097751536 -0.99999905 0
-0.75836498 -5.2590704 0 -0.00097751524 -0.00097751524 -0.99999899 0
0.78537345 -5.2070575 0 -0.00097751536 -0.00097751536 -0.99999905 0
2.2736225 -5.2462044 0 -0.00097751536 -0.00097751536 -0.99999911 0
3.7782876 -5.2869039 0 -0.00097751524 -0.00097751524 -0.99999899 0
5.2541308 -5.2768512 0 -0.00097751524 -0.00097751524 -0.99999899 0
6.7405682 -5.272584 0 -0.00097751536 -0.00097751536 -0.99999905 0
8.2517405 -5.2492065 0 -0.00097751536 -0.00097751536 -0.99999905 0
9.7560472 -5.2586155 2.5011557e-05 0.010510452 -0.0067629097 -0.99992186 0
11.166001 -5.2248344 0.55456787 0.79879808 -0.37364963 -0.47149512 0
25 -5.2585397 0.75648135 -0.99999225 -0.00073659589 -0.0038597994 0
43.408947 -5.4938164 0.74085891 0.97744286 -0.21120018 0.00010061874 0
43.552368 -4.7834382 0.77468216 0.98293442 -0.18395621 1.0456853e-05 0
-12.058352 -3.267544 0.89016432 -0.96218723 -0.25857866 -0.085631825 0
-11.459561 -3.8151233 0.35116571 -0.61406553 -0.20613652 -0.76186037 0
-9.7515965 -3.7418828 0 -0.00097751536 -0.00097751536 -0.99999905 0
-8.2251825 -3.7747707 0 -0.00097751536 -0.00097751536 -0.99999905 0
-6.8009362 -3.7587793 0 -0.00097751536 -0.00097751536 -0.99999905 0
-5.2310219 -3.7686348 0 -0.00097751536 -0.00097751536 -0.99999899 0
-3.7785759 -3.7767107 0 -0.00097751536 -0.00097751536 -0.99999905 0
-2.2323062 -3.7517104 0 -0.00097751536 -0.00097751536 -0.99999905 0
-0.76519865 -3.7232177 0 -0.00097751536 -0.00097751536 -0.99999911 0
0.7644611 -3.7231245 0 -0.00097751536 -0.00097751536 -0.99999905 0
2.2354627 -3.7435014 0 -0.00097751536 -0.00097751536 -0.99999905 0
3.7723026 -3.7239678 0 -0.00097751536 -0.00097751536 -0.99999899 0
5.2672467 -3.7628372 0 -0.00097751536 -0.00097751536 -0.99999905 0
6.7536588 -3.7420418 0 -0.00097751536 -0.00097751536 -0.99999899 0
8.2521667 -3.8009326 0 -0.00097751536 -0.00097751536 -0.99999905 0
9.7612133 -3.7580462 0 -0.00097751536 -0.00097751536 -0.99999905 0
11.457923 -3.8177891 0.36965424 0.6278035 -0.21031404 -0.74942034 0
12.061114 -3.2556038 0.90911829 0.96212554 -0.25700268 -0.090906851 0
25 -3.757596 0.76701683 -0.99997801 -0.0013278677 -0.0065107499 0
43.721558 -3.7541919 0.77636594 0.98953801 -0.14427285 -0.00014675791 0
-12.2481 -2.2506092 0.72625834 -0.95672786 -0.1756238 -0.23200902 0
-11.240117 -2.2253168 0.004028508 -0.07680922 -0.016146546 -0.9969151 0
-9.736949 -2.2286654 0 -0.00097751536 -0.00097751536 -0.99999905 0
-8.2774067 -2.2676024 0 -0.00097751536 -0.00097751536 -0.99999905 0
-6.7511888 -2.2676773 0 -0.00097751536 -0.00097751536 -0.99999905 0
-5.2067275 -2.2776835 0 -0.00097751524 -0.00097751524 -0.99999899 0
-3.771358 -2.239608 0 -0.00097751536 -0.00097751536 -0.99999905 0
-2.2127888 -2.2162361 0 -0.00097751524 -0.00097751524 -0.99999899 0
-0.75484711 -2.2716453 0 -0.00097751524 -0.00097751524 -0.99999899 0
0.74054712 -2.2330081 0 -0.00097751536 -0.00097751536 -0.99999905 0
2.2494767 -2.2350714 0 -0.00097751536 -0.00097751536 -0.99999905 0
3.721513 -2.2810636 0 -0.00097751536 -0.00097751536 -0.99999905 0
5.228765 -2.2498753 0 -0.00097751536 -0.00097751536 -0.99999905 0
6.739501 -2.2262034 0 -0.00097751536 -0.00097751536 -0.99999905 0
8.2481499 -2.2151616 0 -0.00097751536 -0.00097751536 -0.99999905 0
9.7399263 -2.2412579 0 -0.00097751536 -0.00097751536 -0.99999905 0
11.250926 -2.2517934 0.0042552459 0.079517722 -0.01671988 -0.99669325 0
12.249405 -2.2170782 0.71870834 0.9522267 -0.17314519 -0.25156513 0
25 -2.2328832 0.751001 -0.99999082 -0.00097799825 -0.0041861888 0
43.893806 -2.2752793 0.70204049 0.99615127 -0.087650582 0.00021772846 0
-12.393257 -0.75727504 0.63245332 -0.94239229 -0.058047328 -0.32943469 0
-11.227149 -0.72955996 5.1082043e-05 -0.029872492 -0.0030171671 -0.99954921 0
-9.747261 -0.75970846 0 -0.00097751536 -0.00097751536 -0.99999905 0
-8.2299032 -0.73716128 0 -0.00097751536 -0.00097751536 -0.99999899 0
-6.7630944 -0.76375079 0 -0.00097751536 -0.00097751536 -0.99999911 0
-5.2490549 -0.71985936 0 -0.00097751524 -0.00097751524 -0.99999899 0
-3.7855153 -0.73456675 0 -0.00097751536 -0.00097751536 -0.99999899 0
-2.2546637 -0.76176572 0 -0.00097751536 -0.00097751536 -0.99999899 0
-0.76623392 -0.73392576 0 -0.00097751536 -0.00097751536 -0.99999911 0
0.73245436 -0.73517716 0 -0.00097751536 -0.00097751536 -0.99999911 0
2.2536297 -0.74538124 0 -0.00097751536 -0.00097751536 -0.99999905 0
3.7867117 -0.71746135 0 -0.00097751536 -0.00097751536 -0.99999905 0
5.2916813 -0.74082541 0 -0.00097751536 -0.00097751536 -0.99999905 0
6.747777 -0.77684921 0 -0.00097751536 -0.00097751536 -0.99999911 0
8.2281933 -0.7254622 0 -0.00097751536 -0.00097751536 -0.99999899 0
9.7440796 -0.74714738 0 -0.00097751536 -0.00097751536 -0.99999905 0
11.26649 -0.74092448 4.9845687e-05 0.030098014 -0.0030124371 -0.99954242 0
12.395958 -0.73113704 0.65583807 0.93839693 -0.054483823 -0.34123692 0
25 -0.74854434 0.71415734 -0.99998939 -0.00098112586 -0.0044971877 0
43.983246 -0.75115222 0.77877373 0.99957484 -0.029156633 8.3726904e-05 0
-12.397347 0.70969355 0.66172427 -0.9448173 0.055639304 -0.32283813 0
-11.258364 0.74064183 4.5619538e-05 -0.028527852 0.0013201291 -0.99959213 0
-9.7587309 0.76544613 0 -0.00097751536 -0.00097751536 -0.99999905 0
-8.2571917 0.74155056 0 -0.00097751536 -0.00097751536 -0.99999911 0
-6.7469673 0.73107988 0 -0.00097751524 -0.00097751524 -0.99999899 0
-5.2513003 0.742419 0 -0.00097751536 -0.00097751536 -0.99999899 0
-3.7606089 0.75130945 0 -0.00097751524 -0.00097751524 -0.99999899 0
-2.2400084 0.76681858 0 -0.00097751536 -0.00097751536 -0.99999899 0
-0.77570266 0.77668917 0 -0.00097751524 -0.00097751524 -0.99999899 0
0.77594584 0.79500866 0 -0.00097751536 -0.00097751536 -0.99999905 0
2.2824216 0.72300756 0 -0.00097751536 -0.00097751536 -0.99999911 0
3.7183712 0.76954234 0 -0.00097751536 -0.00097751536 -0.99999911 0
5.2489953 0.75966132 0 -0.00097751536 -0.00097751536 -0.99999899 0
6.7647586 0.73625571 0 -0.00097751524 -0.00097751524 -0.99999899 0
8.229476 0.77085167 0 -0.00097751536 -0.00097751536 -0.99999905 0
9.7530174 0.77035517 0 -0.00097751536 -0.00097751536 -0.99999905 0
11.254115 0.76429069 9.1380476e-05 0.030581327 0.0018078873 -0.99953067 0
12.394147 0.77103776 0.65892458 0.94258004 0.057918437 -0.32892004 0
25 0.7750994 0.76974702 -0.99998659 -0.00076432794 -0.0051143453 0
43.982647 0.76024157 0.70646149 0.99956 0.029661542 0.00012531623 0
-12.255684 2.1985757 0.73958218 -0.95678604 0.17216559 -0.23434921 0
-11.24299 2.2408764 0.003865245 -0.080354266 0.015176777 -0.99665082 0
-9.796422 2.2414019 0 -0.00097751536 -0.00097751536 -0.99999905 0
-8.2484484 2.2339549 0 -0.00097751536 -0.00097751536 -0.99999905 0
-6.722713 2.24106 0 -0.00097751524 -0.00097751524 -0.99999899 0
-5.2835417 2.2376049 0 -0.00097751524 -0.00097751524 -0.99999899 0
-3.7450428 2.2111294 0 -0.00097751536 -0.00097751536 -0.99999905 0
-2.208672 2.2491813 0 -0.00097751536 -0.00097751536 -0.99999905 0
-0.77135861 2.2195294 0 -0.00097751524 -0.00097751524 -0.99999899 0
0.70385903 2.2513807 0 -0.00097751536 -0.00097751536 -0.99999911 0
2.2645826 2.2855647 0 -0.00097751536 -0.00097751536 -0.99999905 0
3.7629969 2.2755909 0 -0.00097751536 -0.00097751536 -0.99999905 0
5.2540588 2.2885735 0 -0.00097751536 -0.00097751536 -0.99999899 0
6.7426343 2.267422 0 -0.00097751536 -0.00097751536 -0.99999905 0
8.2783918 2.2484334 0 -0.00097751536 -0.00097751536 -0.99999899 0
9.7785263 2.2607446 0 -0.00097751536 -0.00097751536 -0.99999905 0
11.230103 2.2563643 0.0029440473 0.071582749 0.013607189 -0.99734181 0
12.243908 2.2675474 0.73719746 0.95490921 0.17811981 -0.23753266 0
25 2.2698009 0.75263232 -0.99998772 -0.0011106874 -0.004824657 0
43.898563 2.2282207 0.79815644 0.99632019 0.085709713 -0.0001757756 0
-12.058784 3.2458842 0.84895062 -0.95879865 0.25721923 -0.12059642 0
-11.444527 3.8176835 0.34415707 -0.60165226 0.20092747 -0.77307355 0
-9.7622528 3.7424452 0 -0.00097751536 -0.00097751536 -0.99999905 0
-8.2683249 3.7876189 0 -0.00097751536 -0.00097751536 -0.99999911 0
-6.785275 3.752315 0 -0.00097751536 -0.00097751536 -0.99999905 0
-5.2256517 3.7401643 0 -0.00097751536 -0.00097751536 -0.99999905 0
-3.7080574 3.7430916 0 -0.00097751524 -0.00097751524 -0.99999899 0
-2.2266414 3.7418344 0 -0.00097751536 -0.00097751536 -0.99999905 0
-0.72703665 3.7683804 0 -0.00097751536 -0.00097751536 -0.99999905 0
0.75952572 3.7579353 0 -0.00097751536 -0.00097751536 -0.99999911 0
2.256741 3.7564809 0 -0.00097751536 -0.00097751536 -0.99999905 0
3.7437232 3.7505863 0 -0.00097751536 -0.00097751536 -0.99999911 0
5.2653608 3.7463155 0 -0.00097751536 -0.00097751536 -0.99999911 0
6.7465291 3.7487142 0 -0.00097751524 -0.00097751524 -0.99999899 0
8.2550783 3.7770896 0 -0.00097751536 -0.00097751536 -0.99999905 0
9.7381945 3.7459056 0 -0.00097751536 -0.00097751536 -0.99999905 0
11.462988 3.8234339 0.33985081 0.60923898 0.20230889 -0.76674575 0
12.066542 3.2333682 0.86083788 0.96166259 0.2589092 -0.090394236 0
25 3.7357469 0.80459893 -0.99999005 -0.00083428918 -0.0043903883 0
43.721867 3.7496941 0.73281264 0.98957306 0.14403178 9.036524e-05 0
-11.172515 5.2066894 0.55533832 -0.79825824 0.37158856 -0.47403139 0
-9.737464 5.2506752 1.0932697e-05 -0.0084852334 0.0040103919 -0.99995589 0
-8.2617331 5.2410197 0 -0.00097751536 -0.00097751536 -0.99999905 0
-6.7276926 5.2936025 0 -0.00097751536 -0.00097751536 -0.99999905 0
-5.2155809 5.2189918 0 -0.00097751536 -0.00097751536 -0.99999899 0
-3.7517703 5.2569838 0 -0.00097751536 -0.00097751536 -0.99999905 0
-2.2392709 5.2580976 0 -0.00097751536 -0.00097751536 -0.99999905 0
-0.74698216 5.2543135 0 -0.00097751536 -0.00097751536 -0.99999911 0
0.713027 5.2472687 0 -0.00097751524 -0.00097751524 -0.99999893 0
2.2692568 5.2843409 0 -0.00097751524 -0.00097751524 -0.99999899 0
3.7864442 5.261147 0 -0.00097751536 -0.00097751536 -0.99999905 0
5.2656808 5.2090015 0 -0.00097751536 -0.00097751536 -0.99999911 0
6.7379174 5.2363372 0 -0.00097751536 -0.00097751536 -0.99999905 0
8.2336292 5.2446647 0 -0.00097751536 -0.00097751536 -0.99999905 0
9.7657518 5.2230844 0 0.0078468379 0.0041126921 -0.99996066 0
11.174705 5.2166047 0.58190781 0.80568159 0.37691855 -0.45695686 0
25 5.2740812 0.76185292 -0.99998719 -0.00080212898 -0.0049988586 0
43.403305 5.5178294 0.73978949 0.97728068 0.21194917 0.00024607166 0
43.552582 4.7831278 0.73377615 0.98277009 0.18483184 -0.00020769924 0
-10.726007 6.3540187 0.7800737 -0.84328109 0.49990359 -0.19741672 0
-9.9156151 6.8734689 0.33661219 -0.50488007 0.3485378 -0.78969455 0
-8.2433081 6.7499609 0 -0.0010509532 -0.00083754613 -0.99999917 0
-6.7609792 6.7332563 0 -0.00097751536 -0.00097751536 -0.99999905 0
-5.2228332 6.7526984 0 -0.00097751536 -0.00097751536 -0.99999905 0
-3.7972336 6.7548995 0 -0.00097751524 -0.00097751524 -0.99999899 0
-2.2509611 6.7392077 0 -0.00097751536 -0.00097751536 -0.99999905 0
-0.72351164 6.7376046 0 -0.00097751536 -0.00097751536 -0.99999905 0
0.76126558 6.733017 0 -0.00097751536 -0.00097751536 -0.99999905 0
2.2753403 6.743793 0 -0.00097751536 -0.00097751536 -0.99999905 0
3.7447925 6.763051 0 -0.00097751536 -0.00097751536 -0.99999911 0
5.2583961 6.7667446 0 -0.00097751524 -0.00097751524 -0.99999899 0
6.8039479 6.7814426 0 -0.00097751536 -0.00097751536 -0.99999905 0
8.2049055 6.7745147 0 -0.00079074845 -0.00082310924 -0.9999994 0
9.9009132 6.8656735 0.3149378 0.50053018 0.34556064 -0.79376155 0
10.732739 6.3304634 0.73178929 0.83861846 0.49386093 -0.22982728 0
25 6.773797 0.73936498 -0.99998707 -0.0010568893 -0.0049834442 0
43.095795 6.7722893 0.74173868 0.96537668 0.26085964 0.00017421905 0
-9.4688654 8.0329819 0.67740589 -0.72842437 0.61679125 -0.29827261 0
-8.360302 8.3883314 0.21896636 -0.29257244 0.29253507 -0.91039801 0
-6.7228665 8.2659998 0 -0.0010436567 -0.00078751781 -0.99999917 0
-5.3052225 8.243968 0 -0.00097751536 -0.00097751536 -0.99999911 0
-3.7325318 8.2721214 0 -0.00097751536 -0.00097751536 -0.99999905 0
-2.2140961 8.2323732 0 -0.00097751536 -0.00097751536 -0.99999905 0
-0.72625244 8.266674 0 -0.00097751536 -0.00097751536 -0.99999905 0
0.78398889 8.2688904 0 -0.00097751536 -0.00097751536 -0.99999911 0
2.2403536 8.2541981 0 -0.00097751536 -0.00097751536 -0.99999899 0
3.7557878 8.195302 0 -0.00097751536 -0.00097751536 -0.99999905 0
5.2286234 8.2685013 0 -0.00097751536 -0.00097751536 -0.99999911 0
6.7771726 8.2369947 0 -0.00081987813 -0.00081987813 -0.99999934 0
8.3492937 8.3329649 0.18151896 0.25430691 0.25441924 -0.93305892 0
9.4446726 8.0575314 0.67149842 0.72354317 0.61962861 -0.3042132 0
25 8.2212753 0.74087435 -0.99998927 -0.00099336728 -0.004527519 0
42.666702 8.1967888 0.74922466 0.94906163 0.31509036 -0.0001576487 0
-8.028491 9.4687843 0.66921663 -0.6151911 0.72572994 -0.30798709 0
-6.8606753 9.8881922 0.33639392 -0.33987111 0.49054295 -0.80240589 0
-5.2458487 9.7479734 2.6224297e-06 -0.0045888922 0.0070380787 -0.99996465 0
-3.7283769 9.7784557 0 -0.00097751536 -0.00097751536 -0.99999905 0
-2.2453964 9.7217188 0 -0.00097751536 -0.00097751536 -0.99999905 0
-0.75656986 9.7632217 0 -0.00097751536 -0.00097751536 -0.99999905 0
0.73784864 9.7435665 0 -0.00097751536 -0.00097751536 -0.99999905 0
2.2107894 9.739975 0 -0.00097751536 -0.00097751536 -0.99999905 0
3.7470973 9.7564926 0 -0.00097128912 -0.00097128912 -0.99999905 0
5.2385216 9.7063103 1.5151297e-05 0.0040561138 0.0077386503 -0.99996179 0
6.8489294 9.8910217 0.30981058 0.32750037 0.47192821 -0.81855196 0
8.0297136 9.4623499 0.65295517 0.61122584 0.71969885 -0.32929689 0
25 9.7764711 0.75572771 -0.99997723 -0.0011430775 -0.0066516697 0
41.899101 10.228786 0.76914698 0.91932344 0.39350256 0.00044445347 0
42.19482 9.5067959 0.73717433 0.93062061 0.36598545 -0.00011738727 0
-6.375576 10.717116 0.80721295 -0.50527525 0.84559011 -0.17226215 0
-5.2317982 11.162005 0.5447216 -0.37669602 0.80218118 -0.46325538 0
-3.8218491 11.452583 0.36260024 -0.20952155 0.6252861 -0.75174344 0
-2.2434044 11.255479 0.0040113647 -0.016423235 0.080359906 -0.99663061 0
-0.71131402 11.227529 7.2086397e-05 -0.0030806935 0.028291369 -0.99959505 0
0.74753481 11.268571 4.4065124e-05 0.0013254293 0.029233532 -0.99957174 0
2.2422094 11.265533 0.0053636613 0.017524352 0.087957256 -0.99597013 0
3.8097856 11.451311 0.36501679 0.20661183 0.61926311 -0.75751227 0
5.2050271 11.166245 0.54200524 0.36999756 0.7908867 -0.4874424 0
6.3561592 10.732057 0.79190898 0.4989441 0.84566963 -0.18946709 0
25 11.233566 0.75616217 -0.99998915 -0.00070351129 -0.004607752 0
41.440685 11.23261 0.75229734 0.90164518 0.43247652 -4.5151701e-06 0
-3.2405825 12.062508 0.84112966 -0.25694454 0.96017623 -0.10973229 0
-2.2199185 12.253301 0.71899515 -0.17426468 0.95705539 -0.23168242 0
-0.7679798 12.398629 0.66708964 -0.059702814 0.9491666 -0.30906045 0
0.72164494 12.394549 0.62950724 0.055658605 0.93820816 -0.34156632 0
2.2226636 12.254321 0.72677624 0.17447375 0.95859975 -0.22504574 0
3.2392795 12.061821 0.88547635 0.25775939 0.95932621 -0.11512282 0
25 12.762203 0.73388904 -0.99999332 -0.00091434375 -0.0035222538 0
40.359138 13.262777 0.75747198 0.85964304 0.51089489 -0.00055096991 0
40.777668 12.527139 0.75469357 0.8762998 0.48176622 9.9827812e-06 0
25 14.288761 0.75553155 -0.99999815 -0.00075464218 -0.0017831983 0
39.705711 14.298136 0.78331709 0.8350293 0.55020547 -0.00020669962 0
25 15.737992 0.72929186 -0.99999905 -0.00097132853 -0.00097751536 0
38.574265 15.88652 0.72097886 0.79154599 0.6111095 0.0002486819 0
39.124592 15.151813 0.74194932 0.81368577 0.58130491 3.008544e-07 0
25 17.297955 0.74954921 -0.99999899 -0.00097751524 -0.00097751524 0
37.15303 17.576145 0.7350201 0.73698443 0.6759097 0.00033918893 0
37.793072 16.853046 0.77494937 0.76125371 0.64845407 -0.00046409501 0
25 18.791697 0.7527582 -0.99999899 -0.00097751524 -0.00097751524 0
35.608059 19.124117 0.67863303 0.677288 0.73571789 0.00039874259 0
36.387753 18.375486 0.78343487 0.70753342 0.70667988 -0.00024439502 0
25.001425 20.225504 0.77359891 -0.99986959 0.0161402 -0.00049340777 0
33.906582 20.558672 0.73443472 0.61199433 0.7908622 -7.7321041e-05 0
34.864773 19.78303 0.70037407 0.64893782 0.76084131 0.00034071013 0
25.21999 21.75071 0.77969724 -0.93550903 0.35329846 -0.0017547302 0
25.549009 22.438129 0.84751368 -0.81577307 0.57836157 -0.0034897155 0
31.288576 22.343193 0.76750284 0.5107702 0.85971731 8.7790657e-05 0
32.285355 21.714697 0.74651915 0.54955745 0.83545583 -0.00025100115 0
33.177551 21.107973 0.78421736 0.58382744 0.81187779 -1.6145237e-05 0
26.287781 23.11606 0.8314231 -0.57692403 0.81679505 -0.002089255 0
27.759613 23.668222 0.77916491 -0.082874365 0.99656004 3.745317e-05 0
29.159824 23.451033 0.76857078 0.34553066 0.93840742 -2.1312058e-05 0
30.506529 22.789501 0.770666 0.48107949 0.87667698 7.8047458e-05 0
26.251751 -23.094923 2.2463958 -0.59051758 -0.80702466 -8.9168869e-05 0
27.735497 -23.663708 2.2510374 -0.090306416 -0.99591374 0.00073171686 0
29.177282 -23.442959 2.2746134 0.34879187 -0.93720013 0.00040124625 0
30.464397 -22.81242 2.2259831 0.47940263 -0.87759507 -1.6918289e-05 0
25.208015 -21.720913 2.2295582 -0.939197 -0.34337583 -0.0014065361 0
25.547083 -22.435936 2.2370527 -0.81776315 -0.57555473 0.0003685352 0
31.286238 -22.344484 2.1953058 0.51110941 -0.85951561 9.2212176e-05 0
32.250584 -21.737293 2.2849712 0.54835093 -0.83624828 6.8100388e-05 0
33.154984 -21.12426 2.2595015 0.58288461 -0.8125549 0.00011569379 0
25.001621 -20.253853 2.2518587 -0.99978709 -0.020630794 -0.00027107008 0
33.903111 -20.561356 2.2292655 0.61167735 -0.79110736 7.617462e-05 0
34.834614 -19.808809 2.2567096 0.64772159 -0.761877 0.00049076334 0
25 -18.749016 2.2372708 -0.99999899 -0.00097751524 -0.00097751524 0
35.59148 -19.139338 2.2341077 0.67674094 -0.73622125 -0.00029086519 0
36.387699 -18.375998 2.2438979 0.707735 -0.706478 -2.4857474e-05 0
25 -17.254456 2.2962289 -0.99999911 -0.00097751536 -0.00097751536 0
37.15205 -17.576546 2.2323592 0.73701888 -0.67587221 6.2061212e-05 0
37.798294 -16.84696 2.2250674 0.76144946 -0.64822429 0.00022471014 0
25 -15.772186 2.2077334 -0.99999446 -0.0031442665 -0.0011419338 0
38.549397 -15.91768 2.2608447 0.79047781 -0.61249065 -0.00026889 0
39.113186 -15.170235 2.1968358 0.81227916 -0.58326882 -4.3612301e-05 0
24.902544 -14.201087 2.2476754 -0.97619033 -0.18031065 -0.12058397 0
39.716801 -14.281754 2.2155364 0.83549464 -0.54949868 -2.3665456e-05 0
-3.2359295 -12.068757 2.2355139 -0.2581889 -0.9660933 0.0014765917 0
-2.2451758 -12.28365 2.2794073 -0.1800582 -0.98365396 0.0019680734 0
-0.72321624 -12.466625 2.2333522 -0.057145637 -0.9983632 0.0022923239 0
0.74484515 -12.464501 2.2593884 0.058801752 -0.9982667 0.0024093732 0
2.2486761 -12.283851 2.2466457 0.18034677 -0.98359984 0.0025458494 0
3.2397172 -12.066456 2.2644792 0.21291871 -0.9770664 -0.0026254696 0
22.258638 -12.017218 2.4990733 -0.10339133 -0.96447206 -0.24311291 0
23.364952 -12.324168 2.3860903 -0.40564716 -0.81995881 -0.4038786 0
24.584986 -12.830919 2.1028535 -0.73438752 -0.29267678 -0.61238492 0
40.35173 -13.273311 2.2672877 0.85976404 -0.51069152 -0.00010752009 0
40.775036 -12.53229 2.2116919 0.87600744 -0.48229745 0.00024481691 0
-6.407341 -10.723006 2.2935736 -0.51284564 -0.85847908 0.0017428744 0
-5.2378426 -11.333203 2.2483573 -0.41901261 -0.90797782 0.0021773004 0
-3.9981689 -11.83365 2.2243931 -0.32052892 -0.94723529 0.0025699767 0
4.0123262 -11.941885 2.2474477 0.12488364 -0.98468387 -0.12166215 0
5.296083 -11.714433 2.1539571 0.15047954 -0.85506701 -0.49620178 0
6.7421265 -11.495243 2.15604 0.10031863 -0.69860214 -0.70844275 0
8.265872 -11.53169 2.2048717 0.0028105769 -0.57610029 -0.81737423 0
9.7482481 -11.544528 2.1975522 -0.0015924042 -0.56947106 -0.82200986 0
11.262643 -11.554516 2.2144279 -0.0054818522 -0.59009552 -0.80731475 0
12.761659 -11.528475 2.2009034 0.0015260404 -0.56280702 -0.8265869 0
14.262708 -11.550037 2.206316 0.0033172581 -0.5915283 -0.80627745 0
15.753018 -11.526282 2.188247 0.0017652586 -0.52782351 -0.84935218 0
17.276621 -11.56041 2.2153339 -0.0046484238 -0.60349762 -0.7973513 0
18.76635 -11.558496 2.2052524 -0.00048996892 -0.59040838 -0.80710453 0
20.237564 -11.517095 2.1831017 0.00060217647 -0.52544385 -0.85082805 0
21.66777 -11.479365 2.1607335 -0.0060857451 -0.46265304 -0.8865186 0
23.255997 -11.241438 2 -0.013923107 -0.042404149 -0.99900347 0
24.637926 -11.219524 1.9322016 -0.43977231 -0.0017549103 -0.89810753 0
41.423203 -11.267186 2.2570577 0.90110689 -0.43359697 -7.2370378e-05 0
-8.0729551 -9.5266256 2.2838202 -0.64671314 -0.76273102 0.0018385557 0
-7.1368484 -10.252794 2.2145047 -0.57070756 -0.82115167 0.0016902825 0
7.2152729 -10.245127 1.8005444 0.5175575 -0.70842147 -0.47986799 0
8.2691574 -9.7816925 1.9128058 0.3408314 -0.40686923 -0.84752071 0
9.721859 -9.7570744 2 0.0043597221 -0.0062712375 -0.99997079 0
11.232712 -9.764369 2 -0.00097751536 -0.00097751536 -0.99999911 0
12.742412 -9.7240791 2 -0.00097751536 -0.00097751536 -0.99999911 0
14.225747 -9.7212152 2 -0.00097751536 -0.00097751536 -0.99999905 0
15.73398 -9.7221899 2 -0.00097751524 -0.00097751524 -0.99999899 0
17.232533 -9.7285252 2 -0.00097751536 -0.00097751536 -0.99999905 0
18.740046 -9.7817202 2 -0.00097751536 -0.00097751536 -0.99999905 0
20.271484 -9.7496157 2 -0.00097751536 -0.00097751536 -0.99999911 0
21.768953 -9.7434397 2 -0.00097751536 -0.00097751536 -0.99999905 0
23.242659 -9.7391939 2 -0.00097751536 -0.00097751536 -0.99999905 0
24.670427 -9.7330265 1.9190276 -0.49669367 0.0082409224 -0.86788684 0
41.891247 -10.250457 2.2960856 0.91932702 -0.39349434 -0.00024859802 0
42.192455 -9.5124941 2.2227945 0.93052649 -0.36622465 3.7734768e-05 0
-9.5192585 -8.081502 2.2519147 -0.76251191 -0.64697111 0.001995146 0
-8.8197851 -8.8471909 2.1999257 -0.70565814 -0.70854884 0.0022920403 0
8.8492146 -8.8583622 1.7907481 0.6141628 -0.63613927 -0.46704474 0
9.7904911 -8.3048449 1.9332116 0.34743139 -0.297701 -0.88919371 0
11.243777 -8.2356176 2 -8.5376618e-05 -0.0016855093 -0.99999863 0
12.704148 -8.2088604 2 -0.00097751536 -0.00097751536 -0.99999911 0
14.219454 -8.2657337 2 -0.00097751536 -0.00097751536 -0.99999905 0
15.754485 -8.2037792 2 -0.00097751536 -0.00097751536 -0.99999905 0
17.209581 -8.2615643 2 -0.00097751524 -0.00097751524 -0.99999899 0
18.75528 -8.2867002 2 -0.00097751536 -0.00097751536 -0.99999905 0
20.245989 -8.2514324 2 -0.00097751536 -0.00097751536 -0.99999911 0
21.738178 -8.1872673 2 -0.00097751536 -0.00097751536 -0.99999899 0
23.261869 -8.2341452 2 -0.00097751536 -0.00097751536 -0.99999905 0
24.652939 -8.2755852 1.9253649 -0.4404535 -0.0034144993 -0.89776891 0
42.642696 -8.2706814 2.2210441 0.94798648 -0.31831068 -5.9221242e-05 0
-10.756601 -6.3523183 2.2373989 -0.8611266 -0.50838888 0.0013441344 0
-10.240001 -7.1547313 2.2643673 -0.81890553 -0.57392585 0.0016919408 0
10.283995 -7.1628833 1.8255055 0.68532848 -0.46685454 -0.5589022 0
11.193249 -6.6822786 1.9598938 0.23028719 -0.14251657 -0.96263015 0
12.736179 -6.7317882 2 -0.00097751536 -0.00097751536 -0.99999905 0
14.266789 -6.7115722 2 -0.00097751536 -0.00097751536 -0.99999911 0
15.755608 -6.7453637 2 -0.00097751536 -0.00097751536 -0.99999911 0
17.230549 -6.7501464 2 -0.00097751536 -0.00097751536 -0.99999905 0
18.732674 -6.7931733 2 -0.00097751536 -0.00097751536 -0.99999905 0
20.253086 -6.704113 2 -0.00097751536 -0.00097751536 -0.99999905 0
21.734962 -6.7294097 2 -0.00097751536 -0.00097751536 -0.99999905 0
23.257853 -6.739532 2 -0.00097751536 -0.00097751536 -0.99999905 0
24.683544 -6.7445993 1.9159625 -0.5077588 0.0011081164 -0.86149859 0
43.099998 -6.7569866 2.2076287 0.96554381 -0.2602405 6.7388559e-05 0
-11.330132 -5.2444749 2.2351394 -0.90747482 -0.42010075 0.0021947781 0
11.464498 -5.3735909 1.8879675 0.58018148 -0.26910728 -0.7687462 0
12.714709 -5.2638359 2 0.006944532 -0.0030954713 -0.99997115 0
14.213305 -5.2588782 2 -0.00097751524 -0.00097751524 -0.99999899 0
15.765113 -5.2586551 2 -0.00097751536 -0.00097751536 -0.99999905 0
17.268581 -5.2250414 2 -0.00097751536 -0.00097751536 -0.99999905 0
18.767565 -5.1816707 2 -0.00097751524 -0.00097751524 -0.99999899 0
20.205456 -5.2849984 2 -0.00097751524 -0.00097751524 -0.99999899 0
21.751045 -5.2779226 2 -0.00097751536 -0.00097751536 -0.99999905 0
23.20719 -5.296823 2 -0.00097751536 -0.00097751536 -0.99999899 0
24.666056 -5.23628 1.9033383 -0.53775358 -0.0021654353 -0.8430993 0
43.400791 -5.5310597 2.2489588 0.97712308 -0.21267414 0.00036549172 0
43.548725 -4.8029141 2.169364 0.98282331 -0.18454914 0.00016844361 0
-12.068563 -3.2347391 2.1949461 -0.96660894 -0.25623178 0.0035009908 0
-11.825624 -4.0234051 2.3131738 -0.9466669 -0.32220829 0.0019346431 0
11.843188 -4.0842309 1.8318889 0.8025946 -0.26924768 -0.53230399 0
12.705913 -3.7168751 1.9785385 0.1751157 -0.051705204 -0.98318928 0
14.252492 -3.7165036 2 -0.00097751536 -0.00097751536 -0.99999905 0
15.796765 -3.7375274 2 -0.00097751524 -0.00097751524 -0.99999899 0
17.225042 -3.7263024 2 -0.00097751536 -0.00097751536 -0.99999911 0
18.76206 -3.7531705 2 -0.00097751536 -0.00097751536 -0.99999911 0
20.281191 -3.7812922 2 -0.00097751524 -0.00097751524 -0.99999899 0
21.752583 -3.7483127 2 -0.00097751536 -0.00097751536 -0.99999905 0
23.25861 -3.7407982 2 -0.00097751536 -0.00097751536 -0.99999911 0
24.647705 -3.760406 1.9261059 -0.44906041 -0.0083526196 -0.89346236 0
43.718224 -3.7771683 2.2559268 0.98936605 -0.14544716 -6.8216388e-05 0
-12.283398 -2.2432303 2.2452316 -0.98359722 -0.18036151 0.0024890681 0
12.701011 -2.2470617 1.9192723 0.45026463 -0.079677254 -0.88933313 0
14.244038 -2.2454038 2 -0.00097751536 -0.00097751536 -0.99999905 0
15.737031 -2.2501254 2 -0.00097751536 -0.00097751536 -0.99999899 0
17.212404 -2.2599518 2 -0.00097751524 -0.00097751524 -0.99999899 0
18.78503 -2.2590234 2 -0.00097751524 -0.00097751524 -0.99999899 0
20.226652 -2.2380872 2 -0.00097751536 -0.00097751536 -0.99999905 0
21.753696 -2.2633259 2 -0.00097751536 -0.00097751536 -0.99999905 0
23.245577 -2.25648 2 -0.00097751536 -0.00097751536 -0.99999905 0
24.68355 -2.1893299 1.9052233 -0.53557462 0.0123373 -0.84439778 0
43.894119 -2.2758474 2.2622173 0.9961589 -0.087563634 -0.00037034269 0
-12.465369 -0.73942244 2.2683384 -0.99828213 -0.05854049 0.0024030472 0
12.798491 -0.75817078 1.9124869 0.51157451 -0.029753491 -0.85872364 0
14.269791 -0.71654987 2 -0.00097751536 -0.00097751536 -0.99999905 0
15.714924 -0.7659803 2 -0.00097751536 -0.00097751536 -0.99999905 0
17.237576 -0.77434158 2 -0.00097751536 -0.00097751536 -0.99999911 0
18.7897 -0.74764532 2 -0.00097751536 -0.00097751536 -0.99999905 0
20.204531 -0.74357045 2 -0.00097751536 -0.00097751536 -0.99999911 0
21.723719 -0.71538913 2 -0.00097751536 -0.00097751536 -0.99999911 0
23.25317 -0.7338419 2 -0.00097751536 -0.00097751536 -0.99999905 0
24.680611 -0.80031484 1.9159189 -0.49169001 -0.0035934991 -0.87076283 0
43.984055 -0.72524428 2.2683933 0.99961215 -0.027846348 -0.00020665108 0
-12.46365 0.77159268 2.2171578 -0.99809289 0.061666109 0.0028286644 0
12.808734 0.75172997 1.9096791 0.51301885 0.018355887 -0.85818112 0
14.240033 0.75306314 2 -0.00097751536 -0.00097751536 -0.99999911 0
15.759557 0.74053198 2 -0.00097751536 -0.00097751536 -0.99999905 0
17.265779 0.74788332 2 -0.00097751536 -0.00097751536 -0.99999905 0
18.798225 0.7467466 2 -0.00097751536 -0.00097751536 -0.99999905 0
20.216042 0.77283245 2 -0.00097751536 -0.00097751536 -0.99999905 0
21.74696 0.7686215 2 -0.00097751536 -0.00097751536 -0.99999911 0
23.293001 0.76274073 2 -0.00097751536 -0.00097751536 -0.99999905 0
24.687592 0.76227051 1.9016083 -0.55512148 3.2307529e-05 -0.83176935 0
43.983891 0.71437037 2.2463176 0.99961251 0.027834047 -0.00019693484 0
-12.276342 2.2833915 2.2649834 -0.98299462 0.18362096 0.0022518826 0
12.724691 2.279422 1.9365622 0.39649072 0.079445913 -0.91459471 0
14.240377 2.2822907 2 -0.00097751536 -0.00097751536 -0.99999911 0
15.749562 2.2791998 2 -0.00097751536 -0.00097751536 -0.99999905 0
17.199404 2.2438569 2 -0.00097751536 -0.00097751536 -0.99999911 0
18.733702 2.2899778 2 -0.00097751536 -0.00097751536 -0.99999905 0
20.223082 2.2481172 2 -0.00097751536 -0.00097751536 -0.99999905 0
21.784948 2.269927 2 -0.00097751536 -0.00097751536 -0.99999911 0
23.253464 2.205302 2 -0.00097751524 -0.00097751524 -0.99999899 0
24.655645 2.214185 1.9173194 -0.48136541 -0.0043689976 -0.87650913 0
43.896545 2.2498493 2.2368827 0.9962517 0.086501323 0.00010693711 0
-12.062351 3.2594731 2.2633519 -0.96612298 0.25806919 0.0025738364 0
-11.832408 4.003098 2.219605 -0.94700438 0.32121038 0.0025572423 0
11.859284 4.0124483 1.8170669 0.79956073 0.2771222 -0.53282827 0
12.676558 3.7016938 1.9787499 0.16654983 0.043093529 -0.98509091 0
14.246257 3.7781091 2 -0.00097751524 -0.00097751524 -0.99999899 0
15.754161 3.743876 2 -0.00097751536 -0.00097751536 -0.99999905 0
17.273977 3.7666223 2 -0.00097751524 -0.00097751524 -0.99999899 0
18.731321 3.7428038 2 -0.00097751536 -0.00097751536 -0.99999905 0
20.221338 3.7557421 2 -0.00097751536 -0.00097751536 -0.99999899 0
21.742149 3.7089107 2 -0.00097751548 -0.00097751548 -0.99999911 0
23.303991 3.7070196 2 -0.00097751536 -0.00097751536 -0.99999911 0
24.639805 3.7122238 1.9124151 -0.47375506 -0.00064890634 -0.88065642 0
43.721977 3.746557 2.2564785 0.98957825 0.14399637 -5.4020962e-05 0
-11.330663 5.2455149 2.3034832 -0.90754592 0.4199475 0.0021063618 0
11.514975 5.2906513 1.8806376 0.60219979 0.26284754 -0.75383455 0
12.728865 5.2638383 2 0.004405471 0.00077046576 -0.99998999 0
14.233137 5.2399254 2 -0.00097751524 -0.00097751524 -0.99999893 0
15.723303 5.2348814 2 -0.00097751536 -0.00097751536 -0.99999905 0
17.240204 5.2253308 2 -0.00097751536 -0.00097751536 -0.99999911 0
18.748497 5.2594433 2 -0.00097751536 -0.00097751536 -0.99999911 0
20.283426 5.2244349 2 -0.00097751524 -0.00097751524 -0.99999899 0
21.763226 5.2841816 2 -0.00097751536 -0.00097751536 -0.99999911 0
23.249577 5.213099 2 -0.00097751536 -0.00097751536 -0.99999905 0
24.697899 5.2338362 1.9038328 -0.57219338 0.005972614 -0.82009703 0
43.399479 5.5357389 2.2334402 0.97701216 0.21318349 -4.3099812e-05 0
43.559052 4.7496495 2.2058415 0.98304617 0.18335807 -9.1188114e-05 0
-10.7328 6.3920355 2.2295122 -0.85897475 0.51201189 0.0024896006 0
-10.268257 7.1156149 2.2523463 -0.82201773 0.56945771 0.0021803451 0
10.290545 7.1639643 1.8032904 0.7111758 0.4811008 -0.51261193 0
11.189221 6.6682239 1.9420177 0.28707454 0.17778361 -0.94126576 0
12.747278 6.7515411 2 -0.00097751524 -0.00097751524 -0.99999899 0
14.264456 6.7237034 2 -0.00097751536 -0.00097751536 -0.99999905 0
15.747102 6.7521324 2 -0.00097751536 -0.00097751536 -0.99999905 0
17.222271 6.7248778 2 -0.00097751536 -0.00097751536 -0.99999905 0
18.781977 6.7431703 2 -0.00097751536 -0.00097751536 -0.99999905 0
20.283472 6.7500768 2 -0.00097751524 -0.00097751524 -0.99999899 0
21.732676 6.7306714 2 -0.00097751536 -0.00097751536 -0.99999905 0
23.238083 6.7380772 2 -0.00097751536 -0.00097751536 -0.99999905 0
24.674398 6.7790256 1.9247084 -0.47297347 -0.0016861744 -0.88107502 0
43.09866 6.7622232 2.2690415 0.96558934 0.26007146 -0.0002748853 0
-9.5149078 8.0869789 2.2406592 -0.76169211 0.64793527 0.0022325516 0
-8.8283968 8.8384886 2.2548132 -0.70619458 0.70801443 0.0022084762 0
8.8500805 8.83918 1.801723 0.59167939 0.61824381 -0.51738769 0
9.797368 8.2650156 1.9161025 0.37930816 0.31884423 -0.86859864 0
11.217299 8.2288456 2 0.00019908362 6.3648629e-05 -1 0
12.758089 8.1902218 2 -0.00097751536 -0.00097751536 -0.99999905 0
14.247446 8.258482 2 -0.00097751536 -0.00097751536 -0.99999905 0
15.737146 8.2595978 2 -0.00097751536 -0.00097751536 -0.99999899 0
17.234293 8.2396374 2 -0.00097751536 -0.00097751536 -0.99999905 0
18.775703 8.2340937 2 -0.00097751536 -0.00097751536 -0.99999905 0
20.265501 8.2691545 2 -0.00097751536 -0.00097751536 -0.99999905 0
21.752977 8.2810993 2 -0.00097751524 -0.00097751524 -0.99999899 0
23.293341 8.1897001 2 -0.00097751524 -0.00097751524 -0.99999893 0
24.684103 8.2517309 1.9130642 -0.51528352 -0.0062645315 -0.85699689 0
42.653324 8.2384119 2.2327869 0.94850123 0.31677359 -0.00023543037 0
-8.0715504 9.527648 2.2496247 -0.64650387 0.76290852 0.0018289848 0
-7.1266885 10.25987 2.2604766 -0.57098293 0.82096088 0.0013227302 0
7.1723323 10.256303 1.8186345 0.50320005 0.69538122 -0.51306397 0
8.3053799 9.7460184 1.9117973 0.34150159 0.40790826 -0.84675115 0
9.7613907 9.7255383 2 0.0071592699 0.0081116464 -0.99994147 0
11.221805 9.7212334 2 -0.00097751536 -0.00097751536 -0.99999905 0
12.760901 9.734828 2 -0.00097751536 -0.00097751536 -0.99999905 0
14.238129 9.7468433 2 -0.00097751536 -0.00097751536 -0.99999905 0
15.735338 9.7095127 2 -0.00097751524 -0.00097751524 -0.99999893 0
17.269165 9.7225456 2 -0.00097751536 -0.00097751536 -0.99999899 0
18.745937 9.7723293 2 -0.00097751536 -0.00097751536 -0.99999905 0
20.21542 9.7589951 2 -0.00097751536 -0.00097751536 -0.99999905 0
21.78467 9.764596 2 -0.00097751536 -0.00097751536 -0.99999905 0
23.260895 9.7513618 2 -0.00097751536 -0.00097751536 -0.99999905 0
24.648018 9.7171659 1.9189329 -0.46252397 -0.0039909701 -0.88659769 0
41.89164 10.246273 2.2554336 0.9192273 0.39372706 -0.00035956086 0
42.191345 9.5155754 2.2491512 0.93051326 0.36625817 0.00016701772 0
-6.3986049 10.728601 2.2484992 -0.51241362 0.85873741 0.0014868793 0
-5.2675939 11.319254 2.2461321 -0.42198122 0.90660191 0.0021915413 0
-3.9685321 11.843693 2.2316356 -0.31757402 0.94823068 0.0023064869 0
4.0793223 11.835919 1.8110824 0.24662536 0.94769549 -0.20260614 0
5.3183417 11.47852 1.8836564 0.26946297 0.72021031 -0.6392861 0
6.6977596 11.169502 1.951159 0.16595636 0.41566578 -0.89424855 0
8.2626925 11.265901 2 0.0010511247 0.15178947 -0.98841232 0
9.7527227 11.252747 2 -0.001851144 0.12708308 -0.99189037 0
11.233037 11.256824 2 3.8710091e-06 0.14462246 -0.98948693 0
12.75142 11.286679 2 -0.0041073812 0.15082338 -0.98855227 0
14.251795 11.223355 2 -0.00063544308 0.13138098 -0.99133182 0
15.782306 11.236864 2 0.0035931321 0.14070074 -0.99004567 0
17.249416 11.227863 2 0.0001637285 0.11206415 -0.99370098 0
18.749752 11.229959 2 -0.0028027683 0.12968051 -0.99155188 0
20.286818 11.237887 2 -0.0031356728 0.13740668 -0.99050975 0
21.770985 11.252638 2 -0.001907264 0.12790327 -0.99178481 0
23.255049 11.247132 2 -0.018688127 0.052534498 -0.99844426 0
24.653532 11.223585 1.9172937 -0.46717983 -0.0014577503 -0.88416117 0
41.422134 11.270914 2.2303081 0.90100747 0.43380359 0.00023153205 0
-3.2334254 12.069735 2.2007477 -0.2575224 0.9662692 0.00246213 0
-2.2639928 12.279281 2.2721963 -0.18213046 0.98327112 0.0025136631 0
-0.7242074 12.466776 2.2667778 -0.057438675 0.99834585 0.0025141123 0
0.74871987 12.464813 2.2629468 0.059486337 0.99822634 0.0023897358 0
2.2993329 12.274004 2.2104108 0.1848294 0.9827686 0.0020171509 0
3.7044706 12.026411 2.4308181 0.11373738 0.99268103 -0.040597241 0
5.2428966 12 2.5146387 0.00050952932 0.98294783 -0.18388426 0
6.7413425 12 2.5101714 -0.0031776165 0.98520762 -0.17133541 0
8.2099743 12 2.4674723 0.0072682137 0.97614574 -0.21699466 0
9.6945381 12 2.4857159 -0.0036209191 0.97259581 -0.23247431 0
11.26581 12 2.4690125 0.0011890935 0.9763248 -0.21630678 0
12.75572 12 2.4584699 0.00069190061 0.97329217 -0.2295689 0
14.233895 12 2.5025594 0.0042778947 0.98326206 -0.18214701 0
15.73971 12 2.5209897 0.0038991207 0.98638576 -0.1644021 0
17.276548 12 2.4966524 -0.0052016755 0.97880977 -0.20470573 0
18.791985 12 2.4926653 -0.00086061185 0.98062015 -0.19591674 0
20.23366 12 2.4908574 3.396274e-05 0.97904354 -0.203651 0
21.809181 12.006342 2.4776747 -0.038798228 0.97506285 -0.21851107 0
23.356365 12.305487 2.3466654 -0.39121372 0.79432237 -0.46476206 0
24.60742 12.816148 2.0861216 -0.7335977 0.28355932 -0.61759895 0
40.366829 13.250056 2.1815836 0.85976154 0.5106957 8.5489344e-05 0
40.780842 12.521306 2.2481201 0.87656134 0.48129001 -0.00029480483 0
24.90169 14.202221 2.2724257 -0.97724968 0.18357301 -0.10622661 0
39.737881 14.249918 2.1970952 0.8364436 0.54805303 0.00026446249 0
25 15.746274 2.2582569 -0.99999714 0.0021638551 -0.0010696808 0
38.530537 15.942681 2.2872424 0.78951812 0.61372715 -0.00052293402 0
39.127941 15.14708 2.2541673 0.81315172 0.58205181 -8.0435006e-05 0
25 17.275866 2.2090333 -0.99999905 -0.00097751536 -0.00097751536 0
37.110435 17.621826 2.2486072 0.73537135 0.67766434 -1.7763392e-05 0
37.804714 16.839125 2.1905699 0.76228827 0.64723754 0.00042414357 0
25 18.753773 2.2350745 -0.99999905 -0.00097751536 -0.00097751536 0
35.59243 19.138535 2.27161 0.67680061 0.73616636 -0.00013916382 0
36.359768 18.403587 2.236068 0.70626044 0.70795208 9.5887801e-05 0
25.001789 20.272287 2.2720325 -0.99979174 0.020405822 -0.00029323008 0
33.894909 20.567633 2.2701356 0.61129475 0.79140306 -4.6238027e-05 0
34.841595 19.802912 2.2481537 0.64802086 0.76162255 -0.00012233669 0
25.2073 21.719765 2.2272768 -0.93947482 0.34261656 -0.0010087865 0
25.545729 22.434029 2.299015 -0.81795412 0.57528353 6.4893597e-05 0
31.260206 22.359997 2.2663381 0.51002336 0.86016047 -0.00037507009 0
32.236855 21.746731 2.2494352 0.54779679 0.83661139 -0.00025607957 0
33.178501 21.107246 2.2913814 0.58451152 0.81138521 -0.00045497552 0
