# .PCD v0.7 - Point Cloud Data file format
VERSION 0.7
FIELDS x y z normal_x normal_y normal_z curvature
SIZE 4 4 4 4 4 4 4
TYPE F F F F F F F
COUNT 1 1 1 1 1 1 1
WIDTH 721
HEIGHT 1
VIEWPOINT 0 0 0 1 0 0 0
POINTS 721
DATA ascii
18.767097 6.1297073 442.67148 -0.10641202 0.98909736 0.10179838 0
20.004219 5.9581604 441.89471 0.007650435 0.99013913 0.1398789 0
21.27037 5.9281616 441.08414 -0.079902187 0.99060899 0.11094925 0
22.423126 5.7364998 440.1546 -0.16215812 0.9831866 0.083957046 0
23.559677 5.507328 439.2421 -0.16215812 0.98318666 0.083957054 0
24.711891 5.3597984 438.22806 -0.16215812 0.9831866 0.083957046 0
25.786293 5.1494637 437.35886 -0.16215812 0.9831866 0.083957046 0
26.938339 4.8770943 436.47601 -0.16215812 0.9831866 0.083957046 0
28.099144 4.6678505 435.51801 -0.16215812 0.9831866 0.083957046 0
29.211105 4.469944 434.59766 -0.16215812 0.98318666 0.083957054 0
30.359612 4.2277489 433.68674 -0.16215812 0.98318666 0.083957054 0
31.464218 4.0311127 432.77252 -0.1621581 0.98318654 0.083957046 0
32.619469 3.828064 431.81363 -0.16215812 0.9831866 0.083957046 0
33.753067 3.6332779 430.86807 -0.1621581 0.98318654 0.083957046 0
34.838821 3.4343491 429.96579 -0.19720614 0.97778386 0.071051702 0
35.812462 3.0307503 428.86694 -0.54655826 0.83501333 -0.063453138 0
36.144966 2.4556084 427.7865 -0.83114862 0.51855344 -0.20073298 0
48.134285 0.12961197 417.80771 0.72195518 0.61275834 0.32141662 0
48.88475 0.48846436 417.9325 0.74275827 0.5855912 0.32464409 0
35.918808 1.7647667 426.87759 -0.94670892 0.13663799 -0.29167119 0
47.076126 -0.34709549 417.67892 0.69324088 0.64731711 0.31685695 0
35.147781 0.89571381 426.00009 -0.93745333 -0.12383072 -0.32534167 0
45.26239 -1.0706558 417.53793 0.64097559 0.70325822 0.30753654 0
46.059227 -0.64289474 417.5163 0.66709459 0.67662364 0.31171435 0
34.294647 0.070335388 425.22644 -0.93660724 -0.12863514 -0.32591408 0
43.187157 -1.7937241 417.52463 0.57866311 0.76023954 0.29527205 0
44.129181 -1.4539261 417.49606 0.60759747 0.73508281 0.30079794 0
33.422981 -0.74517441 424.43042 -0.93660718 -0.12863512 -0.32591406 0
41.201286 -2.4282532 417.6777 0.51526052 0.80966139 0.28099084 0
42.192261 -2.1099625 417.57642 0.54764992 0.78547442 0.28828844 0
32.568153 -1.5689163 423.65192 -0.93991268 -0.1087285 -0.32363895 0
39.105217 -2.9610825 417.96481 0.44525596 0.8555218 0.26425409 0
40.213799 -2.6685944 417.77859 0.48314214 0.83165479 0.27372381 0
31.86557 -2.3852577 422.74417 -0.93709493 0.21144551 -0.27774754 0
31.689507 -2.7916145 422.12921 -0.85839683 0.46582323 -0.21485609 0
36.04306 -3.6220284 418.68549 0.33704463 0.9112187 0.23681656 0
37.196106 -3.3595505 418.35297 0.37920195 0.89147812 0.24793825 0
31.876343 -3.3291779 421.32367 -0.66859519 0.7344169 -0.1166691 0
32.648827 -3.8005257 420.13556 -0.24161021 0.96880341 0.055174645 0
33.809929 -3.8934402 419.39566 0.16498458 0.96822649 0.18793142 0
35.224564 -3.7210312 418.90457 0.30785006 0.92352027 0.2287778 0
58.092651 23.131693 444.88898 -0.40528679 -0.87851554 -0.25289086 0
59.509071 23.241621 444.25806 0.091121979 -0.99013823 -0.10640984 0
60.411362 22.964478 443.27582 0.47207737 -0.88095236 0.032642178 0
61.074104 22.384195 442.04861 0.59482646 -0.79941505 0.084358037 0
56.441513 22.572229 444.78506 -0.82519281 -0.45556498 -0.3339428 0
57.090919 22.952036 444.93155 -0.67432654 -0.66810966 -0.31450567 0
61.385193 22.043642 441.39734 0.61822402 -0.78026474 0.094792254 0
61.767204 21.57699 440.44589 0.65036887 -0.75175911 0.10898566 0
62.099266 21.102526 439.57208 0.67908233 -0.72375357 0.12258606 0
55.436058 21.806269 444.14163 -0.9339931 -0.14496449 -0.32656109 0
62.336853 20.691271 438.81155 0.70248067 -0.69904548 0.13362592 0
62.619759 20.109259 437.85675 0.7315591 -0.66554469 0.14788797 0
54.553123 20.935343 443.34668 -0.93660718 -0.12863512 -0.32591406 0
62.785545 19.680206 437.02274 0.75408942 -0.63723612 0.15899302 0
62.942421 19.153877 436.11395 0.77855474 -0.60358024 0.17188013 0
53.708855 20.152702 442.57431 -0.93660724 -0.12863514 -0.32591408 0
63.067543 18.581871 435.24252 0.80087018 -0.56996512 0.1837012 0
63.128578 18.103851 434.46127 0.8195641 -0.53890121 0.19467759 0
52.861168 19.327103 441.80664 -0.93602353 -0.13268258 -0.32596841 0
63.144958 17.545883 433.52664 0.83993328 -0.50219065 0.20570846 0
63.141922 17.028381 432.76175 0.85628128 -0.46926612 0.21580334 0
51.851936 18.494473 441.07458 -0.85816884 -0.38880259 -0.33523005 0
63.082085 16.44257 431.90067 0.87287313 -0.43220961 0.22646573 0
29.473083 21.238468 457.29453 -0.08200258 -0.9832499 -0.16277419 0
30.315285 21.216446 456.80856 -0.010214955 -0.99003482 -0.14045256 0
31.572914 21.092499 455.97629 0.10787141 -0.98898137 -0.10138961 0
32.689224 20.917078 455.02524 0.21903443 -0.97369504 -0.062783159 0
33.723564 20.579403 454.0199 0.33110726 -0.94334149 -0.021783352 0
34.352959 20.27037 453.34924 0.34759396 -0.93748558 -0.017289467 0
48.620506 17.647881 441.54172 0.072441049 -0.99091977 -0.11327156 0
49.583885 17.696407 441.05527 -0.26079184 -0.9410134 -0.21559697 0
50.817101 17.959824 440.83942 -0.62471974 -0.71911812 -0.30429471 0
62.980827 15.807293 430.99637 0.88900363 -0.39174813 0.23707682 0
62.863632 15.356262 430.32983 0.89965636 -0.36136508 0.24501674 0
26.324165 20.942724 458.55051 -0.33877143 -0.91058993 -0.23677132 0
27.51609 21.101372 458.16516 -0.24566086 -0.94598937 -0.21155477 0
28.764786 21.174995 457.6745 -0.14629433 -0.97226697 -0.18247032 0
34.888565 20.165344 452.80316 0.18578771 -0.97963816 -0.076104946 0
35.818634 20.000589 452.03256 0.1621581 -0.98318654 -0.083957046 0
36.944199 19.81403 451.08652 0.1621581 -0.98318654 -0.083957046 0
38.074387 19.587086 450.17816 0.16215812 -0.9831866 -0.083957046 0
39.185013 19.390862 449.25742 0.16215812 -0.9831866 -0.083957046 0
40.34716 19.153759 448.32727 0.16215812 -0.9831866 -0.083957046 0
41.42791 19.000908 447.3913 0.16215812 -0.9831866 -0.083957046 0
42.588943 18.770676 446.45508 0.1621581 -0.98318654 -0.083957046 0
43.703545 18.563942 445.54135 0.16215812 -0.9831866 -0.083957046 0
44.864349 18.340115 444.59866 0.16215812 -0.9831866 -0.083957046 0
45.994606 18.146236 443.65552 0.16215812 -0.9831866 -0.083957046 0
47.076767 17.949108 442.76459 0.16215812 -0.98318666 -0.083957054 0
48.033112 17.762779 441.98996 0.15684201 -0.9839468 -0.085143171 0
62.62323 14.577007 429.27249 0.91523451 -0.31028375 0.25703958 0
24.348785 20.493296 458.97281 -0.48266351 -0.83202958 -0.27342892 0
25.455452 20.804159 458.74847 -0.4027378 -0.87939143 -0.25391662 0
62.390862 13.959633 428.45709 0.92552072 -0.26942575 0.26612151 0
62.200974 13.482346 427.89514 0.93175751 -0.24039976 0.27209452 0
22.434166 19.897118 459.11194 -0.60964662 -0.73334807 -0.30088598 0
23.410027 20.201418 459.09155 -0.54644501 -0.78644931 -0.2879166 0
61.812256 12.767933 426.94864 0.94022197 -0.19109561 0.28189489 0
20.533104 19.192772 458.94296 -0.72123325 -0.61352742 -0.32156998 0
21.339851 19.473587 459.07333 -0.67608953 -0.66653252 -0.31406689 0
61.301979 11.871029 425.90442 0.947083 -0.13295963 0.29215634 0
19.49617 18.623096 458.75702 -0.77888787 -0.53369743 -0.32939562 0
60.82663 11.197231 425.08197 0.95024705 -0.08608833 0.29936427 0
60.495285 10.769737 424.57129 0.95102763 -0.056012481 0.30398852 0
17.717415 17.638897 458.12405 -0.86398834 -0.3761878 -0.33467489 0
18.299408 18.015026 458.36047 -0.83679628 -0.433716 -0.33416006 0
60.035179 10.161335 423.93518 0.95077842 -0.016308039 0.30944198 0
17.000481 17.092789 457.76175 -0.8917734 -0.30451483 -0.33468089 0
59.288795 9.262722 423.02808 0.9476068 0.042890511 0.31654674 0
15.972923 16.330208 457.05515 -0.925686 -0.18559264 -0.32963771 0
58.475632 8.417984 422.17511 0.94115746 0.10085444 0.32256943 0
15.106735 15.452038 456.2739 -0.94537598 -0.066541836 -0.31911826 0
57.621758 7.6334724 421.39545 0.93183053 0.15673527 0.32730111 0
14.387344 14.643665 455.37759 -0.95095342 0.05244194 -0.30485609 0
56.67646 6.7981415 420.65439 0.91902465 0.2138344 0.33116278 0
13.737946 13.639484 454.22305 -0.94026452 0.19093698 -0.28186089 0
55.713425 6.0304146 419.99744 0.90392107 0.2678436 0.33344686 0
13.386719 12.853146 453.22794 -0.91874832 0.297223 -0.25992236 0
54.393623 5.0779915 419.22885 0.88027501 0.33596006 0.33503312 0
54.960297 5.4875603 419.53534 0.89084816 0.30783942 0.33410299 0
13.166931 12.156227 452.23788 -0.88788205 0.39450932 -0.23670092 0
13.08847 11.716042 451.53882 -0.86172956 0.4574205 -0.21951771 0
53.503387 4.4464607 418.80417 0.86242002 0.37926689 0.33524436 0
13.102951 11.092152 450.63586 -0.82114595 0.53648162 -0.19469534 0
13.188461 10.568775 449.78326 -0.77693248 0.60595483 -0.17086262 0
52.281601 3.6778412 418.29156 0.83659828 0.4339779 0.33431566 0
13.357025 10.088776 449.0094 -0.73246199 0.66443008 -0.14843008 0
13.650864 9.5366478 448.04544 -0.67096657 0.73192477 -0.118699 0
50.556465 2.7454872 417.68881 0.79706186 0.50505483 0.33107778 0
51.223167 3.0830841 417.90643 0.81244028 0.47899291 0.33242601 0
13.946182 9.1490631 447.31537 -0.61997652 0.77882898 -0.095152333 0
14.474091 8.6660919 446.25461 -0.53789544 0.84089613 -0.059680812 0
15.12059 8.2153053 445.23441 -0.45398766 0.89065194 -0.025179207 0
49.668602 2.2468491 417.46973 0.77460366 0.54033226 0.32868031 0
15.522476 8.0520287 444.60959 -0.39862704 0.91710424 -0.0039790645 0
16.157616 7.7375526 443.94427 -0.33064491 0.94348872 0.022423957 0
17.177032 7.4254379 442.9249 -0.21978393 0.97351408 0.062971577 0
18.312752 7.2306633 441.97595 -0.10757706 0.98897576 0.10175595 0
19.562828 7.1026192 441.14902 0.0099040568 0.99008727 0.14010537 0
20.852608 7.0340919 440.34946 -0.087881878 0.99023229 0.10824477 0
21.981964 6.8688431 439.41351 -0.16215812 0.9831866 0.083957046 0
23.100876 6.647747 438.51044 -0.1621581 0.98318654 0.083957046 0
24.221115 6.4419441 437.59 -0.16215812 0.9831866 0.083957046 0
25.337868 6.2703171 436.63721 -0.16215812 0.9831866 0.083957046 0
26.508598 5.9932404 435.74033 -0.16215812 0.9831866 0.083957046 0
27.628723 5.7686195 434.83975 -0.16215812 0.9831866 0.083957046 0
28.720833 5.6202736 433.88751 -0.16215812 0.9831866 0.083957046 0
29.892456 5.402298 432.9277 -0.16215812 0.9831866 0.083957046 0
31.020195 5.1793098 432.01767 -0.16215812 0.9831866 0.083957046 0
32.121033 4.9976807 431.09152 -0.16215812 0.9831866 0.083957046 0
33.282372 4.7756538 430.14642 -0.16215812 0.9831866 0.083957046 0
34.37764 4.5866089 429.22516 -0.19442417 0.97826302 0.072117463 0
35.375473 4.1490479 428.08817 -0.56421638 0.82255387 -0.071165256 0
35.689751 3.5957794 427.08395 -0.82654691 0.52684027 -0.19813851 0
47.674133 1.2952843 417.06381 0.72242105 0.61203378 0.32175016 0
48.428574 1.625103 417.20444 0.74277538 0.58562827 0.32453793 0
35.44236 2.9500427 426.12271 -0.94660306 0.13897476 -0.29091001 0
46.621536 0.84931946 416.92044 0.69394898 0.64647245 0.31703123 0
34.687691 2.047039 425.26593 -0.9373455 -0.12486254 -0.32525823 0
44.77404 0.081768036 416.79285 0.64054918 0.70375735 0.30728337 0
45.677437 0.36142731 416.87903 0.66717386 0.67589599 0.3131201 0
33.810478 1.2724876 424.45572 -0.93660724 -0.12863514 -0.32591408 0
42.769547 -0.63403702 416.7887 0.58026612 0.75912523 0.2949931 0
43.683784 -0.32163239 416.77237 0.60816252 0.73451042 0.30105388 0
32.941429 0.38506699 423.67688 -0.93660718 -0.12863512 -0.32591406 0
40.709534 -1.2772255 416.93774 0.51444781 0.8102594 0.280756 0
41.72316 -0.97717285 416.84857 0.5468924 0.78597999 0.28834876 0
32.094536 -0.42407608 422.90485 -0.93952411 -0.11130484 -0.32389146 0
38.628769 -1.8176079 417.23209 0.44486961 0.85565245 0.26448187 0
39.72744 -1.5084267 417.03421 0.48255017 0.8321836 0.27316022 0
31.417152 -1.2345276 422.03329 -0.93882805 0.20061055 -0.27992329 0
31.257713 -1.7186508 421.44269 -0.8614375 0.45871857 -0.21794999 0
35.589874 -2.4287453 417.91608 0.33844763 0.91068339 0.23687419 0
36.67247 -2.1902504 417.60965 0.37764576 0.89238864 0.24703604 0
37.721596 -1.9280853 417.33704 0.41571039 0.87253231 0.256657 0
31.424477 -2.2024155 420.63458 -0.6757769 0.72734475 -0.11955989 0
32.203148 -2.6740952 419.40045 -0.2341841 0.97046584 0.057913076 0
33.373062 -2.7552452 418.6611 0.16641673 0.96789289 0.18838614 0
34.769852 -2.5701675 418.16486 0.30806622 0.92348725 0.22862029 0
57.568573 24.302929 444.14258 -0.4217481 -0.8691144 -0.25839791 0
59.091225 24.392937 443.47748 0.11378163 -0.988635 -0.098258279 0
59.953217 24.096203 442.55762 0.47170693 -0.88114935 0.032680675 0
60.594513 23.547964 441.35242 0.59346014 -0.80048466 0.083837442 0
55.959106 23.685188 444.0531 -0.83134508 -0.44418308 -0.3340168 0
56.676918 24.000925 444.26218 -0.67389703 -0.66927743 -0.31293952 0
60.92202 23.183613 440.68887 0.61786216 -0.78055453 0.094764985 0
61.282784 22.759598 439.74762 0.64887595 -0.75313306 0.10839727 0
61.650131 22.215363 438.86685 0.67834795 -0.72449607 0.12226519 0
54.973145 22.955233 443.40466 -0.93378496 -0.1457915 -0.32678846 0
61.891251 21.80382 438.05521 0.70357847 -0.69781876 0.13425976 0
62.136887 21.308052 437.09958 0.73110098 -0.66616958 0.14733905 0
54.145683 22.131477 442.6615 -0.93660724 -0.12863514 -0.32591408 0
62.317223 20.844521 436.30338 0.75371742 -0.63772011 0.15881614 0
62.475731 20.316084 435.38971 0.77844882 -0.60380954 0.17155431 0
53.262878 21.273699 441.86163 -0.93660718 -0.12863512 -0.32591406 0
62.590599 19.787514 434.55829 0.79958361 -0.57193309 0.18318845 0
62.649185 19.320969 433.76093 0.81802976 -0.54188102 0.19285119 0
52.399704 20.436014 441.07935 -0.93590772 -0.13333282 -0.32603547 0
62.682426 18.674179 432.75974 0.84068537 -0.50072414 0.20621048 0
62.690994 18.135265 432.02917 0.85667121 -0.46842295 0.21608722 0
51.438164 19.655308 440.36673 -0.8660866 -0.37102023 -0.33502001 0
62.635117 17.579315 431.21567 0.87216854 -0.43380973 0.22612064 0
28.991257 22.395252 456.56085 -0.083126232 -0.98294085 -0.1640662 0
29.84742 22.340593 456.09924 -0.011959702 -0.98998678 -0.14065301 0
31.133278 22.219303 455.24155 0.10942125 -0.98887038 -0.10080858 0
32.219521 22.022942 454.34189 0.21618584 -0.97426212 -0.063850865 0
33.247185 21.738905 453.2919 0.32947639 -0.94389677 -0.022452518 0
33.893547 21.418283 452.60788 0.34498471 -0.93845063 -0.0171922 0
48.172913 18.76379 440.82516 0.073962256 -0.9908213 -0.11314999 0
49.140511 18.803848 440.34085 -0.26191077 -0.94048494 -0.21654412 0
50.364403 19.102772 440.11008 -0.62653023 -0.71742862 -0.30456001 0
62.507439 16.995129 430.25177 0.8887856 -0.39215615 0.23721984 0
62.419586 16.453106 429.61935 0.8998158 -0.36098579 0.24499017 0
25.844666 22.08794 457.81906 -0.34029013 -0.9098404 -0.23747353 0
27.046303 22.246677 457.43231 -0.24646045 -0.94574392 -0.21172172 0
28.293434 22.350906 456.92001 -0.14617836 -0.97222608 -0.18278068 0
34.385384 21.382507 452.03598 0.18548584 -0.97981447 -0.074556693 0
35.306686 21.195477 451.29767 0.16215812 -0.9831866 -0.083957046 0
36.456688 20.956194 450.38214 0.16215812 -0.9831866 -0.083957046 0
37.606461 20.73679 449.44598 0.16215812 -0.9831866 -0.083957046 0
38.721313 20.524351 448.53796 0.16215812 -0.9831866 -0.083957046 0
39.882118 20.319046 447.57584 0.1621581 -0.98318654 -0.083957046 0
41.010971 20.124649 446.63467 0.1621581 -0.98318654 -0.083957046 0
42.122116 19.90868 445.7341 0.1621581 -0.98318654 -0.083957046 0
43.240028 19.701454 444.8175 0.16215812 -0.9831866 -0.083957046 0
44.393654 19.458405 443.90228 0.1621581 -0.98318654 -0.083957046 0
45.51413 19.290043 442.94229 0.1621581 -0.98318654 -0.083957046 0
46.6791 19.069069 441.99237 0.16215812 -0.98318666 -0.083957054 0
47.590126 18.872272 441.27472 0.15622893 -0.98401159 -0.085521087 0
62.178772 15.668812 428.56018 0.91528535 -0.30989456 0.25732771 0
23.8274 21.678537 458.21289 -0.48530394 -0.83021879 -0.27425817 0
25.004372 21.952103 458.01208 -0.40242493 -0.87963647 -0.25356358 0
61.943611 15.055904 427.74115 0.92557377 -0.26873031 0.26663959 0
61.725716 14.636505 427.13318 0.93188661 -0.23970233 0.27226758 0
21.941933 21.065475 458.35809 -0.61072892 -0.73216343 -0.30157548 0
22.897835 21.378662 458.33267 -0.54777282 -0.78537112 -0.28833631 0
61.342392 13.870274 426.19025 0.94051743 -0.18926622 0.28214353 0
20.063828 20.278395 458.23495 -0.72253591 -0.61214697 -0.32127661 0
20.880234 20.65394 458.32126 -0.6749081 -0.66781908 -0.31387508 0
60.842194 13.017849 425.17374 0.94699049 -0.133249 0.2923241 0
18.925056 19.720215 457.9917 -0.78514224 -0.52425009 -0.32971799 0
60.372574 12.270287 424.35883 0.95020026 -0.084680788 0.29991406 0
60.027527 11.928345 423.82681 0.95110577 -0.056357041 0.30367994 0
17.239754 18.804241 457.37112 -0.86383778 -0.37594897 -0.33533147 0
17.853424 19.167809 457.63293 -0.83598208 -0.43505636 -0.33445543 0
59.561157 11.278042 423.18491 0.9507556 -0.01477848 0.30958912 0
16.50563 18.239635 456.99896 -0.89281905 -0.30164927 -0.33448806 0
58.810066 10.455273 422.26538 0.94760513 0.042911462 0.31654856 0
15.522438 17.411877 456.34589 -0.92636782 -0.18347277 -0.32890844 0
58.025017 9.5793228 421.45035 0.94130933 0.10016124 0.32234246 0
14.674278 16.636101 455.56827 -0.94485998 -0.071596079 -0.3195523 0
57.149689 8.7735596 420.65088 0.93178225 0.15743707 0.3271018 0
13.921188 15.791283 454.6347 -0.95104474 0.053019881 -0.30447084 0
56.247734 7.982563 419.94083 0.91966093 0.21155289 0.33086166 0
13.51001 15.254101 453.97928 -0.9475683 0.12816402 -0.292725 0
13.238541 14.788406 453.41437 -0.93962151 0.19516367 -0.28110904 0
55.226997 7.1779709 419.24118 0.90368485 0.26874161 0.33336464 0
12.920746 13.977882 452.47177 -0.91808647 0.29969293 -0.25942427 0
53.967804 6.2442474 418.51413 0.88101369 0.33420008 0.33485153 0
54.534668 6.575222 418.84793 0.89080846 0.30718231 0.33481282 0
12.723618 13.314854 451.57663 -0.89023781 0.38853636 -0.23773012 0
12.653763 12.800343 450.85516 -0.86197895 0.4571718 -0.21905634 0
53.056572 5.6056976 418.07529 0.86283571 0.37843055 0.33511993 0
12.640717 12.221786 449.85687 -0.81899548 0.53995061 -0.19416232 0
12.740341 11.679344 449.05746 -0.77659881 0.60636288 -0.17093211 0
51.839539 4.8232536 417.56882 0.83690572 0.43336287 0.33434415 0
12.906876 11.206573 448.2775 -0.73206329 0.66498274 -0.14792117 0
13.183868 10.706184 447.25562 -0.66894561 0.73384124 -0.11827208 0
50.124207 3.8930626 416.96878 0.79753536 0.50409323 0.33140296 0
50.798813 4.2318611 417.19122 0.81304896 0.47762397 0.33290744 0
13.480896 10.291267 446.61435 -0.62140948 0.77754414 -0.096306704 0
13.976379 9.8402557 445.58096 -0.54452068 0.83638763 -0.062869467 0
14.657593 9.3574905 444.50876 -0.45291579 0.89119041 -0.025426589 0
49.189629 3.3791962 416.73264 0.77420437 0.54091054 0.32866982 0
15.095108 9.1214256 443.91812 -0.39769325 0.91751236 -0.0032949746 0
15.693283 8.8972206 443.19406 -0.33069283 0.94348508 0.021866176 0
16.752892 8.583416 442.1315 -0.21485999 0.97453123 0.06421791 0
17.831665 8.3634605 441.27133 -0.11009237 0.98878509 0.10091476 0
19.090523 8.2673683 440.4057 0.01042904 0.99006569 0.14021914 0
20.361313 8.2069855 439.61938 -0.08546757 0.99032116 0.10935999 0
21.520302 7.9771461 438.71844 -0.16215812 0.9831866 0.083957046 0
22.623444 7.8076019 437.77728 -0.16215812 0.9831866 0.083957046 0
23.757782 7.582222 436.86307 -0.16215812 0.9831866 0.083957046 0
24.887932 7.3888435 435.91953 -0.16215812 0.9831866 0.083957046 0
26.009964 7.1754265 435.00522 -0.1621581 0.98318654 0.083957046 0
27.148911 6.9814949 434.05334 -0.16215812 0.9831866 0.083957046 0
28.291664 6.723217 433.16513 -0.16215812 0.9831866 0.083957046 0
29.399643 6.5417404 432.23157 -0.16215812 0.9831866 0.083957046 0
30.56189 6.3268127 431.27808 -0.16215812 0.9831866 0.083957046 0
31.68602 6.1249084 430.34958 -0.16215812 0.9831866 0.083957046 0
32.821381 5.893528 429.44064 -0.16215812 0.9831866 0.083957046 0
33.947525 5.6901093 428.50269 -0.19803093 0.97763813 0.070763662 0
34.895737 5.3098793 427.39343 -0.5502308 0.83246446 -0.065180823 0
35.234047 4.7137489 426.3284 -0.83209008 0.51649123 -0.20214449 0
47.224342 2.460331 416.32401 0.7226885 0.61191815 0.32136905 0
47.974014 2.7512474 416.48193 0.74280488 0.5855456 0.32461956 0
34.989616 4.0533142 425.40088 -0.94698226 0.13387212 -0.29206592 0
46.193504 1.9627838 416.2132 0.69453353 0.64581549 0.31709018 0
34.203232 3.2071877 424.50323 -0.93738127 -0.12474344 -0.32520071 0
44.342979 1.1734238 416.09534 0.64064586 0.70349991 0.30767107 0
45.198753 1.5499916 416.117 0.66682386 0.67666715 0.31219918 0
33.381554 2.3857002 423.76334 -0.93660724 -0.12863514 -0.32591408 0
42.288124 0.49185562 416.06232 0.57933599 0.75982606 0.29501694 0
43.23172 0.81017303 416.04727 0.60835075 0.73431337 0.30115438 0
32.477867 1.5953293 422.92715 -0.93660724 -0.12863514 -0.32591408 0
40.274261 -0.15423965 416.21906 0.51508504 0.80977368 0.28098887 0
41.25042 0.23115158 416.07532 0.54755646 0.78551251 0.28836221 0
31.642517 0.70940781 422.1828 -0.93967468 -0.11063357 -0.32368484 0
38.17981 -0.69944 416.51532 0.44501442 0.85572815 0.26399282 0
39.33667 -0.39550781 416.32245 0.4841117 0.83108211 0.27374998 0
30.938896 -0.11177444 421.26309 -0.93594539 0.21766649 -0.27681592 0
30.77684 -0.52970505 420.67221 -0.86049539 0.45956063 -0.2198889 0
35.132446 -1.3430557 417.22324 0.33749539 0.91101974 0.23693983 0
36.266998 -1.1062546 416.91125 0.37880212 0.89176238 0.24752679 0
37.276581 -0.84352875 416.64206 0.41530442 0.8726061 0.2570633 0
30.931664 -0.99300385 419.87869 -0.6822179 0.72055805 -0.12399364 0
31.820511 -1.5993156 418.65121 -0.20658901 0.97596991 0.069308221 0
32.89402 -1.6246147 417.9454 0.16184852 0.96890664 0.18715051 0
34.321373 -1.4493446 417.44583 0.30798596 0.92340374 0.22906491 0
57.155937 25.339451 443.36267 -0.51751608 -0.81960964 0.24580152 0
58.372292 25.390842 442.58661 -0.19233932 -0.71655852 0.6704852 0
59.437378 25.060799 441.70288 0.22485363 -0.78247845 0.58066213 0
60.156113 24.558962 440.71683 0.45651853 -0.79789126 0.39364967 0
55.554855 24.705832 443.35394 -0.88246596 -0.46560746 0.066815704 0
56.270638 24.92259 442.67923 -0.40481752 -0.22305305 0.88677585 0
57.357346 24.688145 441.66788 -0.30812258 -0.12931398 0.9425177 0
58.509323 24.486208 440.73959 -0.30793414 -0.12955879 0.94254565 0
59.779167 24.236395 439.85742 -0.12120143 -0.35102153 0.9284907 0
60.717346 23.77162 438.99619 0.35124183 -0.68645805 0.63671374 0
61.240929 23.219296 438.21555 0.60311764 -0.7272315 0.32769358 0
54.63308 23.978701 442.71359 -0.9758904 -0.18018168 0.12317932 0
55.387993 24.064137 441.77716 -0.31055284 -0.12956694 0.94168484 0
56.553055 23.872101 440.85693 -0.30812261 -0.12931398 0.94251776 0
57.642586 23.664597 439.95377 -0.30812258 -0.12931398 0.9425177 0
58.779678 23.451994 439.01724 -0.30812255 -0.12931396 0.94251764 0
59.910667 23.238308 438.08237 -0.30118492 -0.13684794 0.94369566 0
61.150139 22.901403 437.31061 0.26101086 -0.57919562 0.77227318 0
61.707771 22.317026 436.48013 0.5943861 -0.67559618 0.43620467 0
53.75338 23.175465 441.9151 -0.97168732 -0.18302731 0.1494168 0
54.517433 23.267202 441.03101 -0.31191838 -0.12992859 0.94118357 0
55.664467 23.02158 440.03882 -0.30812261 -0.12931398 0.94251776 0
56.778854 22.836115 439.15588 -0.30812258 -0.12931398 0.9425177 0
57.916534 22.612505 438.20224 -0.30812258 -0.12931398 0.9425177 0
59.030487 22.414455 437.30035 -0.30812258 -0.12931398 0.9425177 0
60.196075 22.205704 436.35437 -0.30766097 -0.12977207 0.9426055 0
61.471909 21.916157 435.56766 0.16155308 -0.46320498 0.87140244 0
62.026306 21.333748 434.72922 0.59142125 -0.60928947 0.52819204 0
52.888741 22.350531 441.11542 -0.96603549 -0.17424826 0.19082338 0
53.673241 22.437294 440.22046 -0.31157508 -0.12985486 0.94130754 0
54.798409 22.256489 439.33881 -0.30812258 -0.12931398 0.9425177 0
55.930992 22.013288 438.35806 -0.30812258 -0.12931398 0.9425177 0
57.015228 21.799942 437.44885 -0.30812261 -0.12931398 0.94251776 0
58.203705 21.627367 436.54565 -0.30812258 -0.12931398 0.9425177 0
59.349556 21.39006 435.5668 -0.30812258 -0.12931398 0.9425177 0
60.422157 21.175276 434.66165 -0.30812255 -0.12931396 0.94251764 0
61.769386 20.876009 433.82584 0.21891484 -0.44459584 0.86856842 0
62.211624 20.307468 433.08322 0.65579456 -0.54198724 0.52553099 0
51.994942 21.521893 440.29398 -0.96444875 -0.1771197 0.19613194 0
52.819748 21.629946 439.44925 -0.3108021 -0.12983833 0.94156528 0
53.923897 21.404722 438.51123 -0.30812255 -0.12931396 0.94251758 0
55.068893 21.206366 437.59216 -0.30812258 -0.12931398 0.9425177 0
56.165306 20.969284 436.6402 -0.30812258 -0.12931398 0.9425177 0
57.339294 20.775213 435.71204 -0.30812258 -0.12931398 0.9425177 0
58.440613 20.562708 434.79498 -0.30812258 -0.12931398 0.9425177 0
59.612389 20.383945 433.89133 -0.30812255 -0.12931396 0.94251764 0
60.686829 20.142288 432.94427 -0.30761114 -0.1297583 0.94262362 0
61.948547 19.766941 432.08926 0.2976895 -0.42017028 0.85722709 0
62.281639 19.144756 431.39673 0.75612074 -0.48710507 0.43704638 0
62.055626 18.643723 430.49762 0.54654247 -0.42977369 0.71873891 0
28.594955 23.34358 455.95999 -0.1654239 -0.98426157 0.062166452 0
29.46212 23.374346 455.36554 -0.12883472 -0.96094191 0.24493431 0
30.629211 23.269218 454.50623 -0.058800399 -0.92093718 0.38525015 0
31.736351 23.062769 453.59271 0.023833111 -0.90761912 0.41911823 0
32.787209 22.755247 452.63626 0.17489082 -0.91416711 0.36566636 0
33.470673 22.463955 451.93445 0.24701244 -0.94601446 0.20986006 0
47.806725 19.709362 440.2056 0.0075689182 -0.99815291 0.060280308 0
48.718681 19.842186 439.63037 -0.3572022 -0.91916388 0.16596784 0
49.955544 20.108042 438.96335 -0.57030511 -0.45700577 0.68256807 0
51.062782 19.974497 437.87167 -0.30812255 -0.12931396 0.94251764 0
52.162567 19.744751 436.92908 -0.30812258 -0.12931398 0.9425177 0
53.324211 19.536083 435.98535 -0.30812258 -0.12931398 0.9425177 0
54.470955 19.359158 435.09799 -0.30812255 -0.12931396 0.94251758 0
55.58065 19.130226 434.15131 -0.30812255 -0.12931396 0.94251764 0
56.709137 18.912663 433.21188 -0.30812258 -0.12931398 0.9425177 0
57.844833 18.725346 432.31464 -0.30812255 -0.12931396 0.94251764 0
58.955772 18.512409 431.39169 -0.30812258 -0.12931398 0.9425177 0
60.106567 18.295845 430.44177 -0.30812258 -0.12931398 0.9425177 0
61.434402 18.055305 429.56073 0.013151914 -0.25329345 0.96730047 0
61.961296 17.492882 428.9386 0.73251742 -0.38621217 0.56058711 0
25.481438 23.063066 457.16367 -0.42104614 -0.90447199 0.068203166 0
26.540695 23.255156 456.62173 -0.38817 -0.83098656 0.39848012 0
27.71817 23.291878 455.78577 -0.3359679 -0.59108824 0.73330855 0
28.721573 23.101637 454.67145 -0.3091282 -0.16154876 0.93719941 0
29.839928 22.890965 453.74799 -0.30773529 -0.13643026 0.94164056 0
31.008125 22.689867 452.81223 -0.30677196 -0.13645521 0.94195122 0
32.12381 22.482307 451.8949 -0.29648945 -0.16298492 0.94102669 0
33.517471 22.2826 451.14261 -0.16791433 -0.58882326 0.79062814 0
34.638885 22.092026 450.33035 -0.15182127 -0.69600791 0.70180064 0
35.750687 21.865665 449.35809 -0.15909217 -0.6616596 0.73273271 0
36.874481 21.647923 448.42581 -0.17116205 -0.65158892 0.73901039 0
37.997559 21.480246 447.54727 -0.15976113 -0.65579093 0.73784524 0
39.115379 21.240992 446.58817 -0.17371386 -0.64695215 0.74248058 0
40.253349 21.046736 445.69159 -0.15856436 -0.69874018 0.69758183 0
41.427246 20.844856 444.7131 -0.13957323 -0.76012218 0.63461351 0
42.48848 20.643442 443.79651 -0.12825997 -0.73822558 0.66224855 0
43.633522 20.457111 442.87173 -0.12572022 -0.7131635 0.68963265 0
44.788948 20.194378 441.93106 -0.14794548 -0.66618305 0.73096728 0
45.918159 19.99753 441.04507 -0.14964855 -0.69731355 0.70097089 0
46.914146 19.799305 440.12842 -0.19608977 -0.58821988 0.78456825 0
47.922195 19.545574 438.90915 -0.31235969 -0.17697714 0.93333364 0
49.064041 19.367733 438.02307 -0.30812258 -0.12931398 0.9425177 0
50.210007 19.138378 437.05624 -0.30812258 -0.12931398 0.9425177 0
51.333359 18.927792 436.13016 -0.30812258 -0.12931398 0.9425177 0
52.46106 18.737911 435.23334 -0.30812258 -0.12931398 0.9425177 0
53.60955 18.533546 434.30322 -0.30812255 -0.12931396 0.94251764 0
54.715759 18.316132 433.37598 -0.30812255 -0.12931396 0.94251764 0
55.833344 18.096386 432.43909 -0.30812258 -0.12931398 0.9425177 0
56.980919 17.878525 431.48889 -0.30812258 -0.12931398 0.9425177 0
58.100983 17.692917 430.60269 -0.30812258 -0.12931398 0.9425177 0
59.222969 17.466522 429.65326 -0.30812261 -0.12931398 0.94251776 0
60.34642 17.262428 428.73703 -0.30812258 -0.12931398 0.9425177 0
61.542267 16.809566 427.92569 0.53069669 -0.32298523 0.78360778 0
23.490334 22.679417 457.491 -0.56499279 -0.80541611 0.17913409 0
26.719368 22.504045 454.83875 -0.30812258 -0.12931398 0.9425177 0
27.881218 22.2885 453.88437 -0.30812258 -0.12931398 0.9425177 0
28.990677 22.072937 452.95819 -0.30812255 -0.12931396 0.94251764 0
30.135963 21.865026 452.02441 -0.30812255 -0.12931396 0.94251764 0
31.222801 21.659748 451.12613 -0.30812258 -0.12931398 0.9425177 0
32.374077 21.479229 450.2309 -0.30812258 -0.12931398 0.9425177 0
51.567535 17.890686 434.42291 -0.30812258 -0.12931398 0.9425177 0
52.722733 17.705219 433.51801 -0.30812255 -0.12931396 0.94251764 0
53.877533 17.505802 432.59204 -0.30812255 -0.12931396 0.94251764 0
54.970863 17.288837 431.67245 -0.30812258 -0.12931398 0.9425177 0
56.110085 17.091911 430.75864 -0.30812258 -0.12931398 0.9425177 0
57.254082 16.854153 429.78006 -0.30812258 -0.12931398 0.9425177 0
58.371124 16.651661 428.86975 -0.30812261 -0.12931398 0.94251776 0
59.499313 16.449654 427.95419 -0.30812258 -0.12931398 0.9425177 0
60.819359 16.180309 427.04959 0.017840087 -0.21119697 0.97728109 0
61.293144 15.645081 426.47614 0.73504961 -0.27159125 0.62124062 0
21.547241 22.087645 457.60739 -0.68468738 -0.7024405 0.1943751 0
22.481575 22.295795 456.9534 -0.43693537 -0.31831652 0.84128672 0
23.624031 22.11458 455.91202 -0.30812258 -0.12931398 0.9425177 0
24.764153 21.877346 454.93631 -0.30812258 -0.12931398 0.9425177 0
25.875099 21.677357 454.03305 -0.30812258 -0.12931398 0.9425177 0
26.9944 21.484896 453.13684 -0.30812261 -0.12931398 0.94251776 0
28.134338 21.280844 452.21179 -0.30812255 -0.12931396 0.94251764 0
29.251823 21.073793 451.29431 -0.30812258 -0.12931398 0.9425177 0
30.390915 20.844336 450.33102 -0.30812255 -0.12931396 0.94251764 0
31.544197 20.645451 449.40665 -0.30812261 -0.12931398 0.94251776 0
32.664963 20.436588 448.48465 -0.30812258 -0.12931398 0.9425177 0
33.782112 20.23527 447.57599 -0.31084588 -0.13291985 0.94112062 0
34.884926 20.053093 446.55191 -0.42347425 -0.32432583 0.84586257 0
36.033806 20.198263 445.83948 -0.48186398 -0.57896256 0.65773165 0
36.917412 20.380283 445.32642 -0.44992256 -0.729909 0.51459098 0
44.662788 18.9753 438.98245 0.21287325 -0.6482569 0.73105979 0
45.304131 18.479092 438.21906 0.10539985 -0.49995261 0.85961539 0
46.165009 17.982483 437.33517 -0.12969035 -0.27260759 0.95334482 0
47.34153 17.717476 436.43469 -0.30400157 -0.13265035 0.94339186 0
48.458015 17.508324 435.51468 -0.30812258 -0.12931398 0.9425177 0
49.579742 17.292248 434.58112 -0.30812255 -0.12931396 0.94251764 0
50.75309 17.085133 433.63342 -0.30812255 -0.12931396 0.94251764 0
51.884811 16.876518 432.70587 -0.30812258 -0.12931398 0.9425177 0
52.984039 16.675678 431.80768 -0.30812258 -0.12931398 0.9425177 0
54.118225 16.473618 430.88876 -0.30812258 -0.12931398 0.9425177 0
55.241623 16.240261 429.92798 -0.30812258 -0.12931398 0.9425177 0
56.356071 16.024254 428.99844 -0.30812258 -0.12931398 0.9425177 0
57.48761 15.827599 428.08923 -0.30812258 -0.12931398 0.9425177 0
59.730896 15.408081 426.24152 -0.30536753 -0.13002756 0.9433158 0
60.814217 14.987846 425.59143 0.60751796 -0.23187791 0.75970674 0
19.668106 21.332781 457.54385 -0.78763926 -0.61564946 0.024517536 0
20.512932 21.636988 457.13306 -0.5803448 -0.42517805 0.69456816 0
52.143509 15.843353 430.99142 -0.30812261 -0.12931398 0.94251776 0
53.266449 15.637463 430.07275 -0.30812258 -0.12931398 0.9425177 0
54.361816 15.42561 429.15982 -0.30812261 -0.12931398 0.94251776 0
55.526031 15.210011 428.20413 -0.30812258 -0.12931398 0.9425177 0
56.624847 15.009106 427.30606 -0.30812261 -0.12931398 0.94251776 0
57.762894 14.787727 426.35562 -0.30812255 -0.12931396 0.94251764 0
58.916977 14.587585 425.42892 -0.30812258 -0.12931398 0.9425177 0
60.154907 14.17585 424.57162 0.43029565 -0.17859809 0.88484371 0
18.652657 20.850889 457.15042 -0.79169971 -0.48792678 0.36761439 0
19.602325 20.857483 456.16144 -0.30911177 -0.13031772 0.94205528 0
20.763275 20.636412 455.19919 -0.30812255 -0.12931396 0.94251764 0
21.898735 20.44915 454.30212 -0.30812258 -0.12931398 0.9425177 0
23.036171 20.237616 453.36703 -0.30812258 -0.12931398 0.9425177 0
24.154449 20.034389 452.45496 -0.30812255 -0.12931396 0.94251764 0
25.30098 19.826218 451.52008 -0.30812258 -0.12931398 0.9425177 0
26.386269 19.628292 450.63382 -0.30812258 -0.12931398 0.9425177 0
27.547661 19.418583 449.68863 -0.30812261 -0.12931398 0.94251776 0
28.649956 19.211174 448.77878 -0.30812258 -0.12931398 0.9425177 0
29.819756 18.987862 447.80829 -0.30812261 -0.12931398 0.94251776 0
30.921638 18.780834 446.89093 -0.34083462 -0.15305391 0.92758149 0
31.889282 18.821323 446.05688 -0.61775267 -0.40134588 0.67624295 0
45.766953 16.273312 434.69061 0.1531616 -0.29832926 0.94209433 0
46.719795 15.870995 433.94397 -0.26665726 -0.14454903 0.95289063 0
47.868797 15.631081 432.97003 -0.30812255 -0.12931396 0.94251764 0
48.999664 15.449844 432.08466 -0.30812255 -0.12931396 0.94251764 0
50.112793 15.210644 431.12048 -0.30812255 -0.12931396 0.94251764 0
51.25563 15.012859 430.20343 -0.30812258 -0.12931398 0.9425177 0
45.831879 15.08894 433.10745 -0.092364505 -0.17438315 0.98033679 0
46.998154 14.827095 432.2132 -0.3080892 -0.12943779 0.94251156 0
48.133934 14.621284 431.28772 -0.30812255 -0.12931396 0.94251764 0
49.275658 14.401474 430.33774 -0.30812258 -0.12931398 0.9425177 0
50.373985 14.190231 429.42413 -0.30812261 -0.12931398 0.94251776 0
51.551926 13.998955 428.49808 -0.30812255 -0.12931396 0.94251764 0
52.670265 13.779675 427.56149 -0.30812258 -0.12931398 0.9425177 0
53.821594 13.561733 426.60919 -0.30812255 -0.12931396 0.94251764 0
54.922264 13.359509 425.70807 -0.30812258 -0.12931398 0.9425177 0
56.04615 13.159748 424.79825 -0.30812258 -0.12931398 0.9425177 0
57.15258 12.960346 423.89838 -0.30812258 -0.12931398 0.9425177 0
58.335602 12.747742 422.9371 -0.25199983 -0.13082691 0.95884383 0
59.157646 12.280437 422.57114 0.81691974 -0.054766335 0.5741452 0
16.132088 19.283356 456.32901 -0.94488358 -0.32732892 0.007168293 0
16.777534 19.423431 455.49649 -0.33637756 -0.13900003 0.93141299 0
17.903839 19.223076 454.58441 -0.30812258 -0.12931398 0.9425177 0
18.996849 19.01479 453.67822 -0.30812258 -0.12931398 0.9425177 0
20.163582 18.817284 452.74875 -0.30812258 -0.12931398 0.9425177 0
21.235458 18.585697 451.81842 -0.30812258 -0.12931398 0.9425177 0
22.372429 18.362572 450.86591 -0.30812255 -0.12931396 0.94251764 0
23.555725 18.191643 449.96802 -0.30812255 -0.12931396 0.94251758 0
24.637344 17.966431 449.04214 -0.30812255 -0.12931396 0.94251764 0
45.296982 13.182171 430.62125 -0.29819635 -0.12906535 0.94573897 0
46.397926 12.980217 429.72076 -0.30812261 -0.12931398 0.94251776 0
47.530533 12.750546 428.76062 -0.30812258 -0.12931398 0.9425177 0
48.683708 12.5653 427.85715 -0.30812258 -0.12931398 0.9425177 0
49.836174 12.372379 426.94235 -0.30812258 -0.12931398 0.9425177 0
50.904938 12.151581 426.03015 -0.30812255 -0.12931396 0.94251758 0
52.048447 11.927654 425.07288 -0.30812261 -0.12931398 0.94251776 0
53.162895 11.721066 424.15771 -0.30812258 -0.12931398 0.9425177 0
54.318008 11.49128 423.18527 -0.30812258 -0.12931398 0.9425177 0
55.42971 11.301758 422.29761 -0.30812261 -0.12931398 0.94251776 0
56.563896 11.10817 421.39163 -0.30240282 -0.12889515 0.94442558 0
57.563622 10.658142 420.84378 0.70914263 0.024248123 0.70464778 0
14.276688 17.693287 454.81888 -0.98437256 -0.1169359 0.1316705 0
15.043533 17.801685 453.95789 -0.31447533 -0.12978771 0.94035184 0
16.148293 17.552921 452.98367 -0.30812261 -0.12931398 0.94251776 0
17.32933 17.377941 452.08081 -0.30812258 -0.12931398 0.9425177 0
18.417656 17.166763 451.1727 -0.30812255 -0.12931396 0.94251758 0
23.193237 15.280529 445.72507 -0.30812258 -0.12931398 0.9425177 0
24.336105 15.091908 444.82199 -0.30812255 -0.12931396 0.94251764 0
25.462875 14.88068 443.8931 -0.31275842 -0.12943853 0.94097233 0
26.487549 14.790268 442.90952 -0.65564203 -0.086306691 0.75012392 0
42.426796 11.851669 429.85608 0.048026472 0.0053718537 0.99883199 0
43.523918 11.533363 429.06281 -0.30398378 -0.12821753 0.94401026 0
44.655914 11.348167 428.17078 -0.30812261 -0.12931398 0.94251776 0
45.788506 11.138535 427.24121 -0.30812255 -0.12931396 0.94251764 0
46.919891 10.91301 426.28806 -0.30812258 -0.12931398 0.9425177 0
48.072899 10.722347 425.37643 -0.30812255 -0.12931396 0.94251764 0
49.218712 10.511292 424.43753 -0.30812261 -0.12931398 0.94251776 0
50.324585 10.273682 423.47971 -0.30812261 -0.12931398 0.94251776 0
51.437393 10.067596 422.56619 -0.30812255 -0.12931396 0.94251758 0
52.587769 9.8765068 421.65527 -0.30812261 -0.12931398 0.94251776 0
53.722763 9.6514702 420.70093 -0.30812258 -0.12931398 0.9425177 0
54.831123 9.4518242 419.79965 -0.29581553 -0.12658654 0.94682103 0
55.744591 9.0485802 419.27969 0.6618067 0.10786361 0.7418741 0
13.125534 16.209084 453.35886 -0.99668169 0.08066944 -0.010867059 0
13.214249 16.026566 452.52359 -0.72599089 -0.030057203 0.68704796 0
14.448944 15.954857 451.46252 -0.30812261 -0.12931398 0.94251776 0
15.605476 15.751644 450.52982 -0.30812261 -0.12931398 0.94251776 0
19.207542 14.076824 446.0365 -0.30812258 -0.12931398 0.9425177 0
20.327827 13.862732 445.10675 -0.30812261 -0.12931398 0.94251776 0
21.429344 13.631725 444.16135 -0.30812261 -0.12931398 0.94251776 0
22.57206 13.431622 443.24078 -0.30812258 -0.12931398 0.9425177 0
23.714928 13.238747 442.33127 -0.30812258 -0.12931398 0.9425177 0
24.889526 13.042526 441.38867 -0.35219288 -0.11465118 0.92887914 0
25.730881 12.95665 440.40717 -0.70654851 0.07638067 0.70353115 0
39.602577 10.395767 429.05377 0.074363619 0.17149791 0.98237419 0
40.651985 10.105503 428.42337 -0.27327096 -0.10437641 0.95625812 0
41.800247 9.9106255 427.51715 -0.30812258 -0.12931398 0.9425177 0
42.930962 9.6883049 426.56921 -0.30812255 -0.12931396 0.94251764 0
44.056923 9.4771538 425.6409 -0.30812258 -0.12931398 0.9425177 0
45.20224 9.2658424 424.70193 -0.30812258 -0.12931398 0.9425177 0
46.363419 9.0628586 423.76706 -0.30812261 -0.12931398 0.94251776 0
47.48912 8.8695946 422.86618 -0.30812258 -0.12931398 0.9425177 0
48.625221 8.6519737 421.92252 -0.30812258 -0.12931398 0.9425177 0
49.73542 8.4369774 420.99683 -0.30812258 -0.12931398 0.9425177 0
50.87207 8.2344055 420.07584 -0.30812261 -0.12931398 0.94251776 0
51.963486 8.0261612 419.17056 -0.30812258 -0.12931398 0.9425177 0
53.250198 7.6214256 418.16089 0.13834575 0.03796915 0.98965621 0
54.128677 7.6437836 418.18719 0.76443839 0.27449587 0.58334053 0
12.323883 14.30867 450.84259 -0.94219112 0.32549623 0.079548568 0
12.590622 14.139618 449.96835 -0.69183612 0.10941024 0.71371782 0
13.806595 14.069408 448.93396 -0.30812255 -0.12931396 0.94251764 0
14.962967 13.880825 448.02368 -0.30812261 -0.12931398 0.94251776 0
16.105247 13.680782 447.10349 -0.30812255 -0.12931396 0.94251764 0
17.215553 13.463451 446.17419 -0.30812255 -0.12931396 0.94251764 0
18.352966 13.255524 445.24463 -0.30812261 -0.12931398 0.94251776 0
19.45285 13.024685 444.30035 -0.30812261 -0.12931398 0.94251776 0
20.621811 12.84045 443.38989 -0.30812258 -0.12931398 0.9425177 0
21.729477 12.619122 442.4559 -0.30812258 -0.12931398 0.9425177 0
22.873596 12.435013 441.55902 -0.30812255 -0.12931396 0.94251764 0
23.984962 12.201874 440.60504 -0.30881935 -0.1290715 0.94232279 0
34.412308 9.1308289 429.56982 -0.0050939918 0.52639312 0.8502264 0
35.442863 9.0924911 429.22549 -0.038138211 0.35944885 0.93238544 0
36.687813 8.9464912 428.67526 -0.18670873 0.054075487 0.98092639 0
37.822411 8.6575432 427.74884 -0.30586058 -0.12637815 0.94365191 0
38.932877 8.4502983 426.83505 -0.30812258 -0.12931398 0.9425177 0
40.116905 8.2571831 425.90295 -0.30812255 -0.12931396 0.94251764 0
41.219421 8.0726013 425.02777 -0.30812258 -0.12931398 0.9425177 0
42.341209 7.8333549 424.05887 -0.30812258 -0.12931398 0.9425177 0
43.483444 7.6258125 423.12729 -0.30812255 -0.12931396 0.94251764 0
44.627449 7.4318886 422.21552 -0.30812258 -0.12931398 0.9425177 0
45.743111 7.2000885 421.26126 -0.30812255 -0.12931396 0.94251764 0
46.839584 7.0134964 420.38626 -0.30812258 -0.12931398 0.9425177 0
48.011505 6.7904205 419.41501 -0.30812258 -0.12931398 0.9425177 0
49.127129 6.6040421 418.53 -0.30812258 -0.12931398 0.9425177 0
50.266937 6.3764877 417.56921 -0.30625555 -0.12831961 0.94326168 0
51.318558 6.0138397 416.95404 0.44933414 0.25950423 0.85484308 0
12.5439 12.311535 447.57101 -0.790609 0.53145111 0.30413282 0
13.138611 12.075214 446.53162 -0.58630425 0.23428686 0.7754727 0
14.387207 12.020164 445.49707 -0.30875948 -0.12844913 0.94242746 0
15.485252 11.824974 444.60812 -0.30812258 -0.12931398 0.9425177 0
16.61219 11.614231 443.6799 -0.30812258 -0.12931398 0.9425177 0
17.765541 11.391495 442.71915 -0.30812258 -0.12931398 0.9425177 0
18.891823 11.188751 441.8035 -0.30812258 -0.12931398 0.9425177 0
20.038658 10.969177 440.85107 -0.30812258 -0.12931398 0.9425177 0
21.119019 10.774952 439.97311 -0.30812255 -0.12931396 0.94251758 0
22.277794 10.584774 439.05911 -0.30812258 -0.12931398 0.9425177 0
23.42218 10.361671 438.10263 -0.30812258 -0.12931398 0.9425177 0
24.54908 10.135201 437.15042 -0.31049272 -0.12746011 0.94199216 0
25.675461 9.9709816 436.23782 -0.38493294 -0.031917106 0.92239302 0
13.104355 11.322624 445.87524 -0.68795919 0.6944437 0.21085477 0
13.682297 11.033821 444.88208 -0.61632836 0.5776093 0.53526342 0
14.532669 10.784889 443.84995 -0.49947041 0.37207341 0.78236276 0
20.26519 9.9463158 439.16965 -0.31915358 -0.0080102868 0.94766974 0
21.437851 9.7429161 438.228 -0.32743314 -0.00039598942 0.94487482 0
22.52536 9.5336418 437.32327 -0.32729822 -0.0027062979 0.94491774 0
23.667824 9.3353615 436.40567 -0.32839969 0.0037054906 0.94453216 0
27.067093 8.7041245 433.59631 -0.34956804 0.056119107 0.9352293 0
28.197029 8.5381622 432.6821 -0.35827681 0.13036993 0.92446876 0
29.323601 8.3279305 431.7236 -0.34743083 0.19763143 0.91664308 0
30.432205 8.1075058 430.82355 -0.32401147 0.15718046 0.93290502 0
31.589996 7.8814125 429.9075 -0.31445953 0.049770311 0.9479658 0
32.712845 7.6566849 428.97491 -0.32600993 0.0053696693 0.94535172 0
33.836006 7.4494019 428.05414 -0.3310875 -0.0076158177 0.9435699 0
34.953217 7.2201881 427.103 -0.3232708 -0.092513844 0.94177401 0
36.114609 7.0205421 426.17313 -0.30812258 -0.12931398 0.9425177 0
37.242561 6.8233032 425.26495 -0.30812261 -0.12931398 0.94251776 0
38.344635 6.6183624 424.35895 -0.30812258 -0.12931398 0.9425177 0
39.451103 6.3984756 423.42783 -0.30812258 -0.12931398 0.9425177 0
40.619751 6.1956139 422.48914 -0.30812261 -0.12931398 0.94251776 0
41.759613 5.9836311 421.55206 -0.30812255 -0.12931396 0.94251764 0
42.896088 5.7862434 420.63904 -0.30812258 -0.12931398 0.9425177 0
44.033379 5.6019974 419.74567 -0.30812255 -0.12931396 0.94251764 0
45.156219 5.3668671 418.78247 -0.30812258 -0.12931398 0.9425177 0
46.283058 5.1395149 417.82895 -0.30812258 -0.12931398 0.9425177 0
47.405823 4.9528084 416.93961 -0.30812255 -0.12931396 0.94251764 0
48.5811 4.5401344 416.15372 0.37851825 0.31891492 0.86891747 0
14.686844 10.103745 443.31683 -0.45986348 0.87149996 0.17033276 0
15.300514 9.9437256 442.54703 -0.41587606 0.844441 0.33758909 0
16.335022 9.6847649 441.53418 -0.34052116 0.79657882 0.49950743 0
17.490501 9.4776955 440.56473 -0.242424 0.80840689 0.53638512 0
18.707588 9.3131065 439.7532 -0.10015562 0.87445492 0.47465524 0
37.490639 5.7902374 423.55637 -0.30812255 -0.12931396 0.94251764 0
43.129784 4.7553101 418.9415 -0.30812255 -0.12931396 0.94251764 0
44.21743 4.5273628 418.00818 -0.30812258 -0.12931398 0.9425177 0
45.409325 4.3141479 417.04123 -0.30812255 -0.12931396 0.94251764 0
46.611824 3.970623 416.06345 -0.048896849 0.091981143 0.99455982 0
47.580856 3.8618965 415.83289 0.54755598 0.48512283 0.68179089 0
34.659073 5.1409607 424.68564 -0.97067064 0.054729529 0.23410171 0
38.907692 4.5567436 420.91263 -0.30812258 -0.12931398 0.9425177 0
40.004906 4.3468437 420.00174 -0.30812255 -0.12931396 0.94251758 0
45.656647 3.1093483 415.61765 0.38196841 0.44326565 0.81093532 0
38.000473 3.7397804 420.1557 -0.30812255 -0.12931396 0.94251764 0
39.166512 3.5361671 419.21729 -0.30812255 -0.12931396 0.94251764 0
40.258789 3.2809029 418.23987 -0.30812255 -0.12931396 0.94251764 0
41.412292 3.0954666 417.33591 -0.30812261 -0.12931398 0.94251776 0
42.54808 2.9103508 416.44199 -0.30766568 -0.12880534 0.94273657 0
43.772858 2.4799118 415.55664 0.1973455 0.3802883 0.90356857 0
44.805893 2.5357361 415.49625 0.55665469 0.62445349 0.54789948 0
32.981819 3.4319763 422.99066 -0.96601433 -0.17156319 0.19334692 0
33.770607 3.5544891 422.15131 -0.3122392 -0.13009436 0.9410544 0
34.924789 3.3093376 421.15598 -0.30812258 -0.12931398 0.9425177 0
37.163635 2.9236488 419.36218 -0.30812255 -0.12931396 0.94251764 0
38.269768 2.6899414 418.41016 -0.30812261 -0.12931398 0.94251776 0
39.422722 2.4820671 417.47229 -0.30812255 -0.12931396 0.94251764 0
40.545166 2.2790184 416.5582 -0.30812258 -0.12931398 0.9425177 0
41.75132 1.8679771 415.61978 0.051246166 0.29755577 0.95332837 0
42.796814 1.8300667 415.4176 0.47374707 0.64009631 0.60484773 0
32.125473 2.6106339 422.21613 -0.96745777 -0.17724386 0.18058428 0
32.916374 2.693882 421.29929 -0.31137091 -0.12977763 0.94138575 0
33.990303 2.4889755 420.40857 -0.30812261 -0.12931398 0.94251776 0
35.184158 2.3012657 419.4794 -0.30812258 -0.12931398 0.9425177 0
36.275276 2.0715332 418.5415 -0.30812258 -0.12931398 0.9425177 0
37.427559 1.8631134 417.60318 -0.30812255 -0.12931396 0.94251758 0
38.567482 1.6738815 416.70074 -0.30797198 -0.12909773 0.9425965 0
39.749046 1.2603111 415.76614 0.024204135 0.34363425 0.93879199 0
40.843796 1.2042351 415.48145 0.43150401 0.69136029 0.57950473 0
31.243477 1.7817917 421.40222 -0.96830285 -0.16569266 0.18691221 0
32.011314 1.8924065 420.56485 -0.31192425 -0.12995802 0.94117755 0
32.649513 -0.42787552 417.29684 -0.012516469 0.7287643 0.68465054 0
33.88266 -0.35148621 416.79352 0.14377338 0.78530705 0.60218138 0
37.713028 20.75663 444.51001 -0.33860469 -0.91816843 0.20570457 0
38.603081 20.968925 443.90558 -0.21896294 -0.96876407 0.11641339 0
43.144493 20.147137 440.16479 0.32833058 -0.89648515 0.2975117 0
43.837242 19.632328 439.46979 0.35728368 -0.82690299 0.43425742 0
34.874329 19.971556 445.58151 -0.58880234 -0.71149218 0.38352567 0
35.620773 20.542061 444.93021 -0.50113237 -0.86357814 0.055678129 0
36.888786 20.882689 444.48294 -0.36763495 -0.9298715 0.013577983 0
33.751205 20.01038 445.15521 -0.65416783 -0.75559181 0.033858851 0
31.908058 19.252499 445.07071 -0.78686291 -0.6166712 0.023758203 0
32.622345 19.777115 444.95279 -0.71938163 -0.68632549 -0.10699673 0
44.742958 17.537796 435.02853 0.77222645 -0.48478359 0.41067088 0
44.818748 16.902111 434.45325 0.74262083 -0.41075739 0.52895397 0
30.066452 17.876839 445.05615 -0.83936489 -0.39730307 0.37096906 0
30.68222 18.726131 444.70184 -0.85993856 -0.50819129 -0.047414884 0
44.522156 16.148281 433.36572 0.79389739 -0.2818577 0.5387789 0
44.762909 15.15519 432.98022 0.4980759 -0.21220312 0.84076774 0
29.271942 17.473541 444.43073 -0.92181826 -0.33784828 0.1900278 0
44.183731 14.731266 432.25705 0.64771783 -0.12848186 0.75096869 0
28.400253 17.10593 443.59647 -0.97283709 -0.23098928 -0.015240729 0
28.708839 17.906799 443.50085 -0.93232077 -0.27596182 -0.23371655 0
43.403748 15.173439 431.53778 0.91062236 -0.026966706 0.4123587 0
43.321663 14.341469 431.33447 0.80034864 0.013546303 0.59938163 0
27.56749 16.347168 442.8298 -0.99538797 -0.095491372 -0.0091930926 0
27.152527 16.424767 442.08493 -0.97802973 -0.0048702508 -0.20840865 0
41.805412 13.72694 430.06717 0.86911523 0.24509546 0.42961252 0
42.502724 13.569489 430.58884 0.77913189 0.14612186 0.60959148 0
26.972107 15.25946 442.34637 -0.970397 -0.0080423579 0.24138248 0
26.527962 14.517597 441.82092 -0.91091883 0.03500127 0.4110992 0
26.084152 13.730843 439.75616 -0.94217068 0.32146481 0.094734639 0
