# .PCD v0.7 - Point Cloud Data file format
VERSION 0.7
FIELDS x y z normal_x normal_y normal_z curvature
SIZE 4 4 4 4 4 4 4
TYPE F F F F F F F
COUNT 1 1 1 1 1 1 1
WIDTH 623
HEIGHT 1
VIEWPOINT 0 0 0 1 0 0 0
POINTS 623
DATA ascii
-103.68964 67.885124 640.41315 -0.67884582 0.14676076 -0.71946478 0.014223394
-103.01314 67.746315 639.92731 -0.71245223 0.16350096 -0.68240696 0.022310819
-84.431587 67.798302 639.99518 0.6320678 -0.53281581 -0.56267005 0.012852007
-83.671051 67.884628 640.62762 0.62537146 -0.55174738 -0.55180192 0.018589243
-103.70506 69.025986 640.34552 -0.66296571 0.12861089 -0.73751992 0.0082269581
-84.352356 68.6073 639.85828 0.61696976 -0.56821519 -0.54449964 0.016137967
-83.518791 69.016586 640.23352 0.59386098 -0.58848965 -0.54864293 0.01278521
-82.632401 69.503448 640.75153 0.56475759 -0.60204333 -0.56444013 0.0072161932
-104.593 70.115448 640.73401 -0.64754254 0.10370557 -0.75493968 0.013786271
-103.81917 70.172195 640.21466 -0.6672051 0.11610855 -0.73576909 0.015071653
-103.063 70.240448 639.802 -0.68162376 0.12842935 -0.72034359 0.013643822
-83.157677 69.947815 639.9574 0.57507575 -0.61393178 -0.54071766 0.009416596
-82.559975 70.264084 640.3587 0.56179738 -0.61759788 -0.55041492 0.0054620588
-81.588303 70.6399 640.66101 0.55262059 -0.62534571 -0.55095679 0.0038046127
-103.61656 71.310883 640.13452 -0.66482377 0.10832663 -0.73910391 0.016479263
-102.93191 71.51738 639.7511 -0.67728764 0.11185786 -0.72716516 0.016212318
-82.07106 71.148941 640.06653 0.56364554 -0.63649869 -0.52647227 0.0074009378
-81.171341 71.512985 640.26141 0.55651647 -0.63668662 -0.53377855 0.0048771114
-79.684036 71.887589 640.1178 0.56027359 -0.63918501 -0.5268169 0.0057886606
-78.564301 71.976723 640.3468 0.56174898 -0.6377573 -0.52697605 0.0066057579
-77.921097 71.7883 640.72601 0.56591278 -0.64356846 -0.51532757 0.010332966
-103.6443 72.503342 640.52924 -0.65673214 0.09803699 -0.74772441 0.017478919
-102.78278 72.737152 640.01587 -0.66592348 0.099789299 -0.73931581 0.016013749
-78.053253 72.271751 639.91846 0.56873018 -0.63969368 -0.51704729 0.0082537131
-77.399567 72.516296 640.11353 0.57215947 -0.63615143 -0.51763391 0.0088178916
-76.443382 72.781845 640.47748 0.57622892 -0.62655222 -0.52477854 0.0093568787
-103.43484 73.473534 640.6463 -0.64435381 0.10203366 -0.75789005 0.012811133
-102.53466 73.813599 640.28705 -0.65043616 0.10536481 -0.75221741 0.011781501
-101.53713 74.018654 639.89105 -0.65776384 0.10781223 -0.7454685 0.0069899759
-77.126297 73.292297 639.83301 0.5781517 -0.62302935 -0.52685386 0.0071056853
-76.147858 73.728661 640.10919 0.59031492 -0.60772151 -0.53122765 0.0090402057
-75.396973 74.080902 640.48499 0.601318 -0.59378761 -0.53463346 0.011074948
-102.6285 74.656746 640.62518 -0.63925415 0.11714544 -0.76002043 0.01085421
-101.24337 74.911461 640.16925 -0.65430242 0.13093047 -0.74481249 0.018613864
-100.34002 74.986633 640.06647 -0.65441954 0.14409636 -0.74227434 0.013626607
-75.811867 74.497368 639.69897 0.60680145 -0.58792162 -0.53492075 0.010404823
-75.098335 74.985855 640.22888 0.61910802 -0.56750029 -0.54281557 0.0099815009
-74.248299 75.339699 640.71552 0.62638754 -0.5325737 -0.56921351 0.0026157447
-102.1475 76.284546 640.47351 -0.61398751 0.16116874 -0.77268618 0.0052319085
-101.2308 75.7864 640.35498 -0.63214105 0.16349721 -0.75740761 0.017073328
-74.64167 76.106468 640.13892 0.6361683 -0.51951218 -0.57043576 0.0021807544
-74.027122 76.397491 640.28082 0.65382135 -0.50361925 -0.56469923 0.0048493347
-74.584999 77.163002 639.63898 0.64452004 -0.48412353 -0.59179252 0
-73.683784 77.366432 640.25555 0.66907597 -0.47471136 -0.57182729 0.0033705446
-72.867905 77.97245 640.66901 0.68236035 -0.4524588 -0.57416493 0.0023395114
-73.446922 78.316879 639.95349 0.68442667 -0.45086676 -0.57295668 0.002696164
-72.757629 78.67495 640.19586 0.68915981 -0.43925181 -0.57629555 0.0021023792
-72.429405 79.667511 640.04437 0.70459068 -0.42521539 -0.56810552 0.0057760808
-71.846344 79.872772 640.49988 0.70834076 -0.42437398 -0.56405681 0.0076589212
-72.082924 80.616035 639.78699 0.69731009 -0.42028674 -0.58061832 0.0014718977
-71.477234 80.978462 640.21613 0.70274854 -0.4174116 -0.57611799 0.0014650461
-70.5793 81.303146 640.71002 0.69230533 -0.42231947 -0.58511502 0
-71.195816 82.038841 640.04706 0.70806557 -0.41220403 -0.57335067 0.0023353226
-70.431709 82.292343 640.45117 0.69890231 -0.41633645 -0.58154935 0.00071545801
-69.988335 83.339348 640.185 0.69796342 -0.41352808 -0.58467221 0.00015325675
-69.34687 83.853096 640.61469 0.69222087 -0.41474599 -0.59060645 0.0001732692
-69.750908 84.519348 640.02789 0.70748651 -0.40216872 -0.5811395 0.0013295232
-69.450455 84.457321 640.43323 0.708534 -0.40056312 -0.58097225 0.00028307646
-101.718 85.963501 639.83899 0.89960128 -0.41654792 0.13116948 0.030086245
-69.745239 85.308472 640.03699 0.72096097 -0.39137602 -0.57187426 0.0057911337
-101.1825 86.454102 640.08099 0.84243816 -0.5335027 -0.075318791 0.03223823
-100.3116 86.893158 639.94458 -0.64755487 0.70495069 -0.28933924 0.0055898302
-99.20858 87.349388 639.93964 -0.64518183 0.70505953 -0.29433221 0.006009453
-98.734421 88.339401 640.13263 -0.62725234 0.71221519 -0.31512544 0.0063208588
-98.181099 88.728851 639.96851 -0.62908226 0.70860541 -0.31958395 0.0068507297
-96.975304 89.9263 640.33899 -0.62285727 0.70709389 -0.33476412 0.0059545604
-98.450798 39.5033 641.55103 0.58219165 -0.50958872 -0.63353944 0.031814225
-98.031532 39.519436 641.82001 0.59788835 -0.5054909 -0.62210006 0.031551395
-98.773621 39.852623 641.25037 0.5597713 -0.54482824 -0.62435436 0.048574734
-97.759331 40.130852 641.31091 0.59385014 -0.50478065 -0.62652898 0.031767391
-96.945198 40.508579 641.73053 0.61986989 -0.4747051 -0.62483311 0.016251806
-97.37735 40.97855 641.28552 0.60149592 -0.49391207 -0.62789619 0.02845829
-96.659584 41.364128 641.42609 0.61669737 -0.47424147 -0.62831479 0.015786262
-96.189384 42.519424 641.086 0.6189422 -0.46845281 -0.63044637 0.012676563
-95.647354 42.686569 641.64215 0.63639295 -0.45774963 -0.62086165 0.0052163368
-96.069351 43.711502 640.96802 0.61525947 -0.45976511 -0.64036852 0.0082744807
-95.265289 43.722137 641.38043 0.64195722 -0.45796666 -0.61494505 0.0062216991
-94.785133 44.098465 641.61133 0.66102701 -0.46225023 -0.59107363 0.010184158
-95.025925 44.623798 640.89978 0.64520979 -0.46023837 -0.6098237 0.009894792
-94.252426 45.061153 641.42157 0.67868084 -0.45836386 -0.57384229 0.01315577
-93.446404 45.494999 641.88599 0.69660425 -0.4410857 -0.56584984 0.0062408466
-94.048706 45.993042 641.276 0.68769485 -0.45416129 -0.56640393 0.013825016
-93.367615 46.31715 641.59894 0.70140302 -0.44144228 -0.55960923 0.009144959
-93.810799 46.825699 641.211 0.70161825 -0.44836289 -0.55380732 0.014970922
-93.060295 47.356842 641.44714 0.70791668 -0.43677121 -0.55505407 0.011230966
-92.30555 47.681099 641.93298 0.71921647 -0.43707567 -0.54008567 0.01537306
-92.710831 48.480225 641.19916 0.71043509 -0.42668071 -0.5596655 0.0086212261
-91.973175 48.754128 641.63635 0.70810097 -0.42277393 -0.56555742 0.0040906691
-91.741219 49.747162 641.35193 0.69996554 -0.41511369 -0.58114451 0.0017575661
-91.116516 49.841198 641.64178 0.68955451 -0.41327226 -0.59474421 0
-91.355469 50.860474 641.08447 0.70861638 -0.40030819 -0.58104748 0.0032722689
-90.759827 50.991169 641.50488 0.70996231 -0.39906895 -0.58025634 0.0025370389
-90.350204 52.106071 641.24023 0.72365922 -0.37459975 -0.57964855 0.006037503
-89.751053 52.384766 641.5401 0.73200577 -0.36674422 -0.57416576 0.0072206161
-90.319748 53.107353 640.84753 0.73974013 -0.35273123 -0.57303154 0.013950339
-89.347954 53.525089 641.36987 0.73536479 -0.33859888 -0.58701742 0.0054683704
-88.600296 53.865547 641.70703 0.73206782 -0.3279267 -0.59711045 0
-89.21666 54.487026 641.06213 0.7152164 -0.31899673 -0.6218574 0.00024093683
-88.531258 54.800724 641.58051 0.74556333 -0.31461492 -0.58749706 0.0036363057
-88.940598 55.284302 640.823 0.7488969 -0.30806026 -0.58673024 0.0073924153
-88.11377 55.717785 641.42493 0.76219654 -0.30682296 -0.57001412 0.010702857
-87.352501 56.286701 641.81201 0.76301128 -0.30232272 -0.57132727 0.0079316869
-87.814438 56.749462 641.18597 0.74714613 -0.29595923 -0.59513086 0.0031389128
-87.14872 57.05904 641.63464 0.76349616 -0.29681557 -0.57356262 0.0087632509
-87.795532 58.343296 640.81836 0.73608834 -0.29047203 -0.61139184 0.00093764852
-87.074768 58.171967 641.36884 0.73846358 -0.29225919 -0.60766453 0.001963937
-87.823204 59.527981 641.00592 0.74717921 -0.2975724 -0.59428442 0.0067229141
-87.115448 59.389965 641.55487 0.74106193 -0.29656333 -0.60239297 0.0029722438
-86.342903 59.289299 641.97198 0.75520909 -0.30171758 -0.58191556 0.0093290014
-87.813599 60.449348 641.13513 0.73955679 -0.30218041 -0.60145056 0.0075849872
-87.141411 60.721493 641.64984 0.72975516 -0.30061707 -0.61407381 0.0013755962
-87.618202 61.284901 641.16699 0.72589225 -0.303123 -0.61741143 0
-87.067078 61.74757 641.40997 0.74018216 -0.31083146 -0.59625018 0.0057522128
-86.251595 61.997517 641.83063 0.73798752 -0.31484395 -0.59686494 0.0056898743
-102.158 63.4007 641.40997 -0.75495553 0.16127665 -0.63563508 0.014085519
-101.898 63.382301 641.22803 -0.75786406 0.16292191 -0.63174254 0.01348937
-86.573212 62.817062 641.28851 0.74622542 -0.32971743 -0.57830268 0.012472868
-85.925392 63.03093 641.61487 0.73757339 -0.3337532 -0.58702153 0.008424026
-102.58118 64.289032 641.29828 -0.73670131 0.16220777 -0.65647525 0.017215131
-101.834 63.800999 640.815 -0.75279212 0.16700955 -0.63671964 0.01282907
-85.54586 64.124672 641.21838 0.71955842 -0.35749555 -0.59534234 0.0056514391
-84.818718 64.240097 641.66364 0.71691209 -0.36513978 -0.59389389 0.0061873291
-103.59307 65.544479 641.30945 -0.69173574 0.14752296 -0.70692194 0.012951637
-103.004 64.9627 640.92499 -0.72733933 0.16682264 -0.66569352 0.019190231
-85.396339 65.126198 641.01801 0.70391321 -0.38245419 -0.59852731 0.0035443176
-84.565483 65.424164 641.41962 0.67738408 -0.4016479 -0.61630338 0.0011912369
-104.581 67.031197 641.63733 -0.64694113 0.095077366 -0.75658935 0.0062628165
-104.07959 66.611343 641.29541 -0.65853304 0.13192675 -0.74089777 0.0078660566
-84.427681 66.305855 641.13782 0.65917355 -0.44717407 -0.60458702 0.003527107
-83.568398 66.60511 641.4765 0.63443512 -0.48016343 -0.60575175 0.0060391813
-104.72269 67.877914 641.55316 -0.64165956 0.095441237 -0.76102823 0.0058262339
-104.13126 67.511429 641.10651 -0.64317405 0.12250071 -0.75585759 0.00077343354
-83.25824 67.759331 641.24554 0.61650616 -0.54768038 -0.56565577 0.016938053
-82.661873 67.729294 641.89551 0.5967555 -0.54971302 -0.58454984 0.014379668
-105.70625 69.095451 641.91748 -0.63100618 0.09027385 -0.77050751 0.0043720091
-104.97623 68.992516 641.50555 -0.63665438 0.097473375 -0.7649641 0.0062055481
-104.3295 68.983246 640.8938 -0.6414392 0.10636432 -0.75976473 0.0050402237
-82.955948 68.783737 641.26337 0.5856142 -0.58049655 -0.56575596 0.013164807
-82.380249 69.01767 641.57959 0.57061708 -0.59054619 -0.57065874 0.011691345
-105.6915 70.062721 641.81604 -0.63853359 0.093039691 -0.76394922 0.011354394
-105.08401 70.190147 641.41168 -0.64564663 0.096272714 -0.75754333 0.015592639
-81.997826 70.06131 641.22321 0.55132383 -0.60906512 -0.57015932 0.0034635095
-81.250221 70.469261 641.62463 0.54450762 -0.61549634 -0.56980312 0.0029650677
-105.82857 71.24054 641.83453 -0.62611067 0.097641274 -0.77359664 0.0013898023
-104.95337 71.427887 641.40564 -0.64196563 0.097288489 -0.76053607 0.013077658
-104.15633 71.622299 640.86005 -0.6508323 0.099226035 -0.75270951 0.015579899
-81.7453 70.905952 640.98853 0.54363489 -0.61837894 -0.56751084 0.00017238202
-80.81691 71.307442 641.25818 0.5439015 -0.62125677 -0.56410193 0.00087911746
-79.975838 71.667572 641.43878 0.54995239 -0.63137496 -0.54673386 0.0040046051
-78.748878 71.828117 641.47876 0.55574274 -0.6366297 -0.53465188 0.0070308866
-77.746002 71.838402 641.177 0.57126331 -0.65124184 -0.49954212 0.015005424
-76.451202 71.915703 641.89099 0.56817657 -0.6368863 -0.52110595 0.010982555
-104.88162 72.57782 641.44727 -0.63349861 0.10174952 -0.76702452 0.0074485284
-104.1575 72.644386 641.09149 -0.64512444 0.099850155 -0.75752521 0.014108079
-77.095596 72.16465 641.0235 0.56590623 -0.63590145 -0.52476615 0.0081698988
-76.121948 72.559875 641.26312 0.57686889 -0.63124353 -0.51841486 0.012057402
-75.337051 72.771828 641.63342 0.58267015 -0.62115252 -0.52408499 0.012747915
-104.74886 73.700089 641.64783 -0.62788469 0.11262003 -0.7701152 0.0060727797
-103.85089 73.814117 641.15979 -0.64064568 0.10678645 -0.76037472 0.012833187
-103.008 74.261398 640.84302 -0.63903695 0.11042875 -0.76120782 0.011416748
-75.693497 73.227898 641.30499 0.58739287 -0.61908716 -0.52124918 0.013387654
-74.956802 73.739983 641.29382 0.59931809 -0.5979805 -0.53220028 0.012730743
-74.277382 74.030464 641.64569 0.6098305 -0.57964104 -0.54048419 0.012079413
-103.72661 74.834618 641.51062 -0.63366884 0.12633207 -0.76321954 0.013221353
-102.55588 75.234871 641.13849 -0.62431335 0.13540207 -0.76934987 0.0067998315
-101.77267 75.314598 641.02338 -0.62729925 0.14396515 -0.76535589 0.0093876747
-74.598518 74.94474 641.01569 0.62236047 -0.56360358 -0.54315597 0.011826891
-73.926956 75.093849 641.45068 0.63143873 -0.54621297 -0.55039668 0.011108743
-103.493 75.73156 641.935 -0.62487066 0.15027852 -0.7661286 0.012758489
-102.74924 76.135559 641.65967 -0.6230557 0.16088961 -0.76545155 0.013315799
-101.86367 75.889641 641.34894 -0.61171824 0.16601139 -0.77346045 0.0069009191
-73.643929 76.075027 641.22607 0.65001476 -0.51289195 -0.56073403 0.0084039699
-73.00695 76.383934 641.68744 0.66284406 -0.49504182 -0.56175745 0.011180275
-103.425 77.041298 641.97699 -0.61774558 0.17814192 -0.76593471 0.01309505
-73.481552 77.097504 641.02246 0.66818684 -0.48218951 -0.56658602 0.0061701639
-72.790878 77.431381 641.44476 0.68148792 -0.46806043 -0.56257761 0.0098686805
-71.862854 77.781555 641.95648 0.69286215 -0.44747549 -0.56542706 0.010066293
-72.327843 78.440903 641.22351 0.69457835 -0.44437519 -0.56576633 0.0079380721
-71.684143 78.67308 641.55829 0.69862121 -0.4335109 -0.56920695 0.0065537146
-71.278831 79.832428 641.36041 0.70724326 -0.42244515 -0.56687486 0.0064910785
-70.562523 80.01799 641.82758 0.70506418 -0.41867992 -0.57235622 0.0037178732
-71.046585 80.903252 640.99255 0.70394647 -0.41880751 -0.57363713 0.0019193597
-70.240051 81.036026 641.60358 0.70586705 -0.4158065 -0.57346028 0.0035097417
-69.550201 81.325798 641.815 0.70418304 -0.41425762 -0.57664287 0.000561052
-70.004227 82.035164 641.26337 0.69134468 -0.4216643 -0.58672118 4.9764189e-05
-69.387978 82.366333 641.6333 0.67994916 -0.42755592 -0.59570551 3.1993266e-05
-69.849861 82.912003 641.02563 0.69196755 -0.42011836 -0.58709574 0
-69.124733 83.286804 641.44141 0.67838192 -0.42850813 -0.59680724 0
-69.126923 84.416618 641.41168 0.71163416 -0.40105742 -0.57682735 0.0014768488
-69.383751 85.512947 641.29199 0.73295242 -0.38404536 -0.56150693 0.0091563947
-98.926697 88.653999 641.07898 -0.62252647 0.71152478 -0.32587302 0.0057799029
-98.676697 89.084 641.6955 -0.62959754 0.70861697 -0.3185418 0.0071574859
-97.875679 89.566353 641.50995 -0.62627715 0.70793265 -0.32650939 0.0065817386
-97.536781 39.398468 642.35547 0.62115753 -0.49980694 -0.60361934 0.027503729
-96.752678 39.507843 642.72314 0.63993967 -0.46193168 -0.61408168 0.0089540249
-97.495697 39.764801 642.07996 0.61605167 -0.49499485 -0.61274827 0.026566919
-96.625282 40.180473 642.49194 0.63371384 -0.45832929 -0.62317008 0.0068485001
-95.807999 40.379253 643.00482 0.63712484 -0.44087106 -0.632222 0
-96.210526 41.216187 642.32623 0.63516539 -0.45276326 -0.62575579 0.0039366367
-95.567688 41.521065 642.60632 0.64810038 -0.44747695 -0.61622256 0.0020737303
-94.743797 41.885799 642.92102 0.66435516 -0.43829361 -0.60541803 0
-95.171753 42.4865 642.48071 0.65552992 -0.44800648 -0.60792327 0.0018215436
-94.521721 42.784069 642.96899 0.67953461 -0.44900328 -0.58019716 0.0067156111
-94.8787 43.222801 642.25598 0.6627118 -0.45316252 -0.59620208 0.0059105386
-94.275673 43.796455 642.56097 0.68147731 -0.45127749 -0.57613999 0.0079740053
-93.371765 43.960236 642.97803 0.69296771 -0.4333528 -0.57619542 0.001925907
-93.969643 44.744431 642.32422 0.68906415 -0.4471252 -0.57032412 0.0072622099
-93.232025 45.075672 642.79608 0.69822305 -0.43559623 -0.56810248 0.004210352
-92.805717 46.202431 642.625 0.70200461 -0.43371341 -0.56487358 0.0055486085
-91.99807 46.647869 643.01703 0.69658476 -0.42367086 -0.57902741 0
-92.505829 47.150322 642.53174 0.70951015 -0.43230939 -0.55651051 0.0073132534
-91.898521 47.452587 642.78577 0.70731682 -0.42635509 -0.56384772 0.0032556828
-91.082497 47.647499 643.05499 0.71515691 -0.43004048 -0.55101347 0.0071161296
-91.644943 48.501633 642.47638 0.70854807 -0.42371371 -0.56429273 0.0026607863
-90.817596 48.722679 642.96307 0.70262939 -0.4226158 -0.57245767 0.0014576572
-91.3293 49.320198 642.336 0.70145142 -0.41848409 -0.57692027 0.00018152293
-90.592499 49.836761 642.58313 0.68842834 -0.41586787 -0.59423923 0.00023480038
-89.921097 50.172699 642.96698 0.70598066 -0.41233408 -0.57582289 0
-90.226372 51.019947 642.29315 0.70413202 -0.40011564 -0.58660519 0.00053817785
-89.541954 51.211185 642.81982 0.70632458 -0.39392579 -0.58815652 0.00031911518
-90.050102 51.725201 642.22198 0.72393745 -0.38545951 -0.57213253 0.003481199
-89.298767 52.190998 642.448 0.72296226 -0.36967117 -0.58366829 0.0013763189
-88.714943 52.421761 642.89044 0.73795491 -0.36096722 -0.57019752 0.0031754612
-89.201332 53.100567 642.17719 0.73982531 -0.34881657 -0.57531351 0.0045190044
-88.312241 53.39698 642.72955 0.74148071 -0.33970699 -0.57862383 0.0019534705
-88.071594 54.505013 642.48187 0.74801219 -0.32055071 -0.58114111 0.0015761561
-87.327461 54.740513 642.80371 0.74998301 -0.31681153 -0.58065128 0.00068418193
-87.037468 55.81683 642.65057 0.75961316 -0.30644032 -0.57365674 0.0046470226
-86.1717 56.314167 643.02368 0.76270151 -0.30216447 -0.57182437 0.0047654668
-86.631607 56.851654 642.43555 0.76827925 -0.30002716 -0.56544739 0.010283069
-86.065681 57.092415 642.79657 0.76427764 -0.29749876 -0.57216626 0.0068844934
-86.585342 58.006844 642.32257 0.7649188 -0.29701197 -0.57156193 0.0102648
-86.122742 58.18922 642.53094 0.76175022 -0.29820749 -0.57515985 0.0093464619
-86.679077 59.402798 642.29071 0.75066131 -0.30011213 -0.58859181 0.0067498623
-86.10331 59.375492 642.68402 0.74565315 -0.29942274 -0.59527081 0.0044043059
-86.657433 60.520287 642.45111 0.73337513 -0.30037278 -0.6098665 0.0024587486
-86.059807 60.499489 642.79291 0.72563136 -0.2997283 -0.61937237 0.00031893869
-86.582596 61.708801 642.01251 0.74268013 -0.31052691 -0.59329528 0.007094733
-85.847755 61.771778 642.73407 0.72847533 -0.30979946 -0.611022 0.0018509271
-85.48465 62.900242 642.55957 0.73271567 -0.32918406 -0.595622 0.0049915831
-84.681358 63.228821 642.7984 0.73719734 -0.34295842 -0.58216798 0.0099595916
-84.369522 64.12384 642.39948 0.71688217 -0.3636364 -0.59485173 0.0068082209
-83.605652 64.283463 642.84247 0.69270128 -0.37122563 -0.61834985 0.0027737718
-104.679 65.838799 642.72498 -0.66891736 0.022647895 -0.74299175 0.0069610043
-104.2075 65.622704 642.3092 -0.66870499 0.054894149 -0.74149865 0.0071612196
-84.180328 65.278801 642.091 0.66043848 -0.39508736 -0.63853508 0
-83.43129 65.407684 642.59235 0.65005648 -0.41168246 -0.63870513 0
-82.6763 65.821854 642.92749 0.62995297 -0.44506139 -0.63645864 0
-105.663 66.7994 643.08502 -0.6481269 0.040764417 -0.76044059 0
-105.03581 66.586288 642.73914 -0.64909661 0.04813024 -0.75918186 0.0010194221
-104.13 66.242897 642.18201 -0.65631902 0.075690232 -0.75067735 0.0080881463
-83.031578 66.458748 642.39655 0.62046963 -0.4713071 -0.62680691 0.0009353754
-82.422546 66.702324 642.64661 0.59842962 -0.49696019 -0.62842065 0.0036318705
-105.96667 67.974754 642.9278 -0.63303894 0.07127995 -0.77083129 0.00036903028
-105.29817 67.698563 642.36395 -0.63592649 0.077512696 -0.76784718 0.0015938147
-82.136948 67.822594 642.51801 0.57842749 -0.55292344 -0.59974766 0.012077261
-81.444504 67.690903 643.19397 0.56757337 -0.55497283 -0.60816592 0.013248673
-107.051 69.336899 643.07098 -0.62939227 0.08063031 -0.77289343 0
-106.29581 69.122253 642.69434 -0.62783092 0.08467979 -0.77372968 0.00027459938
-81.898865 68.890587 642.36969 0.5627048 -0.58652049 -0.58254349 0.011502109
-81.257729 69.178169 642.6814 0.5440771 -0.58831966 -0.59821409 0.0056602028
-106.9355 70.258102 643.06104 -0.62513709 0.092573881 -0.77500558 0.00055484561
-106.267 70.210213 642.50775 -0.62691659 0.093462028 -0.77346009 0.0016655762
-80.95253 70.108917 642.50629 0.53629184 -0.60275996 -0.59082282 0.0021089113
-80.026878 70.5597 642.89099 0.53235823 -0.60996211 -0.58697611 0.0020088884
-106.845 71.426201 643.198 -0.61807215 0.10613599 -0.77892363 0.00034319246
-106.21886 71.402779 642.40204 -0.62213653 0.10082707 -0.77638912 4.9418963e-05
-80.54335 70.8302 642.40851 0.53370374 -0.61185932 -0.58377087 0.00054087571
-79.868454 71.222885 642.53619 0.53594691 -0.61674017 -0.57653493 0.0011700557
-78.674881 71.602318 642.75861 0.55021882 -0.6340661 -0.54334092 0.0058299941
-77.2425 71.939507 642.08966 0.57062089 -0.64950258 -0.50253177 0.014659665
-76.382851 71.959396 642.28247 0.57068866 -0.64340383 -0.51024109 0.013555311
-74.671303 71.971497 642.42102 0.578794 -0.63723767 -0.50884742 0.016804723
-106.24628 72.525764 642.47296 -0.61761761 0.11098034 -0.77860898 8.2735787e-05
-105.517 72.91703 642.12433 -0.61985064 0.11040505 -0.7769143 0.00071686733
-76.07135 72.220703 642.56702 0.57182956 -0.63980532 -0.5134784 0.013502128
-74.899017 72.557747 642.47058 0.58281362 -0.62365216 -0.52094752 0.014712308
-73.967232 72.897087 642.84351 0.59517354 -0.60091686 -0.53354228 0.01569422
-106.839 74.186897 643.13202 -0.60868555 0.13943411 -0.78106344 0
-106.15327 73.739616 642.73541 -0.61257857 0.12927763 -0.77976584 0
-105.36736 73.95417 642.22424 -0.61664867 0.12565041 -0.77714622 0.00079909025
-74.638763 73.625633 642.12067 0.60037214 -0.59733891 -0.5317325 0.014507159
-73.764984 73.794479 642.61951 0.61173785 -0.57642376 -0.54176795 0.014650345
-73.14315 74.123306 643.138 0.62235308 -0.54962522 -0.55730498 0.01103672
-106.81934 74.63353 643.00604 -0.60662431 0.14578421 -0.78150749 0
-106.04272 74.883614 643.00397 -0.60616189 0.14802907 -0.78144425 0
-105.02424 75.004501 642.44611 -0.60996974 0.14464557 -0.77911144 0.000806792
-104.225 75.30632 642.09387 -0.62033355 0.14187723 -0.7713995 0.0063190982
-73.550774 74.891167 642.37195 0.63108253 -0.5470047 -0.55001885 0.013702574
-72.81424 75.087997 642.76807 0.64298499 -0.52680033 -0.5559243 0.014180608
-104.79021 76.065628 642.88751 -0.60223407 0.16607106 -0.780855 0
-103.83458 76.278763 642.49066 -0.60898507 0.17022868 -0.77469957 0.0051295822
-102.975 76.588203 642.047 -0.62489563 0.17105915 -0.76173764 0.017446699
-73.252502 75.610001 642.05603 0.64332473 -0.51968259 -0.56219512 0.010490505
-72.529907 76.208611 642.47687 0.66359121 -0.49239632 -0.56319863 0.012593353
-71.803947 76.408524 642.99225 0.67682713 -0.47350258 -0.56364906 0.012714998
-104.511 76.933502 642.987 -0.59348553 0.18766375 -0.78266042 0
-103.88515 77.072815 642.78455 -0.6004321 0.18846849 -0.7771492 0.0039175744
-72.268265 77.333221 642.15485 0.6849314 -0.46431884 -0.56149542 0.012520024
-71.506859 77.451576 642.72797 0.69177914 -0.45145804 -0.56358427 0.011345536
-71.070847 78.632568 642.46167 0.702501 -0.43034333 -0.56683058 0.0075108842
-70.42012 78.889709 642.78308 0.71339911 -0.42366293 -0.55818588 0.011017377
-71.082901 79.302246 642.17151 0.70619893 -0.42474765 -0.56645614 0.0078032138
-70.176079 79.719955 642.60791 0.71277845 -0.41890234 -0.56255454 0.0081555741
-69.27552 80.061676 643.12677 0.71472025 -0.41399762 -0.56372046 0.0081085535
-69.816666 80.734116 642.3927 0.70795244 -0.41576287 -0.57091558 0.0036332128
-69.155785 81.091072 642.6991 0.70617753 -0.41403243 -0.57436079 0.0021126673
-69.824203 81.6073 642.216 0.70603234 -0.41405368 -0.57452416 0.0019213874
-68.934723 82.158096 642.50592 0.69210929 -0.42081842 -0.58642697 0.0010158557
-68.315201 82.187401 643.17902 0.71851826 -0.40796849 -0.56328791 0.0076932516
-68.538177 83.228027 642.66296 0.6901263 -0.41970882 -0.58955091 0.00034135918
-69.0242 84.371902 642.24048 0.71466219 -0.40195706 -0.57244074 0.0023008487
-98.439201 89.526398 642.39697 -0.62727094 0.7086792 -0.32296288 0.0069520748
-98.221802 89.768204 642.48199 -0.62522125 0.70791566 -0.3285633 0.0063772011
-96.418503 39.3815 643.35199 0.64647824 -0.44811898 -0.61745876 0.0040262104
-95.66703 39.403999 643.73303 0.66467553 -0.43602407 -0.60670382 0
-96.173599 40.066002 643.25 0.63408726 -0.4395358 -0.63619298 0
-95.372116 40.216492 643.83069 0.65558118 -0.43349168 -0.61830276 0
-94.538933 40.351734 644.16467 0.67474234 -0.43074918 -0.59931451 0
-95.094032 41.297047 643.60858 0.66602755 -0.43653738 -0.6048491 0
-94.42028 41.470592 644.05261 0.68730056 -0.4361515 -0.58085275 0.0015583144
-94.810898 42.145699 643.37402 0.67482322 -0.43768799 -0.59417409 0
-94.10173 42.559994 643.72931 0.69335866 -0.44588917 -0.56607133 0.0075162598
-93.346832 42.866837 644.23535 0.70318931 -0.44604382 -0.55368739 0.0095398836
-93.706734 43.684433 643.43365 0.69648379 -0.44179356 -0.5654456 0.0070411586
-93.103233 43.78566 644.01544 0.70105124 -0.43571764 -0.56451517 0.0047585405
-92.391899 44.272099 644.18402 0.705724 -0.43363467 -0.56028092 0.003896395
-92.799614 44.831017 643.68512 0.69972104 -0.43073416 -0.56996369 0.0027238124
-92.154846 45.144814 644.13281 0.69919437 -0.425459 -0.57455355 0.00050384912
-92.534698 45.726952 643.552 0.69219553 -0.42356896 -0.58434123 0
-91.885033 46.203659 643.84839 0.69511956 -0.42247075 -0.58165908 9.9341458e-05
-90.914597 46.587852 644.33203 0.70737922 -0.42441225 -0.56523347 0.0017121753
-91.563271 47.290646 643.52087 0.70899081 -0.42649835 -0.56163263 0.0031756114
-90.855247 47.491821 643.90015 0.71614254 -0.42976496 -0.5499472 0.0069775302
-91.3442 48.124401 643.26801 0.71071023 -0.42642328 -0.55951256 0.0030808423
-90.435097 48.535206 643.69177 0.71180135 -0.42626148 -0.55824715 0.00572452
-89.763817 48.835186 644.06305 0.71490228 -0.42565101 -0.55473942 0.0081713833
-90.278076 49.462925 643.46552 0.71569461 -0.42287263 -0.55584174 0.0069133355
-89.590988 49.844105 643.74066 0.71710587 -0.41771287 -0.55792034 0.0055991001
-88.732498 49.820301 644.39099 0.71575588 -0.4129501 -0.56317466 0.0028336991
-89.258102 50.830734 643.58502 0.71737349 -0.40016645 -0.5703001 0.0028539405
-88.54895 51.09882 644.21686 0.71981853 -0.3909623 -0.57359374 0.0022896412
-88.846901 51.827801 643.52002 0.74444228 -0.37932238 -0.54947263 0.01094426
-88.209679 52.221199 643.85754 0.74123073 -0.36589569 -0.5627588 0.0059917965
-87.549301 52.569153 644.15454 0.74769634 -0.35589555 -0.56061447 0.0049759611
-87.823601 53.332439 643.61523 0.75569636 -0.34275147 -0.55807209 0.0064106034
-87.236572 53.601383 643.99451 0.75255066 -0.33639634 -0.56613165 0.0028582283
-86.958763 54.539871 643.63049 0.75005972 -0.32146159 -0.57799041 0.00032278089
-86.262184 54.806583 644.1286 0.76286727 -0.31836158 -0.56274277 0.0021374768
-86.637222 55.559181 643.52136 0.76916188 -0.31121108 -0.5581556 0.0064537944
-85.902679 55.795765 643.89642 0.7747888 -0.30938292 -0.55134785 0.0081060613
-85.578316 56.884872 643.75922 0.77303553 -0.30074951 -0.55853891 0.0088117169
-85.666809 58.027035 643.61505 0.76671124 -0.29902509 -0.56810021 0.0087839207
-85.560699 59.645569 643.80365 0.72828835 -0.29830879 -0.61693436 0.0011423781
-85.1045 59.006401 643.93402 0.74617571 -0.29872006 -0.59496909 0.0031163152
-85.562538 60.603329 643.73212 0.70636863 -0.2995353 -0.64134389 0
-84.886047 60.974098 644.00549 0.68545592 -0.30155489 -0.6627329 0
-85.432854 61.463017 643.47662 0.72431648 -0.30610362 -0.61779135 0.00038101661
-84.722557 61.857452 643.99585 0.72836083 -0.31478304 -0.60860676 0.0033234647
-85.368301 62.4035 643.26801 0.73901683 -0.32083786 -0.59238273 0.0071709836
-84.494583 62.786968 643.55243 0.74635226 -0.33644411 -0.57425058 0.012614019
-83.631851 63.220898 643.94177 0.74757862 -0.35162362 -0.56345975 0.0170315
-83.19825 64.088615 643.71667 0.70130098 -0.36863855 -0.61014962 0.0049809734
-82.547539 64.306015 644.19238 0.69385707 -0.38125259 -0.61090815 0.0059583019
-105.14751 65.916 643.474 -0.66602254 -0.0014206177 -0.74593025 0
-82.924034 65.175468 643.36633 0.64349699 -0.40352738 -0.65044391 0
-82.677864 65.146431 643.84698 0.65203291 -0.40662652 -0.63992798 0.00074067333
-81.5755 65.724503 644.25403 0.60011292 -0.45611215 -0.65713489 0
-106.08649 66.827316 643.9043 -0.6566484 0.018630562 -0.75396669 0.00045165417
-105.441 66.31543 643.61432 -0.66035718 0.010534979 -0.7508778 0
-81.919334 66.725845 643.51337 0.58419174 -0.50021106 -0.63914704 0.0044398569
-81.404236 66.665939 643.98425 0.58137953 -0.50861961 -0.63506216 0.0078166416
-107.01333 68.077431 644.25031 -0.63898003 0.051032484 -0.76752859 0
-106.47477 67.673347 643.79486 -0.64102805 0.047293078 -0.76605898 0
-81.684837 68.006294 643.26605 0.5663864 -0.55831063 -0.60621417 0.013072088
-81.093765 67.804977 643.92072 0.560076 -0.55518645 -0.61488444 0.013964077
-107.17843 69.008812 643.95581 -0.63236529 0.073661752 -0.77116024 0.00052626332
-106.65566 68.687805 643.47803 -0.63324153 0.072790384 -0.77052361 0
-81.693604 68.627701 643.328 0.55451345 -0.57072794 -0.60562742 0.010741783
-80.807129 68.920265 643.81055 0.53374428 -0.57439727 -0.62063259 0.0052597639
-80.128304 69.358803 643.72101 0.52840549 -0.58780169 -0.61259836 0.0028547624
-107.40495 70.210976 643.73175 -0.62636757 0.089431867 -0.7743808 0.00086635601
-80.520523 69.809998 643.62128 0.52847356 -0.59177685 -0.60870016 0.0021880167
-79.845818 70.183838 643.8877 0.53015023 -0.60316718 -0.59592789 0.0043227086
-79.003227 70.707703 643.94421 0.5308916 -0.60790092 -0.59043252 0.0011289259
-108.202 71.561501 644.39899 -0.62911308 0.10180391 -0.77061844 0.0060369796
-107.4004 71.433662 643.59058 -0.62246174 0.10442363 -0.77565271 0.002092656
-79.392197 71.0467 643.34851 0.53414583 -0.61609381 -0.57889259 0.0016257751
-78.645103 71.333015 643.60486 0.54422677 -0.62740266 -0.55694085 0.00481488
-77.59568 71.664406 643.75079 0.56045169 -0.64763123 -0.51620507 0.011928504
-73.944298 71.928902 644.117 0.57759982 -0.61535013 -0.53639799 0.012599986
-108.25729 72.620773 644.12811 -0.62050486 0.12069751 -0.77485865 0.0042737974
-107.47208 72.653076 643.64575 -0.62085122 0.12085278 -0.77455693 0.0048634429
-73.715935 72.638847 643.72876 0.59286392 -0.5984208 -0.53889233 0.014738616
-72.974274 72.80307 644.20923 0.60379922 -0.57060951 -0.55662489 0.011201942
-108.22233 73.780785 644.26752 -0.61173427 0.14354044 -0.77793145 0.0034763413
-107.42175 73.777267 643.74371 -0.61205751 0.13895324 -0.77850991 0.002977934
-106.6265 74.084106 643.24451 -0.60761982 0.13942924 -0.78189373 0
-73.351624 73.698952 643.45526 0.6149323 -0.56748629 -0.54755598 0.013929458
-72.807236 73.826706 643.7981 0.62698209 -0.56135523 -0.54016089 0.018709989
-108.166 74.537399 644.151 -0.60344064 0.15831025 -0.78153527 0.00067862851
-107.36001 74.931274 643.8233 -0.60460842 0.15718031 -0.78086042 0.0012193632
-106.28783 75.167328 643.33148 -0.60501462 0.15449151 -0.78108239 0
-72.334114 74.889748 643.79761 0.64846045 -0.52690804 -0.54942423 0.018747382
-71.772026 75.190636 644.12616 0.65712088 -0.49939486 -0.56462109 0.014061156
-107.1922 75.988152 644.12335 -0.59429806 0.18159103 -0.783476 0.00030784711
-106.2571 76.143982 643.71436 -0.59984297 0.17489901 -0.78076804 0.00058289367
-105.27654 76.521255 643.56482 -0.59937364 0.18073539 -0.77979869 0.0011500028
-72.066498 76.040619 643.38599 0.66311669 -0.48559344 -0.56962729 0.010170152
-71.329933 76.199631 643.83441 0.6769191 -0.46588308 -0.5698539 0.010324872
-70.565872 76.505653 644.31952 0.69032443 -0.44891432 -0.5673871 0.010266712
-107.054 76.875397 644.39801 -0.58713287 0.20754674 -0.78243178 0.0022835538
-106.14941 77.058708 644.17169 -0.59187371 0.20390473 -0.77981305 0.002885639
-105.0226 77.403343 643.94781 -0.58728921 0.21475771 -0.78036565 0.0016727082
-104.29875 77.392548 643.45227 -0.59029275 0.20760575 -0.78003478 0.0024825726
-71.035942 77.237228 643.51013 0.68968731 -0.4466413 -0.56994992 0.0077791279
-70.386345 77.518829 643.9856 0.69852436 -0.43707576 -0.56659383 0.0082912659
-69.588997 77.9505 644.34802 0.70601892 -0.42647466 -0.56538188 0.00646991
-104.991 78.137001 644.03168 -0.5804798 0.23802814 -0.77870774 0.0028832343
-70.851601 78.047897 643.22302 0.70069414 -0.43714994 -0.56385076 0.009698269
-70.129456 78.471107 643.72205 0.7115705 -0.42491412 -0.55956715 0.01095931
-69.345505 78.771736 644.0274 0.71632403 -0.41920298 -0.55780709 0.011216006
-69.827972 79.644836 643.33539 0.7200473 -0.41592377 -0.55546308 0.012722934
-69.038864 79.759346 643.88049 0.71636897 -0.41442263 -0.56131029 0.0091642775
-68.398056 80.097107 643.9845 0.70925987 -0.4139792 -0.57058889 0.0047448715
-68.705719 80.837563 643.68665 0.71087533 -0.41205394 -0.56997174 0.0046839844
-68.138367 81.128632 644.0979 0.71242768 -0.40961507 -0.56979156 0.0046344982
-68.469368 81.742668 643.91266 0.71352792 -0.40943426 -0.56854331 0.004793508
-68.112579 82.263542 643.77972 0.7103371 -0.41030288 -0.57190275 0.0031787292
-68.330154 83.011452 643.31049 0.69234759 -0.41847277 -0.5878225 0
-127.375 85.421997 644.06799 nan nan nan nan
-127.121 86.098503 643.94397 nan nan nan nan
-98.977554 89.586044 643.64899 -0.63089174 0.70901424 -0.31507847 0.0074000694
-94.970802 39.4496 644.492 0.66897428 -0.42563754 -0.60934895 0
-94.778503 39.465599 644.758 0.66725463 -0.4231348 -0.61296672 0
-95.123329 39.756634 644.47797 0.67061943 -0.4296872 -0.60468042 0
-94.334381 40.181602 644.95508 0.67913228 -0.42550799 -0.59809881 0
-93.966125 41.290741 644.85638 0.69206047 -0.43275315 -0.57773429 0.0026806297
-93.403328 41.560612 645.04816 0.69986778 -0.43943742 -0.56309831 0.0056136241
-93.642593 42.126499 644.867 0.70312119 -0.4485105 -0.55177796 0.01080662
-92.934547 42.573227 645.18396 0.70589852 -0.44460949 -0.55138874 0.0095057944
-92.081902 43.190498 645.26501 0.70502514 -0.43536371 -0.55981976 0.0054457858
-92.686508 43.760002 644.79443 0.70482504 -0.43508309 -0.56028944 0.0049786242
-91.997795 43.956413 645.27533 0.69736421 -0.42584449 -0.57648909 0.0014103049
-91.791107 44.950336 644.91766 0.69847459 -0.42423713 -0.57632995 0.00043295196
-91.082687 45.147984 645.42438 0.69748545 -0.42200595 -0.57915896 2.9131113e-05
-91.391647 45.97834 644.55988 0.703722 -0.425466 -0.56899387 0.0018174985
-90.774506 46.223446 645.0871 0.71288466 -0.43139592 -0.55289519 0.0065929368
-90.348389 47.268044 644.84192 0.7176668 -0.4324947 -0.54580468 0.010381304
-89.743347 47.61982 645.20557 0.72074008 -0.43276897 -0.54152077 0.012425943
-89.346405 48.617931 645.01489 0.71435505 -0.42590997 -0.55524546 0.0083048502
-89.15313 49.686821 644.6488 0.71211612 -0.41634217 -0.56528735 0.0034283353
-88.398117 49.945477 645.16394 0.71050179 -0.41038132 -0.5716418 0.0011959963
-88.031914 50.9524 645.00348 0.71895349 -0.39115855 -0.57454413 0.001043768
-87.410034 51.438732 645.41669 0.72851592 -0.37836945 -0.57105267 0.0018609333
-87.763222 51.830139 644.71783 0.73495585 -0.37238201 -0.56672001 0.0033357255
-87.116104 52.272388 645.05859 0.73739082 -0.36087576 -0.57098454 0.0011674118
-86.859627 53.279419 644.87976 0.75318265 -0.34173888 -0.56207681 0.0023016306
-86.167343 53.439423 645.21649 0.75938368 -0.33731967 -0.55637389 0.0028097399
-86.485046 54.1227 644.815 0.74533916 -0.32772052 -0.58057624 0
-85.805656 54.562588 645.05865 0.76366889 -0.32143217 -0.55990273 0.0024013852
-85.145653 54.843998 645.17303 0.76734108 -0.31591395 -0.55801976 0.0026949949
-85.475128 55.651119 644.81134 0.78072619 -0.31149012 -0.54170144 0.0089937141
-85.08886 55.987873 645.22986 0.79464 -0.30871415 -0.5227263 0.012989025
-85.295746 56.867897 644.53302 0.78465217 -0.30293763 -0.54087865 0.012659255
-85.099236 56.929096 644.79468 0.79329348 -0.30315319 -0.52799958 0.014943452
-85.5271 57.906399 644.521 0.7628479 -0.29833308 -0.57363802 0.0042199669
-84.855515 59.516537 645.1496 0.73302358 -0.29892051 -0.61100161 0.001554244
-84.623726 60.608196 645.03058 0.69428241 -0.30048534 -0.65397286 0
-84.26609 61.473732 644.93787 0.71324486 -0.30913919 -0.6290586 0.00065345358
-83.760262 61.958511 645.22791 0.7309643 -0.32021546 -0.60262203 0.0046961079
-83.289291 62.920372 644.94434 0.7458182 -0.34418637 -0.57034284 0.014380122
-82.483627 63.381046 645.06055 0.7226792 -0.35601723 -0.5924412 0.010011943
-82.978851 63.7798 644.40796 0.72937208 -0.3656061 -0.57822877 0.013790106
-82.191437 64.209816 644.87573 0.68647271 -0.37743291 -0.62153006 0.0038630473
-81.757782 65.2061 644.60461 0.63852489 -0.42408511 -0.64221317 0.00063996337
-81.479301 65.833 645.32202 0.60925019 -0.4516952 -0.65175593 0
-106.501 66.964249 644.66248 -0.659109 0.0063765049 -0.75202048 0
-81.157143 66.516167 644.77625 0.58257312 -0.50018936 -0.64063972 0.0074665872
-107.39458 67.943787 644.80408 -0.64654255 0.036882527 -0.76198578 0.0011498539
-80.591995 67.960846 644.67847 0.53634101 -0.54812014 -0.64179641 0.0082658445
-80.056999 68.342499 645.021 0.51271236 -0.54818583 -0.66077101 0
-108.30492 69.135178 645.14783 -0.63791382 0.05867666 -0.76786906 0.0021126526
-107.70442 68.942841 644.61761 -0.6333788 0.068473965 -0.77080643 0.0013069591
-80.603966 68.6688 644.45636 0.52836019 -0.56290311 -0.63559067 0.0052875075
-79.989609 69.085655 644.86847 0.517856 -0.57077456 -0.63721389 0.0029379416
-109.28201 70.431831 645.32733 -0.62893927 0.083395727 -0.77296859 0.0041070315
-108.60429 70.242889 645.01825 -0.62842607 0.080569766 -0.77368551 0.00068756891
-107.992 70.652 644.53802 -0.62585551 0.090263791 -0.77469826 0
-79.560768 69.966759 644.72894 0.52420485 -0.59609407 -0.60817856 0.0039893999
-79.1035 70.3936 644.76703 0.52574778 -0.60297126 -0.60001248 0.0022206672
-109.40887 71.500534 645.45483 -0.61951822 0.10780334 -0.77754462 0.0043867063
-108.65922 71.379684 644.9483 -0.62652159 0.10315634 -0.77254742 0.0058089765
-107.997 71.116997 644.56201 -0.63169938 0.095930181 -0.76925504 0.0058147926
-78.169495 71.422104 644.6795 0.55910659 -0.65712118 -0.50556064 0.016250564
-77.640701 71.469368 644.76801 0.56251132 -0.66464424 -0.49176109 0.017484715
-109.51327 72.616638 645.39545 -0.61527652 0.13162339 -0.77724522 0.0093902582
-108.7112 72.552589 644.84747 -0.61813116 0.12506457 -0.77606225 0.005615226
-73.785896 72.230164 644.74933 0.58148074 -0.59397459 -0.55594456 0.0085643874
-72.568657 72.618805 645.10443 0.60569489 -0.56436414 -0.56091607 0.010466088
-71.970703 73.184303 645.04401 0.62424958 -0.54366368 -0.56101906 0.014025635
-109.46958 73.754494 645.36981 -0.60321254 0.15685153 -0.78200537 0.0046150251
-108.75106 73.826462 644.79572 -0.60742545 0.15080066 -0.77993178 0.0046599726
-72.306923 73.750717 644.73547 0.62762105 -0.5428279 -0.55805874 0.014152708
-71.586723 73.915016 645.20117 0.64061826 -0.51981574 -0.56515479 0.013188627
-109.40025 74.873825 645.29114 -0.598005 0.17814738 -0.7814433 0.0057000113
-108.59055 75.062294 644.88348 -0.59824586 0.17546798 -0.781865 0.0034630275
-107.88126 75.157272 644.51801 -0.59613991 0.17208454 -0.78422207 0
-71.280525 74.98259 644.875 0.66132563 -0.48746172 -0.57011342 0.01114592
-70.641251 75.32135 645.55151 0.67511135 -0.45798501 -0.57833767 0.0051856558
-109.439 75.969955 645.50903 -0.59402078 0.20677122 -0.77742201 0.01069448
-108.59216 76.206657 645.18738 -0.59239352 0.20536195 -0.77903557 0.0070962724
-107.54174 76.404938 644.67633 -0.59171867 0.19923995 -0.78113544 0.0032366232
-71.098953 75.655945 644.44995 0.67536199 -0.4706732 -0.56776136 0.01205075
-70.314194 76.213776 644.98254 0.6897586 -0.44618073 -0.57022434 0.0076830974
-108.24551 77.215134 645.28918 -0.59164363 0.22915897 -0.77294493 0.011428279
-107.44222 77.46891 645.15118 -0.58952248 0.23114926 -0.77397245 0.0097989812
-106.26432 77.647667 644.745 -0.5861333 0.23036104 -0.77677643 0.0064788572
-105.4435 77.687195 644.44501 -0.58307785 0.23091422 -0.77890885 0.002624982
-69.976761 77.253601 644.73718 0.70026183 -0.43476996 -0.56622291 0.0071970574
-69.337738 77.595016 645.23987 0.70651871 -0.42621511 -0.56495315 0.0048474069
-107.0685 78.33992 645.51575 -0.57313019 0.25900123 -0.77745748 0.0048988266
-106.24733 78.505714 645.2359 -0.57278818 0.26982427 -0.77402103 0.007715839
-105.45425 78.31498 644.85675 -0.57302409 0.26248339 -0.77636713 0.0054152091
-68.919617 78.478355 644.99768 0.70157975 -0.42318228 -0.57332581 0.0028664432
-68.231476 79.027573 645.15253 0.69768941 -0.42087457 -0.57973623 0
-106.009 79.265602 645.05499 -0.56087321 0.29328847 -0.77421135 0.0050453506
-68.61528 79.388893 645.16864 0.70818281 -0.4170548 -0.56968623 0.0032908176
-68.007103 79.897255 645.17627 0.70804679 -0.41534284 -0.57110411 0.0039645396
-67.689377 81.015137 644.99713 0.70899481 -0.41032609 -0.57354939 0.0019311131
-67.712929 81.772728 644.771 0.70926619 -0.40763322 -0.57513183 0.0015936075
-93.847702 40.213615 645.66516 0.68961561 -0.42271969 -0.58799517 0
-93.157829 40.442104 646.12683 0.68978995 -0.41937584 -0.59018105 0.00095824659
-92.896805 41.363438 646.05701 0.70273733 -0.43744689 -0.56107086 0.0050909063
-92.211182 41.607361 646.51642 0.70191687 -0.43005681 -0.56777096 0.0019579288
-92.774902 42.071167 645.80664 0.70803356 -0.44858718 -0.54539704 0.010858208
-91.991432 42.637878 646.3349 0.70434272 -0.4332194 -0.56233639 0.0034659379
-92.405548 43.3494 645.90802 0.70507276 -0.43556562 -0.55960262 0.0050991331
-91.53521 43.693657 646.09863 0.69452983 -0.42183295 -0.58282518 0.00060826418
-90.946632 43.928219 646.51117 0.67970586 -0.40995216 -0.60822624 0
-91.397339 44.617199 645.86334 0.69014871 -0.41763592 -0.59099489 0
-90.659554 45.013508 646.22443 0.69959658 -0.42293543 -0.57592553 0.00070103008
-89.887794 45.519436 646.65967 0.71219921 -0.43138424 -0.55378693 0.0053621703
-90.297699 46.09914 645.85089 0.71846247 -0.43592265 -0.5420177 0.0096486397
-89.590103 46.387745 646.28687 0.7243889 -0.43766123 -0.53264755 0.012952139
-89.253479 47.333015 646.08179 0.72099054 -0.43150795 -0.54219329 0.010318521
-88.651184 47.618252 646.35547 0.71401089 -0.42693013 -0.55490458 0.0055876398
-89.0186 48.31152 645.81604 0.71351981 -0.4263548 -0.55597764 0.0072589377
-88.392685 48.649982 646.28198 0.70346773 -0.4206084 -0.57290637 0.001528054
-88.00441 49.586021 646.08093 0.7049911 -0.41385782 -0.5759421 0.00047998255
-87.368607 49.88414 646.4436 0.70027399 -0.40834501 -0.58555168 0
-87.018837 51.002392 646.24329 0.71303833 -0.38698235 -0.58465463 0.0005382711
-86.634598 52.020565 645.95776 0.73987818 -0.36580929 -0.56459171 0.002679212
-86.028015 52.237038 646.35938 0.74695295 -0.35994741 -0.55901629 0.0033623148
-86.822357 53.0341 645.61749 0.76185757 -0.34839585 -0.54607081 0.0065970467
-85.645355 53.395771 646.11346 0.76497597 -0.3375603 -0.54851151 0.0042587854
-84.958298 53.732552 646.40375 0.76294535 -0.32991666 -0.55594015 0.0021898339
-85.295296 54.1591 645.73102 0.76575249 -0.32374212 -0.55571049 0.0010903721
-84.917839 54.552048 646.32623 0.77171433 -0.31983167 -0.54969507 0.0034391729
-84.988503 55.238201 645.73297 0.79359418 -0.31461444 -0.52079362 0.01118344
-84.392639 58.478527 646.27454 0.78720194 -0.2985886 -0.53959048 0.012924567
-83.966698 58.797901 646.73901 0.79183286 -0.29830006 -0.53293318 0.014510877
-84.355301 59.413521 646.03577 0.75304312 -0.2993587 -0.58592701 0.0043992279
-83.835144 59.60146 646.48114 0.76056069 -0.30121025 -0.57516938 0.0070501133
-84.233795 60.434677 645.65326 0.70761758 -0.30066758 -0.6394344 0.00011677607
-83.597824 60.64415 646.25543 0.72643059 -0.30470493 -0.61599785 0.0028396137
-83.244934 61.692429 646.02899 0.73557246 -0.3180514 -0.59814417 0.00500943
-82.551338 62.172268 646.513 0.72043079 -0.32547414 -0.61241007 0.0023697873
-83.009773 62.496567 645.86499 0.71496373 -0.32796711 -0.61746609 0.0022693642
-82.509834 62.796177 646.17987 0.7233336 -0.34005499 -0.60095853 0.007359724
-81.539299 64.7258 645.81097 0.66525477 -0.40067747 -0.62999499 0
-81.350464 65.416077 645.77502 0.62934691 -0.43196201 -0.64601183 1.4751646e-06
-109.34634 69.337433 646.63403 -0.63584185 0.04929854 -0.77024335 0
-108.74946 68.847733 646.1582 -0.64436978 0.033316053 -0.76398802 1.4537311e-05
-109.73928 70.255829 646.28418 -0.62612224 0.079833031 -0.77562714 0.0018263859
-109.07267 69.724304 645.92432 -0.63013166 0.06571582 -0.77370244 0
-79.437401 69.791801 645.60901 0.51333243 -0.57799691 -0.63435745 0.0010486256
-110.427 71.344597 646.59302 -0.62067068 0.10582234 -0.77689743 0.0074178837
-109.99841 71.420326 646.16528 -0.62589288 0.10620172 -0.77264434 0.010417876
-110.76888 72.817596 646.53986 -0.59979993 0.14401528 -0.78708303 0.0010537866
-110.20457 72.599556 646.06903 -0.60887164 0.138411 -0.78110027 0.005849387
-72.387375 72.4468 645.88403 0.60322762 -0.55695361 -0.57089335 0.007921773
-71.450882 72.769493 646.27716 0.62636483 -0.52717036 -0.57424611 0.01003401
-110.81519 73.779182 646.49103 -0.59909064 0.16378392 -0.78375077 0.0058830348
-110.095 73.801224 645.7702 -0.59783459 0.16248463 -0.78497928 0.0028926185
-71.112831 73.657516 646.0014 0.64998192 -0.50868589 -0.56459028 0.014643523
-70.436272 73.985512 646.51996 0.67038882 -0.47266394 -0.5719856 0.009794577
-110.87848 75.10627 646.55585 -0.58428293 0.20127374 -0.78619486 0.0048205247
-109.96761 74.968895 645.85406 -0.59472162 0.18780476 -0.78168768 0.0071746176
-70.910896 74.6689 645.90802 0.66648543 -0.480573 -0.56995332 0.010993374
-70.206429 74.971344 646.22583 0.68463713 -0.45578396 -0.56879967 0.0089669134
-69.598564 74.980301 646.62097 0.69524443 -0.44335729 -0.56574678 0.0094217611
-110.6405 76.15168 646.54504 -0.58105117 0.22632845 -0.78176397 0.010199414
-109.79916 76.169815 646.10852 -0.58649158 0.22057876 -0.7793411 0.010021541
-69.986435 75.917343 645.90979 0.69424987 -0.44353974 -0.56682426 0.007094671
-69.144104 76.290062 646.25854 0.70610732 -0.43058416 -0.5621475 0.0072235521
-110.50075 77.088455 646.62299 -0.57307285 0.2506153 -0.78024322 0.012979004
-109.74043 77.37442 646.34772 -0.57626623 0.2529448 -0.77713329 0.013655351
-108.70371 77.464302 645.84485 -0.58543849 0.24291931 -0.77346754 0.012289141
-68.835953 77.390068 646.05713 0.69875896 -0.42463487 -0.57569182 0.0008989062
-68.058632 77.721916 646.64062 0.71606672 -0.4196358 -0.55781215 0.0074538277
-109.48867 78.0532 646.46332 -0.568914 0.26954859 -0.77696884 0.013978628
-108.58926 78.558342 646.41437 -0.55908215 0.27782738 -0.78117788 0.005439993
-107.50906 78.712135 646.0705 -0.56579059 0.27853733 -0.77607858 0.0064122095
-106.36767 79.129128 645.82666 -0.54873371 0.30542102 -0.77820897 0.0044624526
-68.614799 78.154099 646.05103 0.68973958 -0.42558914 -0.58577579 0
-67.974945 78.687683 646.32397 0.68967324 -0.42716977 -0.58470237 0.0003429809
-108.2855 79.336197 646.54248 -0.54057974 0.30206361 -0.78519499 0
-107.399 79.460426 646.62317 -0.54015911 0.31321591 -0.78110439 0.00075668038
-106.6055 79.4515 646.5625 -0.5402438 0.32306075 -0.77702534 0.0023156903
-67.47686 79.76059 646.07806 0.69412512 -0.42189148 -0.58326489 0.00027135963
-67.062103 80.082504 646.69049 0.70833826 -0.41553068 -0.57060593 0.0022303748
-67.338867 80.692665 646.00146 0.70594269 -0.41330969 -0.57516962 0.001531338
-92.729172 40.526348 646.98926 0.69617039 -0.42244342 -0.58042091 0.00079136301
-92.270798 40.669651 647.43573 0.68125373 -0.40601397 -0.60913557 0
-92.533096 40.979301 646.82898 0.70447499 -0.43528238 -0.56057489 0.003873131
-91.852852 41.477615 647.39014 0.68764156 -0.41376004 -0.5966168 0
-91.406769 42.419834 647.23395 0.69140232 -0.41689208 -0.59005409 0
-90.863098 42.813065 647.44598 0.6847626 -0.41115615 -0.60170662 0
-90.521111 43.737881 647.27228 0.68128932 -0.40992007 -0.60647368 0
-89.754906 43.889751 647.67462 0.69138443 -0.41670853 -0.59020472 0.0016928081
-90.16964 44.773235 647.02722 0.70373595 -0.42371559 -0.57028127 0.00075373176
-89.438026 44.986401 647.43146 0.71557194 -0.43513197 -0.54645854 0.0078155212
