# .PCD v0.7 - Point Cloud Data file format
VERSION 0.7
FIELDS x y z normal_x normal_y normal_z curvature
SIZE 4 4 4 4 4 4 4
TYPE F F F F F F F
COUNT 1 1 1 1 1 1 1
WIDTH 452
HEIGHT 1
VIEWPOINT 0 0 0 1 0 0 0
POINTS 452
DATA ascii
21.247253 44.174023 414.25137 -0.099250823 -0.4235079 -0.9004389 0.11821967
23.743164 44.216194 414.08481 0.057290796 -0.38768563 -0.92000961 0.11418784
25.663528 44.384293 414.63727 0.18038237 -0.34920681 -0.9195199 0.10598427
19.078789 46.536438 414.72406 -0.20236821 -0.41514534 -0.88696194 0.13447344
20.996456 46.628662 413.25214 -0.075330578 -0.36961827 -0.92612511 0.12981184
24.007656 46.641457 413.3551 0.11923195 -0.33067691 -0.9361819 0.12160951
25.605837 46.508389 414.48914 0.20303601 -0.32014644 -0.92535543 0.1148459
18.991259 48.504856 414.64273 -0.15277222 -0.39580819 -0.90553659 0.14625958
20.814596 49.017975 413.33643 -0.043072309 -0.33013225 -0.9429515 0.14153862
24.186544 48.902897 413.88953 0.15245786 -0.30025679 -0.94159561 0.13263439
25.138159 48.635532 414.6637 0.21490833 -0.30290535 -0.92847341 0.12971385
19.484785 50.271973 414.69531 -0.094825819 -0.37006557 -0.92415345 0.15746227
21.606283 51.164024 414.01685 0.031767033 -0.29968548 -0.95350903 0.15470132
23.491425 50.628601 414.04367 0.14919035 -0.27390304 -0.9501155 0.14574717
23.3596 39.653084 416.64044 -0.07436204 -0.49232292 -0.86723036 0.11148148
25.788841 39.734161 416.69324 0.14899538 -0.42683464 -0.89197117 0.1127435
28.035143 39.713543 417.44775 0.35975233 -0.34760484 -0.86588061 0.10250485
21.688236 41.151115 416.16837 -0.15005085 -0.48646092 -0.86072093 0.10432211
23.828131 41.494297 415.63321 0.011095152 -0.44506168 -0.89543116 0.10679201
25.810747 41.24593 415.94156 0.16229342 -0.4095867 -0.89771914 0.10597399
27.625198 40.820312 416.8555 0.33522421 -0.35923553 -0.87096184 0.10213183
19.500494 44.182762 416.00592 -0.22093943 -0.46705109 -0.85618287 0.12132577
20.596884 43.023575 415.16034 -0.17228979 -0.44758368 -0.87748796 0.10820199
26.590078 43.454632 415.82434 0.234339 -0.36229795 -0.9021228 0.1024402
18.521832 46.634323 416.46353 -0.23501596 -0.46322587 -0.8545112 0.13852042
26.685368 46.527992 416.14966 0.25982603 -0.3348316 -0.90574735 0.11514936
18.319912 49.010452 416.11609 -0.21936294 -0.42332733 -0.87901866 0.14856376
25.96623 48.900768 415.97665 0.26479319 -0.31704777 -0.91069496 0.13114087
24.606237 51.166138 415.23734 0.20361078 -0.29371911 -0.93395495 0.14557508
25.390625 50.586613 415.90775 0.25805813 -0.29243979 -0.92080677 0.14108002
23.828119 34.451843 419.92188 -0.33384892 -0.54601097 -0.76838595 0.11698963
25.846355 34.04686 419.9389 -0.088120289 -0.50244135 -0.86010897 0.12032072
28.320312 34.2103 419.94113 0.23671614 -0.39411041 -0.88805538 0.11821487
22.242462 36.872269 419.52866 -0.38094184 -0.56260759 -0.73372751 0.10995448
23.348871 36.206093 418.95142 -0.29575729 -0.5479309 -0.78249562 0.11679224
25.78125 36.149563 418.67514 0.010365539 -0.47754917 -0.87854391 0.12567334
28.360559 36.271152 418.85849 0.33744225 -0.34871349 -0.87437493 0.11488298
30.074013 35.877197 419.92264 0.48332554 -0.26860359 -0.83321577 0.1005782
21.555359 38.910187 418.61096 -0.30099142 -0.56098235 -0.77116984 0.11091511
23.4375 38.276936 417.56665 -0.14491814 -0.51798844 -0.84302235 0.11667707
25.78125 38.228783 417.52383 0.11484032 -0.44581658 -0.88772702 0.12430227
28.779678 38.920967 418.52847 0.42432943 -0.3210431 -0.84668523 0.10744654
20.503017 40.803112 418.80396 -0.28157577 -0.56172472 -0.77793342 0.1123027
28.641708 41.413971 418.59521 0.40274894 -0.34542137 -0.84763038 0.10936169
19.368397 43.421616 418.80191 -0.23726365 -0.53421003 -0.8113727 0.12190896
28.288309 43.887501 418.69394 0.37163603 -0.37604672 -0.84880829 0.11738054
18.283173 46.473713 418.43286 -0.24847578 -0.51090443 -0.82294375 0.1371683
27.97764 46.386158 418.96515 0.36477906 -0.37784812 -0.8509801 0.12342131
18.001974 48.046886 417.57812 -0.22603595 -0.49365199 -0.83977109 0.14868994
26.948044 48.824749 417.7438 0.32001096 -0.33246547 -0.88716382 0.12779446
27.733397 48.04306 419.14273 0.35265195 -0.35185438 -0.86708432 0.12165377
43.982697 -2.9255655 421.88559 -0.20048347 -0.9186368 -0.34045964 0.18577074
45.954834 -3.025703 422.07635 0.030500934 -0.93232679 -0.36032832 0.16729966
46.664436 -1.6616583 421.47736 0.097232789 -0.82496685 -0.55675453 0.17330164
48.384811 -1.2341264 421.78134 0.25048953 -0.77158695 -0.58472949 0.1487553
50.59853 -0.5980283 422.34167 0.44503954 -0.67762297 -0.58546305 0.12532598
50.813457 1.5610332 422.06372 0.49430215 -0.53353435 -0.68629915 0.12078962
43.570503 3.554095 421.74048 -0.52037102 0.088477887 -0.84934425 0.2015235
46.722321 4.1197906 421.40729 -0.040118165 -0.08879295 -0.99524188 0.14140123
44.520432 5.035758 422.31177 -0.4788183 0.24027038 -0.84439522 0.19130643
46.854794 5.8750882 422.10684 -0.059524205 0.073412575 -0.99552369 0.12914719
48.514908 6.0940533 422.12952 0.18468118 -0.0084974477 -0.98276174 0.11959291
24.303484 31.65383 421.89185 -0.42130518 -0.53808564 -0.73004514 0.10958527
26.198586 31.511074 421.43097 -0.1601093 -0.5157727 -0.84163147 0.11342089
28.315695 31.314386 421.52011 0.098948039 -0.4418889 -0.89159596 0.10904524
31.055634 31.36083 421.96777 0.41383368 -0.30084518 -0.85920542 0.10032906
23.281088 34.061756 421.35431 -0.44751921 -0.55026865 -0.70493335 0.11356144
26.562496 33.203125 420.38904 -0.03507179 -0.49319735 -0.86921018 0.12333873
28.414669 33.359371 420.42633 0.21197596 -0.40951303 -0.88733602 0.12068397
31.131786 33.674538 421.56274 0.51981264 -0.23541211 -0.82120401 0.098879352
22.101028 36.048878 421.72266 -0.48235726 -0.57095629 -0.6643346 0.1194109
30.951622 36.072399 421.59116 0.5732078 -0.21806855 -0.78986007 0.10324685
21.009775 38.9244 421.65558 -0.4056533 -0.60468394 -0.68542159 0.12859511
29.849499 39.84375 420.70316 0.51144797 -0.29053015 -0.80871093 0.11678443
30.40064 39.042633 421.66803 0.56888759 -0.25134951 -0.78306472 0.11661037
19.995689 41.489262 422.26562 -0.3855392 -0.6457383 -0.65907633 0.14047499
20.023857 41.515301 421.09375 -0.31242415 -0.62286979 -0.71723396 0.13490207
29.606491 41.484367 420.89487 0.50073832 -0.32178801 -0.80356312 0.12162002
30.093792 41.441578 422.2211 0.58638138 -0.27195248 -0.7630195 0.12349971
19.268034 43.329418 421.67969 -0.40898106 -0.62792885 -0.66214788 0.13128117
29.410421 43.71891 421.60199 0.63175404 -0.24463825 -0.7355535 0.11278421
18.382996 45.703114 420.70316 -0.2569786 -0.56945759 -0.78082007 0.13130024
28.832354 46.131531 421.22116 0.76035464 -0.083372466 -0.64413488 0.070292115
43.916691 -3.0483186 423.53091 -0.21805891 -0.9739331 -0.062487751 0.17916501
46.517181 -3.1495974 423.77023 0.042500176 -0.98930478 -0.13953385 0.15923606
48.372002 -2.6493797 423.55362 0.21163151 -0.94140118 -0.26263267 0.14400275
49.629211 -1.896374 424.85312 0.31048021 -0.9239223 -0.22353895 0.1353391
50.597683 -1.5774654 423.21664 0.42703292 -0.79378206 -0.43307388 0.12471416
53.679489 1.6537091 423.24191 0.68952644 -0.48811322 -0.53506893 0.11630005
53.950329 3.90625 423.13162 0.72936863 -0.35443872 -0.58514494 0.11199836
55.859386 3.90625 424.23672 0.81191075 -0.33085266 -0.4809756 0.10944378
44.921875 5.859375 423.00131 -0.48244354 0.30724603 -0.82027322 0.19770046
46.989487 7.0086765 423.0495 -0.089984842 0.18471955 -0.97866303 0.14257267
48.984375 7.1271806 422.77759 0.23799472 0.06579683 -0.96903527 0.11974229
51.648148 7.1142063 422.92932 0.62076592 -0.10950506 -0.77631074 0.10382219
56.163071 6.1736517 424.59674 0.8504867 -0.21414375 -0.48043197 0.10473144
49.065536 8.4837446 424.39761 0.32703066 0.062863819 -0.94292051 0.17078161
50.969704 8.827879 423.92395 0.56865847 0.056209914 -0.82065094 0.11226951
54.171356 8.4175024 424.22995 0.79421812 -0.076761559 -0.60276467 0.10056325
26.423948 26.649729 424.66196 -0.3688871 -0.53934783 -0.75698495 0.099741086
28.320312 26.617136 424.46204 -0.11236724 -0.50061643 -0.85834545 0.10043024
31.25 26.643879 424.52121 0.21458462 -0.39608693 -0.89278698 0.094398528
24.965092 29.094181 423.52719 -0.45896602 -0.5386101 -0.70657581 0.10295656
26.288616 28.438021 423.47015 -0.29851443 -0.53730494 -0.78879184 0.10782873
28.320312 28.527817 423.20398 -0.02739628 -0.48632365 -0.87334913 0.1080806
31.149323 28.535984 423.41425 0.29111126 -0.36355859 -0.88491762 0.095923148
33.367016 28.063963 424.38571 0.51172298 -0.23361003 -0.8267805 0.081181534
23.822882 31.0734 423.42319 -0.55856121 -0.53106827 -0.63716233 0.106927
32.444492 32.031254 423.36563 0.60479373 -0.16513272 -0.77907366 0.094217896
32.868652 31.007479 424.03745 0.60589755 -0.16613944 -0.77800113 0.091753446
22.81142 33.593742 423.4375 -0.57419932 -0.54575568 -0.61028349 0.11434581
32.268143 33.569103 423.6347 0.64117789 -0.15162484 -0.75226378 0.097040258
21.9814 35.984436 423.47656 -0.54861832 -0.57124478 -0.61048949 0.12470232
31.624269 35.953621 423.16455 0.63713038 -0.17281604 -0.75113219 0.10172599
20.96479 38.951584 423.39844 -0.5017978 -0.61332464 -0.60994405 0.13880354
31.298269 38.92345 424.17377 0.77456194 -0.071317144 -0.62846458 0.078337431
19.9956 41.494923 423.4375 -0.65064085 -0.59148943 -0.47624248 0.11456328
20.046011 41.393436 424.80469 -0.87384009 -0.44667128 -0.1920632 0.015691651
30.768267 41.400719 424.2655 0.85129023 0.017425412 -0.52440572 0.042890992
19.317549 43.187626 423.17709 -0.81914461 -0.49089733 -0.29668492 0.046801481
29.867729 43.945312 423.04688 0.86411977 0.044546381 -0.50131088 0.023997718
30.118835 43.217159 423.37698 0.84625238 0.010479986 -0.53267914 0.047805399
44.481255 -2.7527623 425.05847 0.16605887 0.98406595 -0.063550659 0.17529337
46.706696 -2.7771921 425.34747 0.641909 0.03316151 -0.76606345 0.16014212
41.745937 -0.92231876 426.215 0.19300386 0.95413107 -0.22887406 0.18288022
43.442333 -2.0405605 426.03098 0.2380074 0.96510595 -0.10919262 0.17515199
46.720428 -2.2711234 426.69974 -0.01097839 0.99249905 -0.12175793 0.15916058
48.921089 -1.6612179 426.30231 0.58319312 0.08264707 -0.80811828 0.14880215
51.174759 -0.87445742 425.60629 0.50160366 -0.82124412 -0.27194098 0.13058902
51.953136 0.0014007092 426.95312 0.59756929 -0.76599663 -0.23698147 0.12821522
53.887009 1.0157559 425.8313 0.72879642 -0.59944147 -0.33094671 0.11899959
55.080933 1.9582212 425.02432 0.78093189 -0.48916757 -0.38840774 0.11583928
56.122749 3.3698328 425.82938 0.83952749 -0.40367782 -0.36364529 0.10953128
42.874493 6.1984248 426.90387 -0.76022118 0.34951463 -0.54763424 0.16622326
51.5625 9.6153116 425.05179 0.74821287 -0.071730062 -0.6595698 0.13776006
53.832809 9.5958767 425.18665 0.83337379 -0.057342887 -0.54972702 0.1064875
51.627609 10.402535 426.42444 0.80562937 -0.10741619 -0.58260036 0.14257181
53.906246 10.446688 426.44205 0.87436914 -0.075107627 -0.47941366 0.10762662
28.385416 22.302364 427.2485 -0.30626616 -0.54141301 -0.78298974 0.088319659
35.15625 22.265614 427.33057 0.46917099 -0.30750275 -0.82784098 0.079125121
26.382378 24.162085 426.62335 -0.50622731 -0.5394395 -0.67285883 0.085821599
28.089323 23.584801 426.44434 -0.28205252 -0.53252739 -0.79803568 0.090337254
33.773239 23.715538 426.30154 0.36671698 -0.34913805 -0.86233473 0.083948858
35.223015 24.120934 426.71872 0.56007397 -0.23079841 -0.79564393 0.072653122
25.631445 25.878628 426.03827 -0.55346298 -0.53140146 -0.64131993 0.088659622
28.320312 25.051872 425.45776 -0.19464941 -0.51956731 -0.83196241 0.096623421
34.219681 25.887012 425.78625 0.52375072 -0.23537888 -0.81870747 0.077487238
24.369406 28.518061 425.94855 -0.66935843 -0.50717533 -0.54289269 0.093694068
23.432093 31.296753 425.81519 -0.70156944 -0.50997669 -0.49771893 0.099615112
22.738134 33.593742 425.78125 -0.71861374 -0.52028072 -0.46141338 0.099881664
33.102989 33.841507 426.10263 0.79733616 -0.013193758 -0.60339117 0.058500912
21.92754 36.006702 425.78125 -0.76973867 -0.50995535 -0.38398951 0.082826495
32.290333 35.896103 425.08508 0.77158749 -0.057604112 -0.63350964 0.072495952
32.683571 35.976494 426.32043 0.86058933 0.053282272 -0.50650465 0.030197579
20.945267 39.048046 425.78125 -0.84847248 -0.46826634 -0.24661925 0.050581381
31.875462 38.954422 425.91986 0.88308293 0.084886484 -0.46147463 0.022132663
31.491451 41.474682 426.42203 0.91864991 0.16757543 -0.35777211 0.0024950695
30.761505 42.762115 425.0643 0.90789819 0.12976551 -0.39859983 0.0054776524
41.773544 -0.33526123 427.97733 0.44163206 0.87391198 -0.2030739 0.16708057
43.856194 -1.1616437 428.78497 0.24291971 0.93133283 -0.27131 0.14507087
46.741436 -1.4569733 428.7525 0.0025021182 0.97292346 -0.2311141 0.13693498
48.972233 -0.63760036 429.06839 -0.18627118 0.95857149 -0.21550795 0.13312639
50.673836 -0.31782687 427.93365 0.69192392 0.3227036 -0.64583558 0.13849451
41.210697 1.5815979 428.87585 0.65139854 0.6907174 -0.31398961 0.1282116
51.709824 0.55141008 428.95877 0.19236663 0.19976899 -0.96077436 0.12092392
53.502872 1.6329849 428.80533 0.75689477 -0.6262185 -0.18697795 0.11998623
54.511127 2.7170031 429.69531 0.81908721 -0.55618799 -0.14053854 0.1137596
56.339153 4.2328758 429.11072 0.89221668 -0.40308321 -0.20365041 0.10200769
57.438816 5.6107645 428.97397 0.92567426 -0.30657309 -0.22167593 0.096185714
52.071152 11.328131 427.67557 0.86422455 0.020505052 -0.50268829 0.1589894
54.038647 11.830807 428.67865 0.91554725 0.0045030583 -0.40218523 0.11863412
28.268108 19.328598 429.38025 -0.45530057 -0.5204792 -0.72235924 0.077003174
26.688307 21.421976 429.17575 -0.64727634 -0.50579101 -0.57027078 0.072176076
28.310818 21.031202 428.14966 -0.37116152 -0.53337973 -0.76009542 0.08243987
25.582268 24.187815 428.67938 -0.7432037 -0.48488146 -0.46101856 0.070843324
24.680649 26.667759 428.86441 -0.82779813 -0.4488942 -0.33651808 0.062217444
24.11981 28.546049 428.90625 -0.85392958 -0.43600869 -0.28407884 0.053390622
23.328949 31.316292 428.88318 -0.88591421 -0.41543052 -0.2063335 0.036267284
34.547993 31.474468 428.42642 0.85600781 0.07851284 -0.51096618 0.035199512
35.376598 30.345411 429.81253 0.87864274 0.11525251 -0.46336147 0.027323002
22.680775 33.593742 428.90625 -0.91083866 -0.38688263 -0.14385709 0.021147067
34.152622 33.671898 428.90375 0.89001215 0.13018413 -0.43695602 0.019189617
21.990406 35.971031 428.90625 -0.92972225 -0.35871762 -0.08329571 0.0094077438
33.424641 36.204613 428.68042 0.90808225 0.16300853 -0.38576531 0.0089439107
21.188929 38.517548 428.42355 -0.93824035 -0.34370527 -0.039644931 0.0025735814
32.420216 39.761532 428.06982 0.9229812 0.19781741 -0.33011207 0.001223347
32.932617 38.656467 429.00204 0.92222923 0.20319332 -0.32894635 0.0014826433
44.921875 -0.39061904 430.56592 0.20030548 0.86998355 -0.4505623 0.10028214
46.093746 -0.23955852 430.74475 0.086811505 0.88014328 -0.46670294 0.093552232
41.741013 2.3309689 430.80103 0.55623657 0.6671043 -0.49555302 0.074301504
43.491646 1.2540319 430.94336 0.36556843 0.74205315 -0.56188691 0.08635968
46.649689 1.2542388 431.36023 0.078119986 0.77869707 -0.62251759 0.082761101
48.464211 1.1387733 431.32004 -0.094678611 0.84218109 -0.53081727 0.089569546
50.609806 1.3038983 431.05826 -0.39304063 0.86525702 -0.31120637 0.096689239
53.146782 2.4504809 431.26114 -0.7472285 0.66315693 -0.043272831 0.11444566
41.67976 4.0109458 430.84891 0.58171743 0.66559952 -0.46752772 0.083249696
44.140636 3.515631 432.41589 0.27547085 0.65687156 -0.70188004 0.066141374
50.775787 3.2203481 432.29944 -0.42144781 0.72294289 -0.54748094 0.12568857
54.156414 3.9098873 432.02756 -0.83676159 0.54593807 -0.042210795 0.10966051
55.539494 3.8427315 430.49158 -0.45629138 -0.72785556 -0.51188308 0.10479166
41.99995 5.0781369 431.25 0.51851678 0.6621592 -0.5410043 0.093409047
56.785103 5.46103 431.24487 -0.57532281 0.59356004 -0.56275219 0.091339469
57.737644 6.7678246 431.25 -0.054797973 0.20100223 -0.97805691 0.086931497
54.521702 13.052735 431.08621 0.82579726 0.39143631 -0.4060007 0.17030132
28.576578 16.210945 431.52084 -0.51279491 -0.45503306 -0.72800159 0.070082165
27.158947 19.0937 431.44531 -0.72773802 -0.4386076 -0.52727669 0.073238127
28.415918 18.206356 430.16803 -0.48760295 -0.50193495 -0.71435612 0.075995848
30.446426 17.569416 430.07281 -0.22566284 -0.50296462 -0.83432782 0.082563758
26.458857 21.000906 431.21094 -0.79514933 -0.4354347 -0.42205957 0.065893322
25.459236 23.996384 431.64062 -0.89041799 -0.39024225 -0.23423648 0.049926434
24.628952 26.571747 431.25 -0.90481919 -0.38844112 -0.17440118 0.038057521
37.228458 26.06809 431.59131 0.88505483 0.093617462 -0.45597562 0.031981729
24.106104 28.533356 431.25 -0.91772413 -0.37453985 -0.13229626 0.028597182
36.386169 28.183504 430.86392 0.88683999 0.11270566 -0.44812074 0.027817918
23.324066 31.325844 431.26556 -0.93927824 -0.33804819 -0.05898973 0.01386117
35.759693 30.962027 431.33395 0.90927476 0.17998226 -0.37526771 0.011795745
22.620342 34.179688 431.44531 -0.95522904 -0.29531711 0.01803397 0.0051326538
34.773426 33.956127 430.92896 0.91670036 0.21145572 -0.33903825 0.0050026872
22.169239 35.886299 431.01166 -0.95529431 -0.29530478 0.014419184 0.0022560991
34.261997 36.220913 431.49008 0.92305052 0.2348469 -0.30467153 0.00061670266
33.681633 37.890614 430.85938 0.92404813 0.226842 -0.30769747 9.0436435e-05
53.124992 4.6566129 433.20312 -0.80387282 0.57419717 -0.1551972 0.11544228
41.770676 7.4119864 434.73581 -0.27492532 0.53305709 -0.80016637 0.1846398
42.578133 7.4218807 434.20432 -0.018319365 0.56700963 -0.82350749 0.15815905
51.956921 5.0799747 433.20126 -0.76164508 0.60980594 -0.21916538 0.13370495
54.724876 6.0664458 433.55072 -0.89864588 0.4374021 -0.033392906 0.097679071
56.655113 6.6956892 433.37262 -0.93620229 0.35135457 0.0086709429 0.091129348
57.561905 6.967773 432.70444 -0.94995612 0.30976319 0.040375479 0.087983333
28.913158 9.7818546 434.76913 -0.30477324 -0.63856918 -0.70664185 0.10010363
55.703125 8.425909 434.66547 -0.94659525 0.31990317 0.040242087 0.10368314
58.365265 9.1647253 433.60498 -0.96061426 0.252868 -0.11523023 0.092207856
28.491898 11.442769 434.25571 -0.41899157 -0.54384977 -0.72709942 0.08997599
31.24358 11.480178 433.51703 -0.17946875 -0.61839718 -0.76509863 0.074819945
28.369625 13.629367 433.58551 -0.5274936 -0.45234996 -0.71911758 0.0780828
43.692223 12.611839 434.42023 0.79330254 -0.14240029 -0.59194022 0.17741379
45.864471 13.382114 434.76562 0.38369781 0.1964004 -0.90233195 0.20272718
27.364685 17.187506 433.59375 -0.77530396 -0.33028367 -0.53834605 0.072589234
27.727274 15.688562 433.52533 -0.69167602 -0.35210669 -0.63055944 0.072521843
26.985798 18.579575 433.64856 -0.84251767 -0.32236639 -0.4315598 0.069112726
26.358749 21.007521 433.55582 -0.89934289 -0.33214751 -0.28435966 0.054861695
25.454927 24.048859 433.62631 -0.93167681 -0.33611131 -0.1378677 0.033627018
38.237717 23.972418 433.36874 0.89389098 0.14478593 -0.42425933 0.037008565
24.669029 26.675774 433.60278 -0.94403589 -0.32438987 -0.059727684 0.01819874
37.971195 26.034857 433.94003 0.92571974 0.18627729 -0.3291561 0.020129567
24.133142 28.642035 433.55038 -0.95223296 -0.30513829 -0.011955976 0.01027432
37.092625 28.614172 433.25928 0.93042606 0.19713134 -0.30894437 0.01052136
37.685192 28.06131 434.63544 0.94206762 0.23458244 -0.23974918 0.0082493015
23.529018 31.272522 433.58124 -0.87649024 -0.4146134 -0.24466427 0.0046431492
36.355022 31.347147 433.50156 0.93035901 0.24323185 -0.27435446 0.0033240884
23.012848 33.93932 433.34143 -0.96188426 -0.2675654 0.056457553 0.0041562286
35.624153 33.689415 433.61749 0.9267695 0.25836492 -0.27266434 0.0046618944
34.862099 35.335678 432.75229 0.92428172 0.24730469 -0.29076418 0.00071884791
35.150028 35.026043 434.24478 0.9268173 0.26331922 -0.26771769 0.0058627515
26.663765 6.9912043 437.47827 -0.36437687 -0.75767553 -0.54144007 0.13150355
28.550261 6.9076858 436.99756 -0.16672111 -0.84992379 -0.49983364 0.12399104
42.309135 7.4218807 435.54688 -0.35528955 0.54099959 -0.76229185 0.18194216
26.621929 9.2721319 436.29572 -0.49961394 -0.56031245 -0.66063285 0.11319367
28.234699 8.4736452 435.76013 -0.30552512 -0.69044614 -0.65569699 0.11321237
39.302357 9.2003345 436.50397 -0.4940044 0.80639523 -0.32509449 0.20518947
41.378605 8.05762 436.06918 -0.49186504 0.59026355 -0.64004511 0.20381005
42.578133 8.2775955 436.35834 -0.54958189 0.53820843 -0.63897693 0.19279981
26.675341 10.936481 436.30688 -0.57152367 -0.47776967 -0.6671558 0.10973985
56.884251 10.463965 435.59241 -0.97382849 0.21067134 0.085297734 0.11241325
27.078634 13.30606 436.24792 -0.68997854 -0.37943444 -0.61640823 0.10429285
43.766556 14.294563 435.64673 0.88567972 -0.16342881 -0.4345831 0.15052193
46.531807 14.468667 435.78128 0.46956253 0.32211214 -0.82204306 0.17560709
27.075647 16.192369 436.68076 -0.89227176 -0.16804847 -0.41905949 0.083528727
43.463112 15.988548 436.68759 0.94005436 -0.033073094 -0.33941698 0.15549627
46.310623 15.55482 437.07227 0.84864545 0.14815353 -0.5077908 0.16022117
26.85837 18.177631 436.01062 -0.92531979 -0.17989853 -0.33379605 0.060727254
26.342104 21.07542 435.9375 -0.95865715 -0.22712535 -0.1714367 0.038575567
39.579052 21.283714 436.43265 0.90325111 0.31687263 -0.28936008 0.10036703
40.240368 20.32193 437.30127 0.90948319 0.35555699 -0.21545222 0.13072312
25.429468 24.387999 436.41931 -0.96944672 -0.24516514 -0.0081948368 0.012450832
39.054802 23.877033 436.20401 0.92726648 0.27021369 -0.25915506 0.04656589
24.848991 26.562498 435.9375 -0.96571255 -0.25654197 0.039818123 0.0056766826
38.614716 26.5156 436.65961 0.94309002 0.28396258 -0.17305043 0.02046369
24.50281 28.442495 436.47183 0.083776638 -0.56338513 -0.82193595 0.0040361136
37.904572 28.323919 435.82379 0.94440049 0.261408 -0.1994333 0.0088293925
24.031414 30.84997 436.0947 0.96630484 0.24135868 -0.089448504 0.0038421557
36.965439 31.381405 436.63892 0.94428349 0.28190872 -0.16987142 0.010741845
36.048874 33.578018 435.86011 0.93237901 0.30043593 -0.20101653 0.024834856
24.831902 6.8834014 439.01797 -0.518938 -0.71750289 -0.46464285 0.14197671
26.012812 6.5385585 438.46689 -0.37541372 -0.80932534 -0.4517267 0.13658552
28.37063 5.8126822 439.05963 -0.04912046 -0.9679454 -0.24631064 0.12965682
31.358747 7.0779023 439.32242 0.10702574 -0.98929375 -0.099213064 0.11665339
24.303116 8.8775129 438.965 -0.70223051 -0.46073925 -0.54276299 0.14043318
25.28672 9.2434216 437.72565 -0.63128036 -0.49820825 -0.59436822 0.13137066
32.421886 7.504046 437.89062 0.066182829 -0.97299957 -0.2211147 0.10668796
33.915207 8.6009321 438.45276 0.10830995 -0.95173544 -0.28717336 0.12281073
39.31815 9.4636164 438.64539 -0.52020085 0.82188725 -0.23214717 0.14404504
41.148659 8.7755756 438.6622 -0.55411828 0.76526934 -0.32759097 0.14507173
42.578133 8.8960075 439.07294 -0.61508936 0.71336722 -0.33581582 0.13518506
25.195757 11.550673 439.16995 -0.81256741 -0.31290796 -0.49175474 0.17075485
26.046911 13.091849 438.52786 -0.85174865 -0.26814625 -0.45013529 0.16150068
26.689356 16.668818 438.54166 -0.98374313 -0.063289545 -0.16805938 0.11952254
44.283134 17.156677 438.32825 0.9763853 -0.031403236 -0.21374211 0.17230877
46.863293 16.645737 438.77304 0.76426184 0.45422941 -0.45779845 0.20664479
48.046886 16.941011 438.67188 0.32573327 0.7635963 -0.55751103 0.15811825
26.643824 18.749996 438.28125 -0.98852515 -0.077920854 -0.12940778 0.072420992
41.223278 19.226637 438.06046 0.9259367 0.26254329 -0.27150008 0.15572654
43.084503 18.883564 439.01407 -0.68849117 -0.70446944 -0.17234504 0.17130014
26.300209 21.109154 438.28125 -0.99044782 -0.12109192 -0.065953225 0.032624524
40.745472 21.304327 438.92764 -0.89714563 -0.44113338 0.023045376 0.14352047
25.755301 23.828131 438.15103 -0.98422706 -0.17538403 0.023179598 0.010125462
39.335579 24.868092 438.27606 0.072443061 -0.39760628 -0.91469193 0.054683268
40.036884 23.335993 439.14062 -0.88998073 -0.45594162 -0.0071836407 0.11635029
25.406794 25.842293 438.50299 -0.19590418 0.74479538 -0.63788825 0.0054888367
38.858498 26.480198 438.9707 -0.94054765 -0.33232114 0.070234254 0.031230584
24.843403 28.387613 438.20886 0.97026408 0.22050169 -0.099832907 0.0040390585
26.093952 28.529644 438.47656 0.97102439 0.21581218 -0.102649 0.0041980497
38.241035 28.279442 438.22348 0.62678349 0.0074725254 -0.7791577 0.017171202
26.969667 30.094332 437.98306 0.96286124 0.016975746 -0.26946247 0.077668339
37.286625 31.25 438.42047 0.94909149 0.28867519 -0.12606359 0.0069916509
37.685364 30.182087 438.57028 0.0067656678 -0.36757874 -0.92996776 0.0086702751
22.198736 7.3086019 441.69022 -0.73143733 -0.57761586 -0.3624354 0.14550078
23.891901 6.6253014 440.54895 -0.55311698 -0.75613809 -0.34973821 0.14820339
25.894043 5.7691336 440.91925 -0.38632134 -0.83488238 -0.39208078 0.14365217
28.537634 5.9504933 440.81631 0.0028152133 -0.96986675 -0.24361978 0.13243075
30.515137 7.0594807 440.89029 -0.27684033 -0.049593572 -0.95963526 0.12885675
22.270359 8.3845034 441.92261 -0.82051682 -0.40065578 -0.40770954 0.15786767
23.308939 9.2788734 440.76868 -0.80857962 -0.35234562 -0.47122338 0.1599564
31.704367 8.0998545 441.18921 -0.19132288 0.95365769 -0.23223388 0.13596937
33.82251 9.3506174 440.65607 -0.2103734 0.92832959 -0.30650803 0.13513157
39.689217 9.6892061 440.79578 -0.55370408 0.71788561 -0.42196202 0.1027795
41.406242 9.5873051 440.80939 -0.58526832 0.70196152 -0.40584618 0.10087536
42.746826 9.7566843 440.80054 -0.62592548 0.67451894 -0.39146069 0.099441126
23.90806 11.214267 440.97418 -0.8998273 -0.10911942 -0.42237881 0.18589142
36.043018 10.559741 440.94385 -0.45244327 0.78473115 -0.42366511 0.11396374
38.44141 10.568504 440.63077 -0.55799907 0.70427364 -0.43890268 0.10828561
41.406242 10.546864 442.26416 -0.57873976 0.63487375 -0.51185513 0.081672952
42.532604 10.568232 441.77835 -0.61502826 0.63481176 -0.46771184 0.088976584
24.538473 12.800872 441.31802 -0.95156461 0.10731515 -0.28811166 0.20099358
25.361689 13.753264 440.56128 -0.98046821 -2.6229149e-05 -0.19667774 0.19996846
26.003397 16.134457 441.13086 0.75995862 0.17932971 -0.62474298 0.19010098
26.565662 18.749996 440.82031 0.97287399 -0.079794027 -0.21713831 0.1571193
44.498009 18.925535 440.86218 -0.96666163 -0.25548789 0.017067609 0.20198509
46.576363 18.181507 440.7338 0.64006764 0.69577855 -0.32589224 0.19964781
48.046886 18.348228 440.81665 0.2175892 0.88997829 -0.40074143 0.16582203
26.496159 21.126301 440.78009 0.96096396 -0.022955429 -0.27571929 0.09582679
39.037006 21.132233 442.25296 -0.79476708 -0.27952367 -0.5387131 0.22100724
41.346348 21.258879 441.04422 -0.84802979 -0.50761271 -0.15223251 0.19699854
42.835964 20.921198 440.96207 -0.82619566 -0.56336719 0.0042705638 0.18819667
26.265579 23.906839 440.64233 -0.98419887 -0.17038326 -0.048189946 0.023168067
39.070641 24.097063 441.18134 -0.84166276 -0.49701771 -0.21113305 0.14116807
40.056118 23.34123 440.24561 -0.84697157 -0.52114844 -0.10508851 0.13872053
25.848618 26.108429 440.83929 0.87555844 0.41532373 -0.24678664 0.007545922
37.109375 26.171864 442.38968 -0.87813276 -0.39284593 -0.27304754 0.10853029
38.739651 26.030519 440.77744 -0.91978198 -0.38360205 -0.082768321 0.073715828
38.519211 28.270027 440.89301 -0.9396975 -0.34200531 0.00093905412 0.026243173
21.690561 7.1232243 443.78809 -0.76448435 0.24784623 -0.59509331 0.15981004
26.224678 6.2568455 443.27069 -0.019377673 0.97950208 -0.20049974 0.14399523
28.345684 7.1152234 443.68561 -0.20789357 0.90757012 -0.3648243 0.141372
30.078114 7.4972811 442.57812 -0.21143244 0.92779601 -0.30739379 0.13733466
29.167538 8.0186605 444.7901 -0.273698 0.82404572 -0.49602225 0.1323567
33.358658 9.9568367 442.73355 -0.21495755 0.83528584 -0.50605422 0.12114545
21.906391 10.96487 444.21884 -0.82594413 0.38279176 -0.41386807 0.16727048
22.898792 11.15036 442.74951 -0.87123412 0.27513668 -0.40651071 0.18853404
36.035931 11.615481 443.45724 -0.46397823 0.60442466 -0.64760715 0.057761766
39.224083 11.445506 443.18271 -0.54986042 0.58633107 -0.59486938 0.069734439
41.302761 11.915378 443.74023 -0.54022747 0.56805891 -0.62085694 0.077358097
42.578133 11.971043 443.57397 -0.5543775 0.58440101 -0.59257162 0.08673913
23.778612 13.65042 443.79697 -0.84663391 0.42479697 -0.32055971 0.18885006
38.779396 13.611145 444.09796 -0.54092252 0.52389479 -0.65797955 0.073350877
41.331409 14.025867 444.8042 -0.48579919 0.5488506 -0.68026626 0.095173843
42.578133 13.679862 444.91394 -0.47864798 0.56350887 -0.67331558 0.10082234
24.835396 15.550643 444.49097 -0.80503774 0.56426412 -0.18308565 0.21288434
25.704803 16.515354 443.7226 0.75019681 -0.59253705 -0.29343578 0.22441617
26.673733 18.749996 443.75 0.57848001 -0.6897319 -0.43546626 0.20077178
34.765633 17.578125 443.92804 -0.39723974 0.26597723 -0.87832612 0.1561113
36.241638 18.047676 444.57877 -0.53265142 0.28514522 -0.79685301 0.12786911
38.972569 18.328049 443.94278 -0.63139868 0.34611082 -0.69393289 0.16418183
41.286762 18.371111 443.86743 -0.63164192 0.36688507 -0.6829524 0.20247574
43.776676 18.609377 444.03909 -0.56307793 0.47050548 -0.67938781 0.22511923
46.449902 19.59103 443.65607 0.34431955 0.88935131 -0.30082917 0.19941649
48.423176 19.471401 442.95685 0.14082962 0.94223887 -0.30389634 0.13360558
26.936249 21.175791 443.93036 0.48177925 -0.67934769 -0.55351198 0.16765566
39.015068 21.074329 443.74838 -0.61554229 -0.28948131 -0.73301309 0.2160943
41.484367 20.313944 442.71759 -0.85011476 -0.25984466 -0.45802367 0.25568542
43.121803 20.464033 442.71652 -0.80327743 -0.57840735 -0.14209288 0.23993275
47.265614 20.033159 444.39209 0.30321646 0.91838735 -0.25421351 0.17407882
39.04266 24.048187 443.79245 -0.44292903 -0.71172196 -0.54522085 0.18014869
37.127377 26.799871 443.17926 -0.84346443 -0.43709034 -0.31228173 0.10762665
23.4375 7.192667 446.66681 -0.19683945 0.85372579 -0.48208562 0.14352302
25.582947 7.3056326 446.15198 -0.23589393 0.83823019 -0.4916546 0.13459541
26.757812 7.8163071 446.40442 -0.28004894 0.79989153 -0.53079766 0.13030937
28.590464 8.6627369 446.49823 -0.30466884 0.74509251 -0.59330779 0.12239718
30.256277 9.4709692 446.31216 -0.30139181 0.70636654 -0.64047575 0.1112243
20.914293 11.123084 445.64426 -0.80889559 0.44262502 -0.38700274 0.15731575
21.701263 12.785111 446.80954 -0.7315203 0.55629808 -0.39422148 0.16864926
23.125217 14.235802 446.10779 -0.75048852 0.56853783 -0.33694482 0.18094441
24.179226 15.561752 446.24753 -0.72887731 0.65034562 -0.21398228 0.19362301
25.374842 16.821819 446.07071 0.65103853 -0.75163597 -0.10579324 0.22041431
31.451597 16.257236 445.80643 -0.23455574 0.39878792 -0.88653928 0.17159468
33.617687 16.439112 446.13626 -0.25935721 0.30171603 -0.9174428 0.10567003
40.385761 16.749146 446.15469 -0.46986434 0.42793953 -0.77207214 0.12079048
25.897955 17.906038 446.49106 0.45864475 -0.80477917 -0.37679633 0.20954125
34.265022 18.191708 446.15302 -0.26312315 0.10435583 -0.95910168 0.11181286
35.666397 19.083939 446.49591 -0.34777728 0.051781334 -0.9361462 0.10708521
38.709167 19.148407 446.24475 -0.513183 0.24766831 -0.82176858 0.14536317
41.340874 18.779417 446.47488 -0.45678288 0.31578478 -0.83164263 0.17860748
44.828941 18.72164 445.69327 -0.3089619 0.69429857 -0.64999396 0.23233466
46.431435 19.485888 446.41644 0.095055692 0.92456734 -0.36897102 0.20508923
26.964634 21.123209 446.64575 0.19681579 -0.78413707 -0.58855134 0.14868018
39.015621 21.203585 446.05685 -0.37778601 -0.30967867 -0.87256908 0.18488443
38.852745 23.517199 446.43875 -0.15656653 -0.69529557 -0.70146346 0.17240787
21.014687 8.0746765 448.565 -0.34015298 0.7581135 -0.55638111 0.1590047
23.937498 8.3524809 448.82349 -0.31468877 0.72408271 -0.61373872 0.13619895
25.89967 8.7655125 448.71436 -0.34033549 0.69148117 -0.63720137 0.11999409
28.074005 9.352417 448.16287 -0.34586993 0.66206765 -0.66486114 0.10833961
20.456709 12.344043 447.81689 -0.74872053 0.54042971 -0.38386637 0.16604957
28.676388 10.637608 448.9054 -0.36489049 0.57748878 -0.7303161 0.10310461
30.406698 11.067708 447.58902 -0.34417158 0.56674534 -0.7485624 0.10907918
21.350168 13.589787 448.6221 -0.71418434 0.5876025 -0.3803471 0.17460282
23.319895 14.116198 448.68951 -0.63418454 0.60589707 -0.48031113 0.17610306
24.032118 16.410536 448.52231 -0.29011083 -0.21663168 -0.93215156 0.18788899
25.43779 16.054623 449.54126 -0.52015555 0.50168425 -0.69119543 0.18506555
28.596582 16.339834 448.91534 -0.36492747 0.20401773 -0.90840775 0.17888278
31.355438 16.396704 448.49466 -0.2949211 0.20549805 -0.93316239 0.12064699
33.591698 17.288658 448.26224 -0.27755126 0.19439238 -0.9408384 0.082394391
40.15974 16.761654 447.89316 -0.40174446 0.39364803 -0.82682681 0.098235421
25.852795 18.501884 448.88678 0.23422892 -0.75327265 -0.61458695 0.17495981
28.290619 18.616264 448.88794 0.0034805355 -0.59616631 -0.80285341 0.17195816
31.401636 18.847948 448.75998 -0.18377937 -0.11423614 -0.97630692 0.12016784
33.639771 18.71978 448.49976 -0.24006996 0.051859003 -0.96936941 0.088819027
39.434341 19.176376 448.02728 -0.40726697 0.21356542 -0.88798845 0.13286673
40.599236 18.264723 448.60638 -0.36364055 0.35476163 -0.86134189 0.12022848
26.606115 20.227566 448.5231 0.15521663 -0.77505875 -0.61252886 0.14566165
27.572901 20.063864 449.15201 0.084249765 -0.74252301 -0.66450101 0.14662921
33.752262 20.002007 449.34317 -0.2082132 -0.084112562 -0.97446001 0.083562307
35.974232 20.720491 448.60403 -0.32082695 -0.026245303 -0.94677413 0.10524843
38.713768 21.171825 448.27759 -0.32611468 -0.15428077 -0.93265563 0.14994624
41.041454 21.185881 448.50137 -0.24617404 -0.27346519 -0.92984688 0.19014639
43.305756 20.918068 448.77417 -0.26702175 0.34047481 -0.90154105 0.21828251
40.058048 22.991446 448.00784 -0.080068722 -0.68327326 -0.72575939 0.1721224
21.412138 9.1152802 451.36313 -0.31668806 0.66432953 -0.67703396 0.15728025
23.814745 9.4357748 450.61746 -0.33313158 0.63840187 -0.69387782 0.13549398
26.041 9.8245344 450.31958 -0.35910192 0.60121042 -0.71385705 0.11651643
23.623625 10.887029 452.01474 -0.34202835 0.54980654 -0.76205599 0.1358832
25.833946 10.954891 450.90741 -0.37190804 0.54936075 -0.74825615 0.12014025
22.188347 15.95048 451.74915 -0.36905459 0.23039013 -0.90039939 0.17368025
24.051167 16.20578 451.45523 -0.13691832 -0.10346099 -0.98516452 0.1642459
25.829779 16.246777 451.4751 -0.28430089 0.027050544 -0.9583534 0.15239863
23.97246 18.145756 451.20779 0.25459167 -0.6672433 -0.69997817 0.14499626
28.095964 18.287256 450.9545 -0.15325026 -0.37146506 -0.91571182 0.13957632
31.441357 18.802643 450.93332 -0.2201152 -0.11282138 -0.96892756 0.094815411
33.480621 19.428806 450.52512 -0.24624811 0.0453219 -0.96814662 0.07717064
41.015625 19.915106 450.76535 -0.27601036 0.47625077 -0.83486736 0.14145087
39.354282 20.613094 450.51602 -0.31313825 0.16827844 -0.9346801 0.1368136
20.347641 9.5964594 452.53806 -0.3471911 0.64033353 -0.68515062 0.17183021
19.07345 10.657249 453.50461 -0.50507402 0.64753801 -0.57060903 0.19130622
21.213137 11.068896 453.22971 -0.36475891 0.58160597 -0.7271077 0.16913851
