# .PCD v0.7 - Point Cloud Data file format
VERSION 0.7
FIELDS x y z
SIZE 4 4 4
TYPE F F F
COUNT 1 1 1
WIDTH 1510
HEIGHT 1
VIEWPOINT 0 0 0 1 0 0 0
POINTS 1510
DATA ascii
-186.89265 -116.16573 889.59558
-186.43851 -116.20334 889.89886
-185.95842 -116.22496 890.07959
-185.53629 -116.28301 890.53943
-185.14786 -116.36259 891.16394
-184.71815 -116.41656 891.59253
-184.43741 -116.565 892.74451
-184.05745 -116.6514 893.42133
-178.36984 -118.71156 909.45752
-177.87238 -118.73048 909.61725
-177.43661 -118.79079 910.09424
-177.00038 -118.85115 910.57147
-176.38115 -118.78863 910.10736
-175.73804 -118.7096 909.51666
-175.20154 -118.70233 909.47565
-174.63313 -118.67335 909.26825
-174.09218 -118.66288 909.20282
-173.57622 -118.66945 909.26776
-173.08209 -118.691 909.44763
-172.59552 -118.71792 909.66846
-172.037 -118.69535 909.51013
-171.52104 -118.7021 909.57623
-170.93951 -118.66337 909.29401
-170.50789 -118.72878 909.80969
-169.98705 -118.73228 909.85101
-169.48541 -118.74925 909.99548
-168.95184 -118.7439 909.96881
-168.43707 -118.75176 910.0434
-167.92758 -118.7634 910.14697
-167.42569 -118.78051 910.29242
-166.9361 -118.80649 910.50568
-166.43361 -118.82341 910.6496
-165.91559 -118.82932 910.70917
-165.40944 -118.84381 910.83429
-164.90062 -118.85645 910.94519
-164.35373 -118.84165 910.84595
-163.86101 -118.86604 911.047
-163.38348 -118.90166 911.33405
-162.86848 -118.91013 911.41302
-162.35641 -118.92084 911.50891
-161.84343 -118.9309 911.60004
-161.33995 -118.94807 911.74548
-160.8351 -118.96432 911.88397
-160.36275 -119.00479 912.20807
-159.86656 -119.02779 912.39819
-159.46849 -119.12424 913.15125
-158.96465 -119.14205 913.30157
-158.4606 -119.15981 913.45148
-158.06776 -119.26164 914.24573
-157.50748 -119.23734 914.07312
-157.11353 -119.33924 914.86798
-156.78912 -119.49484 916.0744
-5.3418159 -117.76946 904.8822
-4.8129501 -117.59287 903.52551
-4.2920055 -117.59132 903.51361
-3.7704268 -117.56861 903.33899
-3.2489548 -117.54247 903.138
-2.7284949 -117.54997 903.19543
-2.2067924 -117.49651 902.78448
-1.6868677 -117.53172 903.05463
-1.1668767 -117.59161 903.51465
-0.64622873 -117.63431 903.84216
-0.12512426 -117.57296 903.37048
0.39571032 -117.59305 903.52429
0.91643101 -117.57171 903.35974
1.4368343 -117.54251 903.13489
1.9580815 -117.57767 903.40436
2.4794297 -117.60439 903.60895
3.0027323 -117.69724 904.32159
3.5268779 -117.79185 905.04779
4.0537868 -117.9416 906.19745
-193.7679 -116.07114 892.6507
-193.25745 -116.07469 892.6936
-192.45717 -115.90372 891.39423
-191.72913 -115.77546 890.42328
-191.11879 -115.71777 889.99506
-190.57147 -115.69802 889.85864
-190.05605 -115.69759 889.87073
-189.59192 -115.72847 890.12366
-189.12662 -115.7588 890.37219
-188.58022 -115.73951 890.2392
-188.04478 -115.72687 890.15723
-187.4946 -115.70507 890.00488
-187.02083 -115.73042 890.21509
-186.55028 -115.7579 890.44183
-186.10056 -115.79852 890.76941
-185.66092 -115.84563 891.14709
-185.25534 -115.91433 891.69073
-184.8662 -115.99372 892.31665
-184.62241 -116.16502 893.64948
-177.21088 -118.46534 911.66437
-176.70183 -118.47739 911.77191
-175.9236 -118.30849 910.48694
-175.36369 -118.28584 910.32739
-174.71355 -118.20201 909.6969
-174.17854 -118.19579 909.66382
-173.62727 -118.17847 909.54517
-173.12091 -118.1917 909.66162
-172.59669 -118.19279 909.68463
-172.10751 -118.21796 909.89282
-171.5641 -118.20589 909.81464
-171.01608 -118.19059 909.71136
-170.52313 -118.21337 909.90112
-170.00314 -118.21747 909.94714
-169.49658 -118.23098 910.06555
-168.9751 -118.23412 910.10419
-168.43144 -118.22173 910.02313
-167.93127 -118.23988 910.17706
-167.44382 -118.26712 910.40112
-166.93367 -118.27844 910.50256
-166.43112 -118.29525 910.64618
-165.93285 -118.31521 910.81403
-165.41582 -118.32188 910.87952
-164.88969 -118.32205 910.89502
-164.35114 -118.31329 910.84167
-163.8584 -118.33757 911.0426
-163.32982 -118.33603 911.0448
-162.86584 -118.38144 911.40845
-162.35373 -118.39205 911.50409
-161.83499 -118.39786 911.56281
-161.3325 -118.41564 911.71362
-160.86295 -118.45781 912.05212
-160.35997 -118.47555 912.20258
-159.86377 -118.49842 912.39252
-159.46568 -118.59441 913.14545
-158.96182 -118.61214 913.29559
-158.38702 -118.57685 913.03766
-157.99213 -118.67647 913.81842
-157.46425 -118.67653 913.83258
-156.92961 -118.67148 913.80731
-156.60533 -118.82602 915.01093
-156.05153 -118.80684 914.87689
-155.72571 -118.96171 916.08295
-155.39906 -119.117 917.2923
-5.865386 -117.2849 905.1803
-5.3392344 -117.18959 904.44489
-4.8126326 -117.06275 903.46588
-4.292345 -117.07732 903.57843
-3.7706935 -117.05361 903.39526
-3.2498236 -117.05044 903.37067
-2.7285714 -117.03102 903.2207
-2.208328 -117.05425 903.39972
-1.6872002 -117.03043 903.21564
-1.1669563 -117.07403 903.55176
-0.64625865 -117.10562 903.79523
-0.12522513 -117.0856 903.6402
0.39579186 -117.11356 903.85553
0.9165709 -117.07942 903.59149
1.4371217 -117.04891 903.35547
1.9582219 -117.06941 903.51306
2.4815879 -117.18835 904.43024
3.0032454 -117.1981 904.50476
3.5287189 -117.33296 905.54474
4.0561447 -117.48962 906.75305
-193.58348 -115.44467 891.81042
-193.25647 -115.5576 892.69849
-192.5571 -115.4479 891.86652
-191.74455 -115.26954 890.50421
-191.17967 -115.23955 890.28796
-190.68219 -115.25011 890.38495
-190.09906 -115.20882 890.08142
-189.62959 -115.2364 890.30981
-189.1469 -115.25604 890.47699
-188.63005 -115.25493 890.48383
-188.10204 -115.24698 890.43768
-187.57147 -115.23743 890.37915
-187.04845 -115.23245 890.35602
-186.61232 -115.28114 890.74744
-186.26033 -115.3822 891.54364
-185.71634 -115.36456 891.42255
-185.39723 -115.48692 892.38312
-185.09987 -115.62354 893.45404
-176.84023 -118.04259 912.49603
-176.24022 -117.99403 912.13556
-175.43611 -117.80813 910.71332
-174.89885 -117.80083 910.67169
-174.2869 -117.74305 910.23962
-173.62785 -117.65299 909.55817
-173.17659 -117.70361 909.96423
-172.71295 -117.74612 910.30737
-172.16084 -117.72838 910.18488
-171.6478 -117.73731 910.26849
-171.06258 -117.69666 909.96863
-170.60297 -117.74244 910.3371
-170.00381 -117.69189 909.96075
-169.50258 -117.70904 910.10779
-168.97278 -117.70639 910.10175
-168.43234 -117.6963 910.03802
-167.92889 -117.71207 910.17432
-167.44141 -117.73914 910.39801
-166.93123 -117.7504 910.49933
-166.43315 -117.77029 910.6673
-165.9106 -117.77293 910.70197
-165.41751 -117.79657 910.89899
-164.88715 -117.79373 910.89111
-164.33353 -117.77421 910.75427
-163.84828 -117.80372 910.99658
-163.32719 -117.80757 911.04034
-162.86319 -117.85273 911.40369
-162.34917 -117.8619 911.48865
-161.83229 -117.86904 911.55774
-161.31004 -117.87231 911.59692
-160.81911 -117.89854 911.81378
-160.30782 -117.90997 911.91602
-159.86098 -117.96906 912.38678
-159.34976 -117.98088 912.49194
-158.90994 -118.0458 913.00775
-158.32838 -118.0055 912.7099
-157.91563 -118.09119 913.38635
-157.43132 -118.12373 913.65173
-156.87137 -118.09957 913.47845
-156.39204 -118.13615 913.77502
-156.03606 -118.26646 914.79651
-155.64619 -118.37188 915.62549
-155.21181 -118.44405 916.19733
-154.68858 -118.4487 916.24677
-154.26614 -118.53081 916.89539
-153.79301 -118.57439 917.24597
-5.8642731 -116.74003 905.01343
-5.3405042 -116.69512 904.66541
-4.8142791 -116.58026 903.77496
-4.2931266 -116.57613 903.74292
-3.7711887 -116.54661 903.51392
-3.2497535 -116.52563 903.35126
-2.7295551 -116.54947 903.53583
-2.2093966 -116.58664 903.82379
-1.6882682 -116.57759 903.75336
-1.1674381 -116.59341 903.87567
-0.64628851 -116.57701 903.74817
-0.12532605 -116.59798 903.91016
0.39581782 -116.61732 904.05981
0.91690361 -116.60738 903.98212
1.4384519 -116.6422 904.25146
1.9601337 -116.66649 904.43909
2.4831254 -116.74221 905.02539
3.0066683 -116.81308 905.57404
3.5333838 -116.96698 906.76642
-193.31325 -115.07488 892.97003
-192.74338 -115.04307 892.73853
-191.88779 -114.84006 891.17877
-191.29083 -114.79116 890.81488
-190.77127 -114.78858 890.81024
-190.26904 -114.79645 890.88672
-189.75496 -114.79716 890.90771
-189.14786 -114.74146 890.49084
-188.68933 -114.77586 890.77307
-188.10063 -114.73102 890.44049
-187.58804 -114.73249 890.46722
-187.06834 -114.72961 890.46014
-186.71552 -114.82932 891.24933
-186.40302 -114.95448 892.23602
-185.98009 -115.01204 892.698
-185.70065 -115.15888 893.85315
-175.20001 -117.47623 912.24969
-174.4646 -117.3363 911.17767
-173.77065 -117.22345 910.31616
-173.2337 -117.21616 910.27423
-172.81516 -117.2892 910.85608
-172.24678 -117.26067 910.64911
-171.68843 -117.23882 910.49396
-171.08376 -117.1851 910.09137
-170.63647 -117.23918 910.52588
-170.07925 -117.21785 910.37463
-169.53647 -117.20635 910.29974
-168.97044 -117.17867 910.09912
-168.42998 -117.16859 910.03522
-167.93246 -117.18842 910.20361
-167.44769 -117.21729 910.4422
-166.95232 -117.23891 910.62445
-166.43069 -117.24216 910.664
-165.92787 -117.25874 910.80682
-165.41615 -117.2691 910.90155
-164.90971 -117.28329 911.02594
-164.34599 -117.25668 910.83344
-163.86667 -117.29033 911.10883
-163.34029 -117.29041 911.12347
-162.8786 -117.33708 911.50012
-162.34175 -117.32972 911.45703
-161.82961 -117.34026 911.5528
-161.29771 -117.33649 911.53741
-160.80792 -117.36343 911.7605
-160.29857 -117.37619 911.8736
-159.82729 -117.41702 912.20465
-159.3448 -117.44987 912.47375
-158.84802 -117.47237 912.66223
-158.25488 -117.42352 912.29645
-157.82161 -117.49335 912.85266
-157.41396 -117.58279 913.56122
-156.7431 -117.47557 912.74188
-156.37061 -117.59199 913.65997
-156.03311 -117.73561 914.78949
-155.56673 -117.78263 915.16833
-155.07663 -117.81195 915.40967
-154.53894 -117.80519 915.37061
-154.05533 -117.83974 915.65253
-153.66325 -117.94481 916.48236
-153.19008 -117.98811 916.83228
-152.84163 -118.12814 917.93378
-5.8638883 -116.20918 904.9541
-5.3401523 -116.16444 904.60577
-4.8170137 -116.12367 904.28833
-4.2936053 -116.06658 903.84375
-3.7722096 -116.05565 903.75854
-3.2502723 -116.02075 903.48663
-2.7304039 -116.06182 903.80634
-2.2097836 -116.08276 903.96918
-1.6883413 -116.05793 903.77551
-1.1675371 -116.07752 903.92773
-0.64637858 -116.06498 903.82971
-0.12542403 -116.10728 904.15863
0.39596197 -116.15557 904.53424
0.91775024 -116.19999 904.87952
1.4385755 -116.13452 904.36908
1.9611629 -116.20835 904.94342
2.4844015 -116.28315 905.52527
3.0069358 -116.30356 905.68335
3.5418777 -116.72686 908.97894
-193.49583 -114.66644 893.82269
-192.76958 -114.54211 892.8692
-192.04474 -114.41796 891.91693
-191.36551 -114.32039 891.17188
-190.78534 -114.28163 890.88525
-190.33482 -114.32055 891.20398
-189.81834 -114.31993 891.21466
-189.18707 -114.25 890.68488
-188.82417 -114.34219 891.41895
-188.12781 -114.23241 890.57843
-187.64505 -114.25207 890.74707
-187.16516 -114.27361 890.9303
-186.78954 -114.3591 891.61212
-186.49011 -114.49184 892.66229
-186.17242 -114.61407 893.63055
-173.9827 -116.83954 911.43683
-173.31689 -116.74594 910.72131
-172.8616 -116.79397 911.11072
-172.35007 -116.80419 911.20508
-171.76988 -116.76781 910.93585
-171.26994 -116.78592 911.09161
-170.70676 -116.76088 910.91089
-170.0858 -116.69604 910.41956
-169.55876 -116.69547 910.42944
-169.0685 -116.72025 910.63727
-168.49202 -116.68549 910.38043
-167.93706 -116.66545 910.23853
-167.45251 -116.69438 910.47845
-166.96146 -116.71891 910.6842
-166.43987 -116.72221 910.72418
-165.9572 -116.75291 910.97791
-165.41548 -116.7421 910.90784
-164.90768 -116.75527 911.02466
-164.35544 -116.73696 910.89594
-163.86932 -116.76562 911.13367
-163.33768 -116.76193 911.11902
-162.87595 -116.80837 911.49536
-162.34384 -116.80447 911.47888
-161.85503 -116.83179 911.70612
-161.295 -116.8077 911.53217
-160.80103 -116.83147 911.73151
-160.29579 -116.84718 911.86798
-159.77719 -116.85322 911.92896
-159.30977 -116.89685 912.2832
-158.8107 -116.91747 912.45795
-158.25204 -116.89421 912.2901
-157.78867 -116.94141 912.6723
-157.35307 -117.00959 913.21802
-156.71031 -116.92366 912.56104
-156.29097 -117.00442 913.20483
-155.87103 -117.08526 913.84943
-155.46066 -117.17387 914.55463
-154.88573 -117.13861 914.29297
-154.38016 -117.15576 914.44025
-153.96834 -117.24444 915.14581
-153.46504 -117.26381 915.31042
-153.03918 -117.34268 915.93951
-152.53902 -117.36494 916.12653
-152.30951 -117.59632 917.94604
-5.863472 -115.67841 904.89471
-5.3414369 -115.66929 904.82336
-4.8170223 -115.60109 904.28998
-4.2948923 -115.57867 904.11462
-3.7738543 -115.58256 904.1449
-3.2514548 -115.54044 903.81531
-2.7311738 -115.57054 904.05066
-2.2105291 -115.59747 904.26111
-1.6889611 -115.57569 904.09033
-1.167976 -115.59209 904.21832
-0.64661914 -115.5741 904.07721
-0.12551185 -115.60693 904.33362
0.39587155 -115.62481 904.4729
0.91773456 -115.68289 904.92676
1.4394931 -115.69308 905.00592
1.9628981 -115.79317 905.78815
2.4879484 -115.92937 906.85284
-193.04138 -114.1863 894.13739
-192.18234 -113.98357 892.56531
-191.45335 -113.85705 891.59021
-190.85208 -113.80603 891.20612
-190.40594 -113.84748 891.54626
-189.89911 -113.85277 891.60315
-189.30527 -113.80579 891.25061
-188.84671 -113.84009 891.53467
-188.24571 -113.78849 891.14587
-187.73022 -113.78844 891.16083
-187.30852 -113.84537 891.62201
-186.88635 -113.90234 892.08362
-186.60828 -114.04769 893.2373
-186.3295 -114.19342 894.39392
-173.45721 -116.31348 911.46838
-172.92796 -116.31187 911.47034
-172.40436 -116.31403 911.50195
-171.84183 -116.28986 911.32721
-171.36795 -116.32575 911.62299
-170.77805 -116.28284 911.30127
-170.14975 -116.21344 910.77179
-169.63914 -116.22423 910.87091
-169.09656 -116.21313 910.79834
-168.61494 -116.24397 911.0545
-168.00362 -116.18533 910.60919
-167.46375 -116.17587 910.54944
-166.96666 -116.19612 910.72247
-166.46693 -116.21468 910.8822
-165.96135 -116.22925 911.01056
-165.45998 -116.24686 911.16284
-164.92982 -116.2443 911.15692
-164.35742 -116.21186 910.91681
-163.88174 -116.24781 911.21283
-163.34315 -116.23922 911.15955
-162.87334 -116.27969 911.49072
-162.34117 -116.27576 911.47394
-161.85236 -116.30295 911.70111
-161.29228 -116.27894 911.52686
-160.78461 -116.29267 911.64844
-160.28792 -116.31448 911.83325
-159.78856 -116.33449 912.00391
-159.31549 -116.37383 912.32611
-158.80788 -116.3881 912.45184
-158.27098 -116.38095 912.40948
-157.78578 -116.41189 912.66571
-157.35019 -116.47975 913.21149
-156.7074 -116.39417 912.5542
-156.21136 -116.4174 912.74988
-155.85983 -116.54884 913.79401
-155.37605 -116.58192 914.06702
-154.86008 -116.59101 914.15173
-154.31367 -116.57718 914.05676
-153.84193 -116.61984 914.40479
-153.36542 -116.65916 914.72644
-152.86595 -116.68122 914.9129
-152.46082 -116.7757 915.66711
-152.13 -116.928 916.87451
-151.79836 -117.08067 918.08508
-5.8633032 -115.15199 904.86865
-5.3422318 -115.16334 904.95801
-4.8167048 -115.07073 904.23035
-4.2949715 -115.05813 904.13129
-3.7737489 -115.05666 904.11969
-3.2518854 -115.03206 903.92615
-2.7317653 -115.07149 904.2359
-2.2109978 -115.09749 904.43994
-1.6896973 -115.10101 904.46741
-1.1681801 -115.08633 904.35168
-0.64712018 -115.1293 904.68884
-0.12555389 -115.09354 904.40753
0.39582288 -115.10625 904.5069
0.91784614 -115.18573 905.13086
1.4409398 -115.29073 905.95544
1.9643055 -115.35777 906.48163
-193.09355 -113.6997 894.38818
-192.28236 -113.52621 893.039
-191.54416 -113.39499 892.02228
-190.8878 -113.31164 891.38214
-190.41811 -113.33894 891.61243
-189.94574 -113.36481 891.83136
-189.35597 -113.32053 891.49854
-188.86926 -113.33788 891.65039
-188.46716 -113.40622 892.20349
-187.84903 -113.34461 891.73407
-187.34795 -113.35345 891.81903
-187.05115 -113.48629 892.87946
-186.79245 -113.64306 894.12823
-173.15349 -115.93594 912.66895
-172.5551 -115.88833 912.30884
-172.0463 -115.90078 912.42145
-171.57475 -115.93848 912.73291
-171.02115 -115.9208 912.60834
-170.39723 -115.85519 912.10632
-169.66336 -115.7142 911.01086
-169.1725 -115.7386 911.21729
-168.74677 -115.80781 911.77667
-168.06017 -115.69788 910.92554
-167.46504 -115.65044 910.56641
-166.98601 -115.68313 910.83801
-166.47568 -115.69427 910.94006
-165.98166 -115.71683 911.13196
-165.45747 -115.71847 911.15906
-164.9559 -115.73597 911.31104
-164.44177 -115.74474 911.39435
-163.87915 -115.71933 911.20837
-163.34885 -115.71665 911.20129
-162.82848 -115.721 911.24969
-162.33376 -115.74369 911.44226
-161.84967 -115.77412 911.69598
-161.31482 -115.76831 911.66418
-160.78188 -115.76385 911.64294
-160.29028 -115.78924 911.85675
-159.78577 -115.8054 911.99799
-159.3127 -115.84457 912.32019
-158.82082 -115.87024 912.53619
-158.26813 -115.85159 912.40308
-157.79596 -115.89197 912.73474
-157.27747 -115.89845 912.79956
-156.72047 -115.87653 912.64044
-156.18997 -115.8741 912.63501
-155.81259 -115.98565 913.5271
-155.2628 -115.96918 913.41095
-154.79547 -116.01439 913.78052
-154.2901 -116.0313 913.92725
-153.78746 -116.0504 914.09113
-153.2619 -116.05227 914.1192
-152.78767 -116.09315 914.45465
-152.25238 -116.08775 914.42554
-151.88268 -116.20901 915.39404
-151.55121 -116.36048 916.60046
-151.16522 -116.47102 917.48444
-5.3446488 -114.69208 905.36755
-4.8166099 -114.54576 904.21252
-4.2947183 -114.52787 904.07129
-3.77353 -114.52639 904.05963
-3.2530951 -114.55099 904.2536
-2.7324247 -114.5751 904.44366
-2.2111652 -114.58002 904.4823
-1.6902277 -114.61198 904.73431
-1.1684072 -114.5827 904.50287
-0.64726561 -114.62643 904.84778
-0.12571396 -114.65875 905.10248
0.39619142 -114.70848 905.49451
0.91825217 -114.72115 905.59399
1.4412639 -114.80045 906.2193
-192.22383 -112.97515 892.77637
-191.61214 -112.91898 892.34802
-191.17915 -112.96811 892.75183
-190.5771 -112.91734 892.36609
-190.05788 -112.9155 892.367
-189.47595 -112.87628 892.07263
-189.03792 -112.92283 892.45587
-188.56873 -112.95094 892.69354
-187.86223 -112.83669 891.80591
-187.52846 -112.9463 892.68756
-187.17334 -113.04361 893.47205
-186.9729 -113.23516 895.00134
-172.849 -115.5574 913.87256
-172.23412 -115.49926 913.42743
-171.79321 -115.55781 913.90497
-171.40465 -115.65201 914.66461
-170.65375 -115.50156 913.48932
-169.76447 -115.25622 911.56354
-169.19916 -115.23001 911.37073
-168.76341 -115.29214 911.87659
-168.16844 -115.24554 911.52234
-167.48637 -115.13877 910.69226
-167.0329 -115.18899 911.1037
-166.48047 -115.17105 910.97614
-165.98053 -115.18942 911.13574
-165.48999 -115.21446 911.34802
-164.96442 -115.2152 911.36804
-164.43983 -115.21662 911.39349
-163.91701 -115.2193 911.42883
-163.34625 -115.18818 911.19672
-162.82584 -115.19249 911.24487
-162.33112 -115.21505 911.43744
-161.847 -115.24533 911.69086
-161.32898 -115.25159 911.75427
-160.79283 -115.24487 911.71509
-160.30621 -115.27373 911.95734
-159.81618 -115.30032 912.18158
-159.30991 -115.31534 912.31421
-158.80223 -115.32942 912.43945
-158.27182 -115.32705 912.43445
-157.79311 -115.36245 912.72827
-157.27457 -115.36887 912.79279
-156.73724 -115.3615 912.74817
-156.18704 -115.3446 912.62799
-155.77744 -115.43173 913.33099
-155.25983 -115.43918 913.4035
-154.69814 -115.41379 913.21606
-154.28709 -115.50098 913.91956
-153.77144 -115.5102 914.00598
-153.23642 -115.50489 913.97729
-152.78461 -115.56247 914.44641
-152.27844 -115.57921 914.59216
-151.87958 -115.67777 915.3855
-151.4944 -115.78751 916.26709
-151.1331 -115.91631 917.29968
-4.8261504 -114.24893 906.00354
-4.2955375 -114.02702 904.24377
-3.7745805 -114.03554 904.31134
-3.2528789 -114.02069 904.19348
-2.7336152 -114.10197 904.83771
-2.2118151 -114.08904 904.73517
-1.6907833 -114.12219 904.99762
-1.1684937 -114.06209 904.52075
-0.64756924 -114.14568 905.18329
-0.1258934 -114.24067 905.93604
0.39670122 -114.35034 906.80524
0.91994125 -114.41566 907.32269
-192.40912 -112.56705 893.64612
-191.89575 -112.5691 893.67804
-191.33905 -112.5457 893.50775
-190.6754 -112.45908 892.83557
-190.10727 -112.42847 892.60815
-189.58638 -112.42573 892.60181
-189.14336 -112.46925 892.96283
-188.74031 -112.53686 893.51501
-188.29135 -112.57739 893.85229
-187.91171 -112.65971 894.52124
-169.32581 -114.78906 912.06274
-168.86067 -114.83118 912.41187
-168.23126 -114.76151 911.87268
-167.61333 -114.69926 911.39246
-167.0762 -114.69208 911.34973
-166.58772 -114.71836 911.57288
-166.005 -114.67971 911.27997
-165.5014 -114.69564 911.42078
-164.97897 -114.69857 911.45831
-164.43729 -114.6881 911.38922
-163.91446 -114.69074 911.4245
-163.34364 -114.65974 911.19208
-162.82323 -114.664 911.24011
-162.32477 -114.68384 911.41174
-161.83131 -114.70733 911.61249
-161.33653 -114.73003 911.80688
-160.80464 -114.7264 911.79205
-160.30693 -114.74723 911.97144
-159.78868 -114.75343 912.03455
-159.3071 -114.78611 912.30811
-158.81517 -114.8115 912.5238
-158.29807 -114.81882 912.59576
-157.78551 -114.82949 912.69427
-157.2505 -114.82385 912.66309
-156.72435 -114.82465 912.68311
-156.19724 -114.82475 912.69751
-155.74811 -114.88237 913.16919
-155.23674 -114.89432 913.27765
-154.69514 -114.88389 913.20837
-154.25821 -114.95141 913.75848
-153.73901 -114.95786 913.8233
-153.22449 -114.96786 913.91626
-152.78154 -115.03184 914.43823
-152.27536 -115.04847 914.5838
-151.79364 -115.08376 914.87769
-151.38602 -115.17568 915.6217
-150.92477 -115.22731 916.04541
-150.52963 -115.32993 916.87445
-4.3060894 -113.78315 906.46503
-3.7778692 -113.61171 905.09924
-3.2539611 -113.53468 904.48547
-2.7336576 -113.57938 904.84125
-2.2116985 -113.55848 904.6745
-1.6907017 -113.59145 904.93695
-1.1696404 -113.64756 905.38367
-0.647937 -113.67581 905.6084
-0.12604263 -113.79427 906.55164
0.39681721 -113.87775 907.21613
-194.28383 -112.53716 897.50867
-192.79276 -112.27345 895.43695
-191.95047 -112.08405 893.94196
-191.62271 -112.19488 894.84149
-190.97804 -112.12025 894.26178
-190.33833 -112.04813 893.70221
-189.6371 -111.93932 892.84973
-189.31046 -112.05161 893.76093
-188.86671 -112.09502 894.12262
-188.58263 -112.23368 895.2442
-169.14603 -114.49694 913.96356
-168.45082 -114.38351 913.07257
-167.74448 -114.2618 912.11536
-167.14857 -114.21479 911.75439
-166.58531 -114.18983 911.56946
-166.05212 -114.18539 911.5484
-165.53088 -114.18918 911.5929
-165.06802 -114.2334 911.96014
-164.45566 -114.1741 911.50092
-163.92902 -114.17414 911.51532
-163.34184 -114.13187 911.19202
-162.9052 -114.19484 911.7088
-162.32211 -114.15524 911.40674
-161.82863 -114.17862 911.6073
-161.36459 -114.22295 911.97534
-160.84753 -114.22995 912.04517
-160.34872 -114.24998 912.21912
-159.81261 -114.24349 912.18103
-159.30432 -114.25692 912.30212
-158.81979 -114.28752 912.5603
-158.33623 -114.31904 912.82574
-157.77658 -114.29563 912.65253
-157.2476 -114.29439 912.65631
-156.73143 -114.30244 912.73438
-156.19743 -114.29751 912.70862
-155.73346 -114.34398 913.09332
-155.23376 -114.36443 913.27014
-154.69214 -114.35403 913.20074
-154.22949 -114.40215 913.59845
-153.73599 -114.42763 913.81537
-153.22145 -114.43755 913.90814
-152.74396 -114.47534 914.22327
-152.27226 -114.51773 914.57526
-151.71425 -114.49529 914.40924
-151.19142 -114.49933 914.45483
-150.75459 -114.56876 915.02252
-150.3054 -114.62926 915.51892
-149.93932 -114.75376 916.52661
-149.50163 -114.82415 917.10205
-3.258882 -113.18279 905.85333
-2.7358832 -113.14708 905.56738
-2.2146442 -113.18448 905.86639
-1.6910565 -113.08997 905.10986
-1.1705338 -113.20448 906.02594
-0.64879692 -113.29697 906.76575
-0.12629673 -113.44127 907.92029
-195.30586 -112.00861 897.41168
-195.03723 -112.15262 898.58136
-194.28305 -112.01745 897.51416
-193.59328 -111.91879 896.7395
-192.93073 -111.8354 896.08691
-192.10818 -111.65855 894.68561
-191.67741 -111.70909 895.10608
-191.2751 -111.7765 895.66193
-190.61275 -111.69193 894.99976
-190.06314 -111.67314 894.86469
-189.91606 -111.89139 896.62915
-189.08575 -111.70721 895.16882
-168.19261 -114.03844 914.56195
-167.29924 -113.79027 912.586
-166.6254 -113.69029 911.79865
-166.12674 -113.70962 911.9679
-165.66039 -113.75123 912.31586
-165.16681 -113.77436 912.51569
-164.47781 -113.66262 911.63361
-163.99008 -113.68967 911.86462
-163.40926 -113.65215 911.57782
-162.92181 -113.67953 911.81165
-162.34424 -113.64401 911.54077
-161.82597 -113.6499 911.60211
-161.40491 -113.72433 912.21307
-160.85234 -113.70628 912.08228
-160.34767 -113.72209 912.22296
-159.81679 -113.71935 912.21484
-159.30347 -113.72913 912.30713
-158.81699 -113.75819 912.55414
-158.33342 -113.78954 912.81946
-157.77371 -113.7662 912.64594
-157.26375 -113.77869 912.75983
-156.72272 -113.76871 912.69354
-156.20027 -113.77221 912.73517
-155.73051 -113.81423 913.08594
-155.24532 -113.84523 913.34814
-154.68916 -113.82421 913.19305
-154.21591 -113.86427 913.52795
-153.70905 -113.8797 913.66528
-153.17311 -113.87362 913.62988
-152.73746 -113.9423 914.19446
-152.19424 -113.93095 914.1167
-151.77461 -114.01234 914.78308
-151.25061 -114.01565 914.82294
-150.82211 -114.0912 915.44244
-150.2697 -114.07323 915.31146
-149.75215 -114.08169 915.39258
-149.32834 -114.16187 916.04901
-148.93169 -114.26346 916.87738
-148.65736 -114.45996 918.46735
-2.2166288 -112.76022 906.6651
-1.6946614 -112.80467 907.02222
-1.1716357 -112.78382 906.85425
-195.56046 -111.63473 898.59058
-194.35986 -111.54229 897.87811
-193.59244 -111.39953 896.74463
-192.94066 -111.32272 896.14209
-192.66928 -111.46559 897.3078
-191.88289 -111.31046 896.07471
-191.61015 -111.45327 897.23999
-166.87056 -113.3298 913.14996
-166.24547 -113.26343 912.62946
-165.70898 -113.25718 912.59338
-165.18179 -113.25727 912.60834
-164.59915 -113.21921 912.31586
-164.01204 -113.17782 911.99652
-163.45276 -113.15542 911.83026
-162.9192 -113.15077 911.80688
-162.39694 -113.15394 911.8465
-161.94208 -113.20425 912.26599
-161.40273 -113.19565 912.21063
-160.84964 -113.17731 912.07678
-160.35118 -113.19742 912.25281
-159.81404 -113.19025 912.20905
-159.30678 -113.20429 912.33594
-158.83191 -113.24151 912.64972
-158.33058 -113.26006 912.81299
-157.77084 -113.2368 912.63928
-157.26552 -113.25256 912.78003
-156.72562 -113.24346 912.72034
-156.19734 -113.24271 912.72797
-155.72757 -113.28453 913.07861
-155.22783 -113.30473 913.25519
-154.68616 -113.29439 913.18524
-154.20654 -113.32957 913.48248
-153.6981 -113.34375 913.61017
-153.17004 -113.34349 913.62158
-152.67906 -113.37076 913.8548
-152.19116 -113.40053 914.10809
-151.70802 -113.43406 914.39172
-151.18517 -113.43803 914.43707
-150.74831 -113.50677 915.00446
-150.26654 -113.54207 915.30225
-149.74898 -113.55048 915.38318
-149.2635 -113.58335 915.66138
-148.9285 -113.73138 916.86786
-148.59265 -113.8798 918.07751
-79.779823 -111.81261 902.70923
-194.49947 -111.1026 898.5321
-193.75804 -110.97559 897.52081
-193.15598 -110.92796 897.15125
-192.8846 -111.0705 898.3197
-192.33281 -111.05187 898.18481
-191.60918 -110.93367 897.24451
-190.40175 -110.83495 896.47723
-166.55728 -112.9474 914.35089
-165.81038 -112.79871 913.16144
-165.32045 -112.82445 913.38409
-164.61562 -112.70321 912.41693
-164.05215 -112.67829 912.22931
-163.61653 -112.74133 912.75378
-163.07625 -112.73238 912.6955
-162.43762 -112.65521 912.08478
-161.98105 -112.70419 912.49536
-161.42056 -112.68095 912.32123
-160.88368 -112.6741 912.27966
-160.35568 -112.67342 912.28821
-159.82968 -112.67416 912.30804
-159.30402 -112.67514 912.3299
-158.82912 -112.71217 912.64349
-158.31458 -112.72119 912.73047
-157.76801 -112.70741 912.63263
-157.25798 -112.71975 912.74615
-156.73134 -112.72018 912.76349
-156.20506 -112.72092 912.78302
-155.72462 -112.75483 913.07129
-155.20198 -112.75829 913.11298
-154.68317 -112.7646 913.17755
-154.22047 -112.812 913.57489
-153.69508 -112.81369 913.60211
-153.18007 -112.82302 913.69122
-152.66331 -112.83116 913.77051
-152.17242 -112.85852 914.00549
-151.68849 -112.89127 914.284
-151.18205 -112.90741 914.4281
-150.74516 -112.97581 914.99536
-150.15993 -112.93311 914.66272
-149.73668 -113.01237 915.31793
-149.26031 -113.05198 915.65186
-148.85175 -113.14339 916.4054
-148.33105 -113.14991 916.47137
-147.99457 -113.2975 917.67987
-147.47372 -113.30451 917.74969
-147.06802 -113.40036 918.53912
-146.46533 -113.34447 918.09937
-145.97609 -113.37627 918.36993
-145.6358 -113.52442 919.58289
-80.750458 -111.19471 901.91669
-80.186157 -111.13349 901.42761
-79.719452 -111.20766 902.03656
-79.300056 -111.3492 903.19189
-192.33191 -110.53177 898.18964
-165.49562 -112.41555 914.36163
-164.89583 -112.36684 913.97974
-164.12997 -112.20429 912.67181
-163.73529 -112.29527 913.4259
-163.21059 -112.29737 913.45715
-162.51866 -112.18404 912.5495
-162.00998 -112.19691 912.66809
-161.43146 -112.1613 912.39246
-160.90912 -112.16464 912.43365
-160.3956 -112.17417 912.52509
-159.836 -112.15141 912.35388
-159.31996 -112.15919 912.43103
-158.82864 -112.18446 912.65057
-158.31175 -112.1918 912.72394
-157.77599 -112.18577 912.68866
-157.2598 -112.19364 912.76648
-156.7299 -112.19178 912.76501
-156.21477 -112.20049 912.84949
-155.72636 -112.22852 913.09137
-155.19371 -112.22475 913.07422
-154.68019 -112.23483 913.16986
-154.21748 -112.28198 913.56702
-153.7 -112.28943 913.64111
-153.17703 -112.29293 913.68304
-152.66026 -112.30099 913.76208
-152.16693 -112.32644 913.98242
-151.65933 -112.34146 914.1181
-151.15202 -112.35683 914.25641
-150.65318 -112.37862 914.44696
-150.13103 -112.3831 914.4967
-149.64078 -112.41159 914.74176
-149.25714 -112.52064 915.64227
-148.70317 -112.50159 915.50055
-148.29419 -112.59251 916.25354
-147.90512 -112.69926 917.13531
-147.42038 -112.7336 917.4278
-146.80074 -112.66465 916.87976
-146.24628 -112.64542 916.73621
-145.78922 -112.70134 917.20422
-145.44911 -112.8484 918.414
-145.05635 -112.95555 919.29895
-81.209686 -110.59146 901.24341
-80.607849 -110.47897 900.33405
-80.133797 -110.54127 900.84918
-79.661331 -110.60661 901.38892
-79.242134 -110.74725 902.54248
-78.821892 -110.88828 903.69904
-165.18571 -112.03525 915.59625
-164.68867 -112.05701 915.78827
-163.81308 -111.82051 913.86963
-163.41762 -111.91127 914.62555
-162.81422 -111.85977 914.21887
-162.11598 -111.74255 913.27484
-161.50397 -111.6842 912.81195
-160.92848 -111.65081 912.5531
-160.39978 -111.64977 912.55859
-159.84669 -111.63168 912.42468
-159.3604 -111.66029 912.67236
-158.82587 -111.65516 912.64435
-158.30891 -111.66242 912.71747
-157.78816 -111.66702 912.7688
-157.25874 -111.6655 912.77014
-156.75426 -111.68173 912.91663
-156.21751 -111.67503 912.87543
-155.73045 -111.7039 913.12506
-155.19608 -111.69891 913.0979
-154.68658 -111.71185 913.21741
-154.20976 -111.74858 913.53113
-153.71393 -111.77172 913.73383
-153.17805 -111.76582 913.69897
-152.66304 -111.77513 913.78857
-152.15279 -111.78802 913.90735
-151.65625 -111.8111 914.10938
-151.1489 -111.82635 914.24738
-150.65004 -111.84802 914.43781
-150.11116 -111.84001 914.38556
-149.58807 -111.84374 914.42938
-149.1803 -111.93405 915.18085
-148.66028 -111.94046 915.2464
-148.29099 -112.06082 916.24365
-147.80449 -112.09316 916.52112
-147.38304 -112.17524 917.20544
-146.78966 -112.12659 916.82056
-146.17508 -112.06132 916.29987
-145.73407 -112.12914 916.86731
-145.39401 -112.27538 918.07605
-144.93581 -112.33115 918.54504
-144.51462 -112.41613 919.25269
-81.869209 -110.25981 902.78735
-81.165352 -110.01147 900.76154
-80.595558 -109.94283 900.20685
-80.127075 -110.01238 900.78375
-79.653297 -110.07555 901.30829
-79.234138 -110.21551 902.46155
-78.813927 -110.35583 903.61792
-163.49538 -111.43571 915.07037
-163.13033 -111.54761 916.00348
-162.19699 -111.27037 913.74091
-161.55196 -111.18974 913.0929
-161.01021 -111.17992 913.02631
-160.48424 -111.18098 913.04883
-159.91614 -111.15273 912.83081
-159.42683 -111.17925 913.06262
-158.83136 -111.13166 912.68561
-158.32178 -111.14407 912.80133
-157.84306 -111.17828 913.09613
-157.2681 -111.14472 912.83423
-156.7585 -111.15727 912.95099
-156.22821 -111.1552 912.94763
-155.74435 -111.18623 913.21631
-155.1931 -111.16924 913.09021
-154.70628 -111.19841 913.34344
-154.20679 -111.21865 913.52325
-153.71091 -111.24165 913.72565
-153.188 -111.24517 913.76813
-152.67903 -111.25887 913.8941
-152.1497 -111.2578 913.89862
-151.63213 -111.26532 913.97388
-151.11513 -111.27332 914.05292
-150.62726 -111.30293 914.30927
-150.108 -111.30944 914.37616
-149.58487 -111.31314 914.41974
-149.12645 -111.36517 914.86035
-148.65707 -111.40936 915.23657
-148.1376 -111.41619 915.30579
-147.71695 -111.49767 915.98822
-147.22517 -111.52586 916.23285
-146.64418 -111.48642 915.92181
-146.15961 -111.52026 916.21277
-145.73077 -111.59702 916.85645
-145.33044 -111.69625 917.68469
-144.80408 -111.69901 917.72015
-144.36241 -111.76733 918.29437
-143.91196 -111.82934 918.81665
-87.032982 -113.06547 930.1239
-83.464302 -109.78266 903.13348
-82.936111 -109.77293 903.06122
-82.391434 -109.74113 902.80719
-81.646774 -109.44088 900.3446
-81.155319 -109.47832 900.66016
-80.575348 -109.3961 899.99121
-80.113907 -109.47477 900.64581
-79.6493 -109.55013 901.27307
-79.230156 -109.68941 902.42627
-78.809952 -109.82906 903.58252
-161.87714 -110.88485 914.94043
-161.15996 -110.75525 913.88513
-160.50371 -110.66678 913.16913
-159.97758 -110.66778 913.19122
-159.46362 -110.6772 913.28296
-158.95804 -110.69252 913.42322
-158.39362 -110.66683 913.22516
-157.9548 -110.72903 913.7522
-157.35571 -110.67892 913.35248
-156.8092 -110.66557 913.2561
-156.27151 -110.65837 913.21033
-155.75682 -110.66748 913.29913
-155.23537 -110.67182 913.34857
-154.71512 -110.67705 913.40533
-154.22363 -110.70296 913.63275
-153.72211 -110.72182 913.80188
-153.21719 -110.73836 913.9519
-152.68428 -110.73473 913.9353
-152.14664 -110.72759 913.88995
-151.67044 -110.7653 914.21454
-151.10516 -110.73801 914.0025
-150.58174 -110.74126 914.04279
-150.07585 -110.75751 914.19019
-149.58171 -110.78257 914.4101
-149.11961 -110.83162 914.82825
-148.62018 -110.85316 915.01923
-148.08794 -110.8503 915.00879
-147.69818 -110.95448 915.88171
-147.12875 -110.92392 915.64258
-146.62053 -110.93947 915.78394
-146.09981 -110.94563 915.84784
-145.68204 -111.03031 916.55969
-145.27003 -111.12001 917.31311
-144.70056 -111.08948 917.07391
-144.08315 -111.02177 916.52783
-143.67612 -111.11628 917.32092
-143.28209 -111.22158 918.203
-87.02906 -112.52383 930.09229
-83.867264 -109.10831 901.86816
-83.346764 -109.10779 901.87158
-82.815506 -109.09311 901.758
-82.169975 -108.92677 900.39056
-81.627274 -108.89549 900.13953
-81.110519 -108.89863 900.17303
-80.57132 -108.87151 899.9563
-80.102692 -108.94001 900.52991
-79.645279 -109.02476 901.23779
-79.226158 -109.16337 902.39087
-78.809967 -109.30786 903.59271
-160.73055 -110.29479 914.46942
-160.16745 -110.27083 914.28473
-159.58206 -110.23129 913.97089
-159.02246 -110.20939 913.8031
-158.39082 -110.13724 913.21869
-157.96388 -110.20742 913.81445
-157.40028 -110.1824 913.62079
-156.88347 -110.19008 913.69824
-156.27155 -110.13078 913.22028
-155.75734 -110.14017 913.31183
-155.23598 -110.14457 913.36182
-154.72499 -110.15637 913.47327
-154.22916 -110.17908 913.67517
-153.72423 -110.19543 913.82428
-153.21043 -110.20551 913.92133
-152.69843 -110.21696 914.02972
-152.17474 -110.22001 914.06854
-151.66736 -110.23492 914.20563
-151.10205 -110.20773 913.99341
-150.57623 -110.20921 914.01904
-150.05627 -110.21504 914.08057
-149.57854 -110.25201 914.40057
-149.09955 -110.28832 914.7149
-148.61697 -110.32222 915.00922
-148.08472 -110.31938 914.99872
-147.59766 -110.35029 915.26813
-147.05806 -110.342 915.21246
-146.55803 -110.36344 915.40338
-146.09378 -110.41209 915.81982
-145.66385 -110.48711 916.45508
-145.18707 -110.52702 916.79907
-144.69724 -110.55726 917.06268
-144.0148 -110.44 916.10291
-143.55678 -110.49463 916.56885
-143.19554 -110.62441 917.65826
-142.87027 -110.78306 918.987
-87.565178 -111.98693 930.09155
-84.38324 -108.5827 901.82599
-83.756332 -108.4444 900.68512
-83.245567 -108.4557 900.78668
-82.687859 -108.40559 900.37805
-82.131538 -108.35667 899.97943
-81.623222 -108.37089 900.10498
-81.049034 -108.29723 899.50061
-80.551743 -108.32607 899.74762
-80.085106 -108.39676 900.34216
-79.613586 -108.4617 900.88892
-79.19458 -108.59953 902.04114
-78.731079 -108.67776 902.69818
-160.40846 -109.90767 915.66998
-159.66498 -109.76021 914.45538
-159.13742 -109.76069 914.47333
-158.63107 -109.77585 914.61359
-158.0388 -109.73145 914.25745
-157.39745 -109.65257 913.61401
-156.8806 -109.66017 913.6911
-156.26866 -109.60114 913.21301
-155.82527 -109.66032 913.71979
-155.23431 -109.61571 913.36169
-154.7515 -109.64741 913.63947
-154.23714 -109.65691 913.73218
-153.7236 -109.66705 913.8302
-153.22546 -109.68829 914.02069
-152.69539 -109.68673 914.02118
-152.17387 -109.69135 914.07306
-151.66994 -109.70869 914.2309
-151.10577 -109.68244 914.02557
-150.57309 -109.67894 914.00983
-150.05312 -109.68472 914.07111
-149.57536 -109.72149 914.39081
-149.09636 -109.75761 914.70502
-148.59947 -109.78078 914.91132
-148.07771 -109.78567 914.96521
-147.56445 -109.79691 915.07202
-147.10771 -109.85045 915.53125
-146.56129 -109.83716 915.43353
-146.09323 -109.88271 915.82617
-145.64877 -109.94641 916.37006
-145.04935 -109.89317 915.93921
-144.42398 -109.81981 915.34064
-143.96022 -109.86924 915.7655
-143.47469 -109.90238 916.0545
-143.11975 -110.03617 917.18237
-142.78835 -110.18909 918.46985
-84.824203 -107.96177 900.98779
-84.272079 -107.92012 900.64801
-83.752251 -107.91959 900.65118
-83.221634 -107.90504 900.53766
-82.644035 -107.82903 899.91083
-82.106667 -107.80486 899.71674
-81.565063 -107.77482 899.47351
-81.029373 -107.75222 899.29242
-80.530899 -107.77917 899.52472
-80.048897 -107.82864 899.94501
-79.565796 -107.87726 900.35822
-79.146988 -108.01427 901.50891
-78.692146 -108.10361 902.26184
-159.50465 -109.48437 916.59308
-158.6955 -109.29176 914.99451
-158.29115 -109.37759 915.72693
-157.56894 -109.2436 914.61896
-157.0237 -109.23183 914.53418
-156.31944 -109.10898 913.51929
-155.86722 -109.16182 913.9754
-155.30882 -109.14039 913.80969
-154.77919 -109.13911 913.81256
-154.28751 -109.16467 914.04016
-153.73257 -109.14549 913.89313
-153.23917 -109.17001 914.112
-152.69391 -109.15765 914.02203
-152.19434 -109.17797 914.20557
-151.66685 -109.17834 914.22205
-151.11691 -109.16248 914.1026
-150.57236 -109.15042 914.01495
-150.04999 -109.15442 914.06165
-149.5722 -109.19099 914.38123
-149.10107 -109.2327 914.74359
-148.59627 -109.24995 914.90131
-148.07449 -109.25478 914.95502
-147.56122 -109.26596 915.06165
-147.08289 -109.30318 915.38641
-146.55148 -109.30109 915.38196
-146.0872 -109.34924 915.79816
-145.61595 -109.39247 916.17328
-145.04604 -109.36166 915.92798
-144.42064 -109.28861 915.32922
-143.95685 -109.3378 915.75391
-143.44788 -109.35288 915.89307
-143.04054 -109.44585 916.68457
-142.69704 -109.58853 917.89227
-142.25726 -109.65804 918.48737
-85.241325 -107.31301 899.9079
-84.787346 -107.39536 900.60626
-84.21701 -107.33041 900.0694
-83.676811 -107.30331 899.84985
-83.170158 -107.31916 899.99054
-82.605095 -107.25937 899.49677
-82.069435 -107.23722 899.3186
-81.54554 -107.23028 899.26794
-81.009087 -107.20666 899.07727
-80.525345 -107.2529 899.4726
-80.037964 -107.29489 899.83209
-79.537636 -107.31994 900.04956
-79.118942 -107.45619 901.19958
-78.688171 -107.57774 902.22626
-157.99815 -109.01131 917.11993
-157.18256 -108.81342 915.46893
-156.42505 -108.65456 914.146
-155.87646 -108.64021 914.03906
-155.38402 -108.66503 914.26166
-154.82402 -108.64264 914.08685
-154.29204 -108.63982 914.0766
-153.77188 -108.6453 914.13641
-153.25647 -108.65421 914.22491
-152.72041 -108.64851 914.19031
-152.19839 -108.65275 914.2395
-151.71091 -108.68178 914.49713
-151.11542 -108.63337 914.10321
-150.59767 -108.64071 914.17828
-150.05257 -108.6283 914.0871
-149.59039 -108.67604 914.50208
-149.09789 -108.70199 914.7337
-148.59309 -108.71916 914.89136
-148.07127 -108.72393 914.94476
-147.558 -108.73505 915.05133
-147.07962 -108.77206 915.37585
-146.55475 -108.77482 915.41205
-146.08392 -108.81784 915.78729
-145.58022 -108.83661 915.95813
-145.04768 -108.83389 915.94812
-144.46231 -108.79135 915.60309
-143.99496 -108.83772 916.00616
-143.46794 -108.83914 916.03082
-143.06476 -108.93487 916.84943
-142.6319 -109.00864 917.48303
-142.18324 -109.07085 918.01929
-141.80574 -109.18829 919.02057
-140.37468 -109.31349 920.11218
-85.20549 -106.74902 899.53949
-84.69297 -106.75688 899.61365
-84.194664 -106.78285 899.84033
-83.665649 -106.76998 899.73969
-83.155647 -106.78139 899.84344
-82.601036 -106.73526 899.4624
-82.065376 -106.7132 899.28406
-81.539284 -106.7034 899.20892
-80.998131 -106.67361 898.96552
-80.520706 -106.72792 899.43066
-80.033325 -106.76966 899.78973
-79.522537 -106.78053 899.88855
-79.103912 -106.91606 901.03815
-78.655327 -107.01264 901.85944
-156.71469 -108.32664 915.84827
-156.09718 -108.26523 915.3429
-155.41086 -108.15553 914.4292
-154.90492 -108.17105 914.57397
-154.32948 -108.13798 914.30792
-153.77562 -108.11985 914.16815
-153.28944 -108.14934 914.43109
-152.72292 -108.12216 914.21478
-152.2458 -108.1583 914.53381
-151.71179 -108.15414 914.51202
-151.1541 -108.13303 914.3468
-150.61417 -108.12447 914.2879
-150.06334 -108.10805 914.16223
-149.60727 -108.16 914.61481
-149.09471 -108.17134 914.72394
-148.59137 -108.18944 914.89032
-148.06805 -108.19312 914.93451
-147.56314 -108.21029 915.0929
-147.07639 -108.24096 915.3653
-146.54187 -108.23657 915.34125
-146.07236 -108.28034 915.72449
-145.57205 -108.30151 915.91644
-145.04436 -108.30239 915.93677
-144.45897 -108.26003 915.59149
-143.98801 -108.30345 915.97144
-143.46457 -108.30757 916.0191
-143.06139 -108.40283 916.83759
-142.58324 -108.44177 917.17975
-142.14743 -108.51335 917.79785
-141.64948 -108.53783 918.01752
-141.09462 -108.51872 917.86865
-140.68242 -108.60962 918.65002
-140.07297 -108.54834 918.14423
-139.64365 -108.62672 918.81982
-139.19371 -108.6896 919.3642
-138.73569 -108.7466 919.85883
-138.45013 -108.93979 921.50537
-85.6633 -106.15457 898.90186
-85.196899 -106.21939 899.45856
-84.676918 -106.2178 899.45288
-84.169403 -106.23194 899.58038
-83.649643 -106.23067 899.57739
-83.146751 -106.25095 899.75696
-82.59697 -106.2112 899.42792
-82.057465 -106.18423 899.20715
-81.535233 -106.17944 899.17401
-80.994102 -106.1498 898.93054
-80.504333 -106.18754 899.25763
-80.01545 -106.22694 899.59863
-79.489426 -106.21722 899.52368
-79.070915 -106.35197 900.67224
-78.631981 -106.46085 901.60156
-156.52719 -108.03321 917.87396
-155.545 -107.72016 915.22791
-155.06 -107.75047 915.49908
-154.48267 -107.71661 915.22498
-153.89162 -107.6729 914.86731
-153.32082 -107.64312 914.62781
-152.76276 -107.62211 914.46277
-152.25726 -107.63812 914.61224
-151.74809 -107.65162 914.74042
-151.151 -107.60264 914.33759
-150.61105 -107.59414 914.27863
-150.06021 -107.57775 914.15271
-149.60411 -107.62943 914.6051
-149.09767 -107.64512 914.75171
-148.5882 -107.6587 914.88037
-148.0677 -107.66439 914.94177
-147.56123 -107.68036 915.09064
-147.07314 -107.70989 915.35474
-146.54823 -107.71258 915.39056
-146.0378 -107.72595 915.51733
-145.53841 -107.7476 915.71436
-145.04105 -107.77094 915.92554
-144.46811 -107.73808 915.65918
-143.98466 -107.77193 915.95984
-143.46989 -107.78255 916.06274
-142.96858 -107.80335 916.25238
-142.49966 -107.84885 916.65186
-141.991 -107.86449 916.79749
-141.43678 -107.84551 916.6488
-141.04839 -107.95329 917.57751
-140.53024 -107.96221 917.66608
-140.04243 -107.99461 917.95386
-139.45486 -107.95 917.58734
-139.05327 -108.04958 918.44629
-138.63481 -108.13676 919.19983
-138.23506 -108.23927 920.0835
-85.659187 -105.63099 898.86847
-85.176239 -105.67491 899.25018
-84.672829 -105.69386 899.41925
-84.178459 -105.72439 899.68677
-83.657494 -105.72169 899.67169
-83.125237 -105.7046 899.53381
-82.59108 -105.68486 899.37354
-82.053406 -105.66036 899.17261
-81.517876 -105.63832 898.99255
-80.990067 -105.62605 898.89563
-80.483696 -105.64175 899.0368
-80.001602 -105.68976 899.45276
-79.485428 -105.69306 899.4881
-79.06694 -105.82715 900.63666
-78.647385 -105.96158 901.78802
-155.1819 -107.30588 916.22833
-154.57193 -107.24982 915.76324
-153.89331 -107.14558 914.88684
-153.36548 -107.14597 914.90369
-152.7834 -107.10833 914.59576
-152.27533 -107.12251 914.73022
-151.77658 -107.14335 914.92169
-151.16507 -107.08446 914.43225
-150.64771 -107.09207 914.51056
-150.12177 -107.09364 914.53729
-149.61942 -107.11209 914.70819
-149.11179 -107.12687 914.84766
-148.59108 -107.13235 914.90759
-148.07129 -107.13852 914.97351
-147.57014 -107.15829 915.1554
-147.06992 -107.17885 915.34412
-146.56056 -107.1929 915.47717
-146.03452 -107.19479 915.50635
-145.53511 -107.21633 915.70325
-145.04175 -107.24249 915.93951
-144.47813 -107.2167 915.73224
-143.98131 -107.24046 915.94812
-143.46983 -107.25346 916.0719
-142.94449 -107.25615 916.10767
-142.42966 -107.26675 916.21106
-141.96304 -107.31391 916.62653
-141.3905 -107.28104 916.35846
-140.90366 -107.31318 916.64563
-140.39034 -107.32535 916.76215
-139.93736 -107.3839 917.27484
-139.42668 -107.39844 917.4115
-138.98065 -107.46308 917.97626
-138.63133 -107.60329 919.18646
-138.18396 -107.66817 919.75305
-137.83293 -107.80892 920.96783
-85.630547 -105.07732 898.57758
-85.172134 -105.15115 899.21667
-84.66185 -105.16142 899.31238
-84.174377 -105.20033 899.65295
-83.653419 -105.19762 899.63757
-83.121178 -105.1806 899.49963
-82.587029 -105.16093 899.33917
-82.061081 -105.15154 899.26636
-81.513847 -105.11455 898.95764
-80.985809 -105.10204 898.85803
-80.478043 -105.11582 898.98334
-79.987068 -105.15186 899.29895
-79.479012 -105.16576 899.42535
-79.060547 -105.29917 900.57361
-78.641022 -105.43293 901.72491
-154.74846 -106.84268 916.81854
-154.14888 -106.79415 916.41565
-153.45647 -106.68071 915.45593
-152.98558 -106.72105 915.81561
-152.42682 -106.70013 915.64966
-151.86659 -106.67807 915.47369
-151.22752 -106.60027 914.8194
-150.64461 -106.56164 914.50122
-150.11864 -106.56316 914.52765
-149.61627 -106.58151 914.69836
-149.11348 -106.59968 914.86755
-148.59464 -106.60647 914.93903
-148.06956 -106.60883 914.97241
-147.57207 -106.6311 915.17682
-147.06981 -106.6501 915.35297
-146.57529 -106.67489 915.57874
-146.03123 -106.66364 915.4953
-145.53181 -106.68504 915.69202
-145.04172 -106.71348 915.94891
-144.46146 -106.67551 915.63605
-143.96413 -106.69875 915.84839
-143.46878 -106.72363 916.07477
-142.9599 -106.73858 916.21588
-142.43835 -106.74417 916.27661
-141.92871 -106.75874 916.41437
-141.38707 -106.74928 916.34583
-140.8916 -106.77472 916.57684
-140.38252 -106.79002 916.7207
-139.92215 -106.84259 917.18463
-139.41148 -106.85703 917.32117
-138.97717 -106.93033 917.96289
-138.57013 -107.02525 918.79028
-138.09653 -107.06929 919.18079
-137.74559 -107.20915 920.3938
-85.626427 -104.55399 898.54407
-85.16803 -104.62742 899.18304
-84.66465 -104.64613 899.35175
-84.170296 -104.67632 899.61902
-83.665657 -104.69402 899.77881
-83.110504 -104.64834 899.39392
-82.582962 -104.63706 899.30469
-82.05703 -104.62769 899.23169
-81.499916 -104.57818 898.81378
-80.963852 -104.55523 898.62396
-80.469719 -104.58649 898.90009
-79.96833 -104.60865 899.09808
-79.457893 -104.61919 899.19604
-79.03952 -104.75188 900.34381
-78.629837 -104.89793 901.60626
-153.81718 -106.40142 917.61725
-153.12413 -106.28821 916.65436
-152.65775 -106.33207 917.04626
-151.95825 -106.21333 916.03558
-151.29491 -106.11912 915.23651
-150.68835 -106.0642 914.77631
-150.12105 -106.03664 914.55182
-149.65746 -106.08237 914.95959
-149.15749 -106.10255 915.14703
-148.63774 -106.10878 915.21387
-148.10788 -106.1078 915.21863
-147.58499 -106.11182 915.26648
-147.08699 -106.13385 915.46948
-146.60162 -106.16515 915.75262
-146.02797 -106.13253 915.48431
-145.5336 -106.15751 915.71271
-145.03841 -106.18205 915.9375
-144.47148 -106.15408 915.70911
-143.96078 -106.16738 915.83655
-143.46846 -106.19436 916.08221
-142.95651 -106.20697 916.2038
-142.42514 -106.20518 916.20111
-141.94472 -106.24151 916.52728
-141.41039 -106.23763 916.50647
-140.88817 -106.24284 916.56403
-140.37622 -106.25586 916.68903
-139.87624 -106.27808 916.89325
-139.34398 -106.27586 916.8866
-138.97368 -106.39761 917.94946
-138.56664 -106.49203 918.77661
-138.02704 -106.48493 918.72778
-137.67616 -106.62395 919.93958
-85.646866 -104.06052 898.76819
-85.163933 -104.10374 899.14941
-84.662399 -104.12463 899.33765
-84.166206 -104.15237 899.58508
-83.661583 -104.16996 899.74469
-83.10453 -104.12207 899.33887
-82.534302 -104.05699 898.78436
-82.026962 -104.07085 898.91168
-81.45961 -104.00829 898.37885
-80.953583 -104.02373 898.51965
-80.465698 -104.06282 898.86487
-79.964333 -104.08487 899.06268
-79.453903 -104.09534 899.16046
-79.035538 -104.22735 900.30811
-78.616104 -104.3597 901.45856
-152.1292 -105.8031 917.0755
-151.62369 -105.81991 917.2348
-150.95973 -105.72587 916.43304
