# .PCD v0.7 - Point Cloud Data file format
VERSION 0.7
FIELDS x y z normal_x normal_y normal_z curvature
SIZE 4 4 4 4 4 4 4
TYPE F F F F F F F
COUNT 1 1 1 1 1 1 1
WIDTH 617
HEIGHT 1
VIEWPOINT 0 0 0 1 0 0 0
POINTS 617
DATA ascii
-11.191936 -1.2669344 458.04819 0.45437515 -0.066711217 -0.888309 0.13827427
-9.3202295 -1.8465172 459.30603 0.72271359 -0.068838432 -0.68771094 0.13323569
-33.836262 1.7751901 459.17969 -0.23690324 -0.87158573 -0.42920297 0.021822343
-31.165142 1.0842109 459.14288 -0.19992684 -0.87949401 -0.43187907 0.016118551
-28.433304 0.45633876 459.15332 -0.18853851 -0.85276574 -0.48707676 0.019825049
-26.953131 0.09931127 459.00818 -0.2135722 -0.81222141 -0.54284739 0.03252469
-10.546864 0.39061904 457.91705 0.45903838 -0.25067884 -0.85231686 0.12426239
-8.9421234 1.3575054 459.19131 0.56421924 -0.3701953 -0.73797834 0.10551726
-35.827297 2.8928525 458.89709 -0.27289969 -0.83998185 -0.46899477 0.02790411
-7.0342236 3.3770428 459.2634 0.54421312 -0.53804672 -0.64369082 0.07383506
-5.348825 5.3874459 459.2157 0.50747836 -0.66160399 -0.55203795 0.037692443
-4.1228237 6.8481045 459.01617 0.50478303 -0.72244644 -0.47250956 0.018061571
-3.0339398 7.9851484 458.49338 0.51751775 -0.73799479 -0.43305793 0.014482252
93.969299 -45.624279 460.86319 -0.68988484 -0.69410205 -0.20562412 0.23459937
96.045792 -46.501472 461.52472 0.20013702 0.97135371 -0.12812902 0.23311052
99.114594 -46.239876 461.43243 -0.48492464 0.87406963 -0.02915941 0.22372298
91.837074 -42.905674 461.05984 -0.85172868 -0.42337242 -0.30872974 0.19423887
92.824669 -44.25124 461.37729 -0.7628718 -0.63896382 -0.098751888 0.21625827
100.44908 -43.635895 460.9375 0.57421917 0.29577333 -0.76340717 0.22363558
91.425911 -41.276039 461.06769 -0.87137288 -0.24264275 -0.42641976 0.17612141
100.77414 -41.406242 460.9375 0.90053791 -0.042461172 -0.43269908 0.20186055
91.434837 -39.168182 461.59351 -0.84854072 0.015776444 -0.52889484 0.15966788
93.261307 -37.788986 460.54688 -0.56720424 0.26140523 -0.7809909 0.17586911
99.231689 -38.075134 460.88092 0.7052803 0.24055497 -0.66686809 0.18702114
100.35001 -39.187668 461.50537 0.86858398 0.092378423 -0.48685527 0.19303791
92.28096 -36.838234 461.83105 -0.67644006 0.25754568 -0.68999928 0.15623024
93.971619 -36.372631 460.93222 -0.39471287 0.38215545 -0.83555907 0.14829105
96.204208 -35.340988 460.64993 0.018417908 0.47774187 -0.87830716 0.12859458
98.372566 -36.192181 461.51877 0.53888786 0.34747824 -0.76737136 0.19070686
93.597855 -34.99543 462.20514 -0.44484365 0.38345778 -0.80936664 0.1465469
96.152229 -33.652561 461.8454 0.024713911 0.49167949 -0.87042552 0.10999902
-20.230543 -17.570198 461.31949 0.62959784 0.68753892 -0.36179677 0.12774755
-19.136459 -19.127558 460.53433 0.44955751 0.69805807 -0.55732673 0.11628258
-20.98185 -15.939487 461.20572 0.8948918 0.43260702 -0.10963506 0.12915014
-12.821575 -16.047213 461.23389 -0.097846843 0.68161035 -0.72514367 0.062978424
-11.132814 -15.436014 461.64795 -0.49518681 0.60751528 -0.62105972 0.054584034
-9.1592836 -15.602943 460.97192 -0.83288413 0.41879144 -0.3618255 0.035761945
-21.293421 -13.527928 461.444 -0.93761057 0.16361095 -0.30678633 0.10139068
-8.4564981 -13.824901 461.77448 -0.90215576 0.33144209 -0.27615425 0.046277933
-6.9946051 -12.549002 460.81635 -0.97709477 0.1776706 -0.11712816 0.062944636
-21.441372 -10.977165 461.64297 -0.97312063 -0.041062012 -0.22660573 0.062291443
-6.8799753 -11.681555 461.69278 -0.97582626 0.18276919 -0.11982737 0.058996767
-21.489082 -9.4444952 461.53952 -0.96026546 -0.052850261 -0.27403858 0.059769463
-6.2493901 -9.1796894 460.9375 0.99785978 -0.030922607 -0.057617061 0.075349912
-21.028965 -6.6851597 461.37689 -0.89682919 -0.17794789 -0.40500861 0.094654188
-6.4186077 -6.250001 460.9375 0.97598892 0.069978267 -0.20627351 0.075050816
-21.543234 -3.592679 461.26584 -0.69592822 -0.4421849 -0.56582367 0.11058927
-6.8754716 -3.4419696 461.48389 0.95445478 0.015088673 -0.29797375 0.087830283
-26.216776 -0.26952624 460.85938 -0.30300033 -0.79498619 -0.5255357 0.050985646
-23.826679 -1.3645097 461.26071 -0.44903931 -0.68021452 -0.57937199 0.082789071
-8.5993719 -0.99224299 461.00757 0.81192005 -0.17879677 -0.55571353 0.11691652
-34.235847 2.0640616 460.70435 -0.26284912 -0.89517939 -0.35995007 0.020073965
-31.338203 1.319756 461.33771 -0.23001219 -0.90906513 -0.3474119 0.012627212
-28.383545 0.49542934 461.01294 -0.22813149 -0.86749828 -0.4420439 0.022418257
-26.953131 0.0667274 461.32812 -0.27116546 -0.83326715 -0.4818041 0.03840125
-8.3771334 1.7233871 461.39896 0.67759514 -0.40252373 -0.61549944 0.091523789
-7.0262313 3.7230773 461.67679 0.64042175 -0.53138947 -0.55451345 0.064358398
-5.5685444 5.2908459 460.80728 0.56326818 -0.64094955 -0.52145255 0.042106319
94.140617 -45.20005 462.5 0.54669774 0.82480097 -0.14430851 0.22197431
96.307396 -46.007885 463.74966 0.091351308 0.96111804 -0.2605896 0.19934408
98.656586 -45.982388 463.22107 -0.3713125 0.90939534 -0.18742245 0.20055695
92.289978 -42.728065 463.33099 -0.8382901 -0.091761887 -0.53744715 0.20087841
93.753357 -44.282013 463.81323 0.54003996 0.81438512 -0.21244711 0.20433138
99.991608 -44.409302 464.16196 -0.69033146 0.70674366 -0.15477681 0.18000582
100.58508 -43.423862 463.02084 -0.87098604 0.49113795 0.012913116 0.19800043
91.516663 -41.367836 463.2431 -0.88369781 -0.45210972 -0.12114054 0.19575718
101.13134 -41.423615 463.3768 -0.95102191 0.3052845 -0.048567522 0.1795927
90.875031 -38.96666 464.05948 -0.95166779 -0.19008556 -0.24123834 0.16981521
101.02449 -39.154251 463.3844 -0.13274734 0.47230592 -0.87138122 0.17773513
91.179291 -36.01017 463.52075 -0.80878985 0.13322847 -0.57280821 0.1478914
99.204041 -35.761852 463.22568 0.75488424 0.24709883 -0.6075294 0.20684014
100.50009 -36.880421 464.24393 0.93858474 0.044856437 -0.34212071 0.1887714
91.634956 -34.074894 464.07706 -0.68065453 0.24319266 -0.69106209 0.1388669
93.223778 -33.636013 463.32315 -0.453168 0.37773463 -0.80743754 0.12784506
98.722855 -34.000851 463.70117 0.61916322 0.37730342 -0.6886791 0.17583838
92.398361 -32.235878 464.60419 -0.51380408 0.34825182 -0.78404474 0.11380674
94.205475 -31.697781 463.92862 -0.28377637 0.45399362 -0.84460694 0.10414446
96.093903 -31.371962 463.45862 0.0258804 0.50339824 -0.86366689 0.097558558
98.340126 -31.682699 463.89731 0.5062024 0.44970834 -0.73588151 0.11458062
96.25 -29.399277 464.62158 0.072190776 0.51812941 -0.85225022 0.087841138
98.046867 -29.585243 464.68097 0.45309693 0.46951196 -0.75780058 0.093992531
-21.14632 -13.520874 463.50919 0.865731 0.47208223 -0.16627775 0.10158221
-19.146198 -13.671857 463.66547 0.64870971 0.69463307 -0.31090301 0.15162168
-12.565107 -13.787306 463.79193 -0.2084143 0.75638604 -0.62003523 0.066137098
-10.892597 -13.526503 463.5578 -0.63370013 0.57267892 -0.5200606 0.049273968
-9.2577696 -12.936955 463.29483 -0.8485021 0.39543295 -0.35167721 0.04122616
-21.949091 -10.937498 464.0625 -0.98555368 -0.12164875 -0.11783689 0.047122248
-8.842021 -11.636586 464.34714 -0.88622361 0.35358009 -0.29931381 0.039578561
-7.1095943 -10.874983 463.24829 -0.9634546 0.21762079 -0.15619335 0.05053626
-21.870092 -8.9843769 463.54166 -0.97079104 -0.13626494 -0.19747587 0.054453064
-6.7547131 -9.2100286 463.36661 -0.95666701 0.22603408 -0.18356659 0.05717276
-21.86521 -5.9605312 463.53561 -0.90085119 -0.30069342 -0.31313023 0.084515534
-6.4291506 -6.2408514 463.31366 0.97732669 0.07562454 -0.1977714 0.062703691
-22.871212 -3.6411955 464.57117 -0.79593951 -0.5039556 -0.33542365 0.082630709
-22.285782 -4.0273666 463.72394 -0.80165315 -0.45518076 -0.38750836 0.092935652
-6.3454585 -3.90625 464.0625 0.99578738 0.0095905084 -0.091189347 0.060646728
-25.86998 -0.22317469 462.5 -0.3550303 -0.80023044 -0.48330608 0.051607236
-24.101688 -1.6281811 463.54199 -0.55902535 -0.69997066 -0.4444454 0.073325872
-6.5531626 -1.3055023 463.74634 0.96816576 -0.087112904 -0.23466249 0.073019616
-28.236174 0.66082549 462.5 -0.26449525 -0.87675375 -0.40167791 0.023600873
-26.887918 0.29293367 463.30237 -0.32290176 -0.8454724 -0.42533627 0.035554856
-7.9737854 1.4746251 463.33301 0.8104682 -0.3514522 -0.46863928 0.079216875
-7.331584 1.2727613 464.3056 0.89229554 -0.28125557 -0.35313457 0.067765228
96.289062 -45.318741 465.42969 0.035327073 0.93361163 -0.35654083 0.17138475
98.4375 -45.273273 465.23441 -0.32044452 0.88901466 -0.32706001 0.16304195
93.828133 -43.434601 466.30066 0.43243849 0.8138476 -0.38813531 0.1837023
96.042923 -44.493935 466.51862 0.054207858 0.88696176 -0.4586505 0.16453619
98.590302 -44.015186 466.37009 -0.412072 0.78761816 -0.45809865 0.15506347
100.54779 -42.823265 465.48987 -0.79769659 0.53594899 -0.27647594 0.14973506
91.828941 -40.52401 466.18771 0.4801802 0.71337503 -0.51041466 0.20110984
92.607651 -41.769554 466.36008 0.63244438 0.70883149 -0.31236523 0.19929758
99.734848 -41.92057 467.00372 -0.67773086 0.59141415 -0.43693262 0.15715885
100.79739 -41.379124 466.26651 -0.84304184 0.45711979 -0.28341112 0.15061177
91.089706 -38.891277 466.28943 -0.92233914 -0.38505861 -0.031943951 0.18394125
101.42281 -39.067829 466.40994 -0.96345556 0.24261013 -0.11355042 0.14318368
89.842255 -35.286453 466.53644 -0.93066484 -0.1334727 -0.34065816 0.13168517
90.264137 -36.14658 466.01489 -0.93154508 -0.14561214 -0.3331978 0.14874552
100.87833 -35.858307 466.29517 -0.94699687 0.14461538 -0.28685084 0.15803191
89.492973 -33.615673 467.3298 -0.92060864 -0.053129829 -0.38685524 0.1084941
90.501244 -33.461956 465.62646 -0.77744281 0.13771915 -0.61369056 0.12584901
99.475807 -33.737411 465.7731 0.82159805 0.22335663 -0.52448887 0.19905441
100.19818 -34.118389 466.93872 0.94669306 0.11668222 -0.30026236 0.17174563
89.186852 -31.948015 467.48865 -0.87945741 0.061993007 -0.47192323 0.091930203
91.209686 -31.389023 466.19434 -0.63250333 0.26927918 -0.72624254 0.11047614
93.416428 -30.354389 465.21732 -0.35927665 0.43484026 -0.82573253 0.10788983
99.245445 -31.231642 466.06412 0.72151667 0.3604041 -0.59120435 0.12385022
92.153511 -28.381157 467.04767 -0.45680898 0.39652231 -0.79630125 0.095311239
93.53299 -28.442913 466.13138 -0.30157366 0.46335703 -0.83327889 0.095147729
96.155136 -28.210014 465.44257 0.088975459 0.52368391 -0.8472535 0.086520664
98.716171 -28.404535 466.4328 0.60802299 0.43626431 -0.66331106 0.1010444
93.671219 -26.480974 467.08994 -0.24759354 0.47773376 -0.84289259 0.079274513
96.037773 -26.46701 466.44287 0.10923276 0.52213138 -0.84584105 0.07762827
98.334007 -26.650265 467.2767 0.55668181 0.46281812 -0.68985856 0.10079412
95.312508 -24.914818 467.43716 0.020491876 0.52466953 -0.85105932 0.068324514
-20.855463 -13.327193 465.72763 0.83081335 0.48779675 -0.26796186 0.095267765
-20.914225 -11.585568 466.27066 0.87497008 0.41851622 -0.24345759 0.091800548
-19.921869 -10.476292 467.1875 0.79244941 0.50748068 -0.3383598 0.10915992
-10.546864 -11.536702 465.47318 -0.75881833 0.53497839 -0.37147397 0.059860416
-9.304265 -10.758267 465.28476 -0.88405043 0.3734951 -0.28099158 0.045998327
-22.007862 -8.9982738 466.44617 0.8406651 0.31482458 -0.44064462 0.073484272
-9.0212812 -8.9982862 466.39316 -0.92847806 0.30938649 -0.20544714 0.055856962
-7.3905759 -9.177494 465.35001 -0.95210153 0.24094743 -0.1882737 0.051365368
-22.764982 -5.9738264 467.17212 -0.62565798 -0.17904598 -0.7592724 0.061223559
-22.319162 -6.7821851 466.07812 -0.89354908 -0.26956385 -0.35903394 0.069616355
-7.7958217 -7.2768683 466.7453 -0.96681845 0.21192202 -0.14265737 0.063864909
-7.1287684 -6.0126348 466.41907 -0.98613161 0.1278173 -0.10586385 0.062605858
-23.611683 -3.557523 466.21393 -0.82551181 -0.51154745 -0.23843127 0.065055855
-6.3292527 -3.5659406 466.72977 -0.8585788 0.23552477 -0.45537961 0.052362829
-24.582144 -1.5892909 465.54547 -0.63123322 -0.69967794 -0.33465716 0.059833616
-5.8427429 -1.6210251 466.25146 0.99766839 -0.040472049 -0.054952968 0.047851525
-5.9835763 0.59753573 466.01233 0.98093021 -0.13750024 -0.13736653 0.051597755
94.226753 -42.524517 468.30164 0.29374999 0.7773236 -0.55630839 0.16270842
95.79879 -43.018978 467.95462 0.056726962 0.81635654 -0.57475561 0.16808204
93.411385 -41.284435 468.66046 0.40296057 0.74247813 -0.5351159 0.17124432
96.159187 -41.385021 469.23926 -0.033892799 0.75041562 -0.66009665 0.1742091
98.882446 -41.412754 468.14041 -0.5375737 0.63113874 -0.5591765 0.14561771
100.39064 -40.234386 467.84247 -0.75777316 0.48668447 -0.43464702 0.14113353
91.609009 -38.65255 469.0802 0.52521652 0.65026504 -0.5489108 0.15600732
99.218536 -39.747036 468.81494 -0.62065279 0.56098437 -0.54780161 0.1688593
100.73129 -38.35302 468.82108 -0.83193982 0.38200483 -0.40242815 0.1343163
90.376122 -36.063953 468.40536 -0.93225545 -0.29884636 -0.20393772 0.15197574
101.69973 -35.937504 468.75 -0.98929888 0.10734108 -0.09882126 0.11025684
89.396469 -34.25732 468.66217 -0.95957983 -0.23889078 -0.14878783 0.10639915
90.234367 -34.36026 469.92188 -0.92546028 -0.37881169 -0.005003029 0.13837707
100.73608 -33.425163 468.46259 -0.20104469 0.46290153 -0.86330938 0.13300632
87.495483 -30.634186 468.92288 -0.93414813 0.010474181 -0.35673177 0.071051911
88.458565 -31.384171 468.07779 -0.91024262 0.037156411 -0.41240492 0.078611113
99.874916 -30.468746 468.75 0.84405929 0.27533311 -0.46016911 0.12063095
100.3703 -32.090778 469.1915 0.95148116 0.13339943 -0.27728713 0.13459043
88.649422 -29.028244 469.36465 -0.86960667 0.11947776 -0.47907135 0.078278631
90.684486 -28.581961 468.35254 -0.6383611 0.28558514 -0.71479803 0.096290864
99.652107 -28.226023 468.28354 0.76160002 0.3594358 -0.53923208 0.10624063
91.408737 -26.12784 469.13965 -0.51148617 0.37987027 -0.77076614 0.080478638
93.245857 -25.957718 467.67828 -0.27962652 0.47501785 -0.8343662 0.078029662
96.938797 -25.059446 467.57626 0.29894987 0.52102077 -0.79947883 0.088562615
98.79071 -26.093191 468.39392 0.62351859 0.43025592 -0.65276682 0.10007494
91.754448 -24.543633 469.88144 -0.43292946 0.42055091 -0.79731363 0.075520225
93.279579 -23.896164 468.97153 -0.22907546 0.48859644 -0.84190136 0.057941798
96.099991 -23.399424 468.60803 0.16894187 0.52934426 -0.83141643 0.074668452
98.3843 -24.452103 469.32883 0.57574767 0.45511711 -0.67925185 0.10312567
95.659729 -21.995153 469.50879 0.11850204 0.53136128 -0.83881611 0.070129544
-20.789413 -11.01851 468.58517 0.80307776 0.43454793 -0.40771818 0.078964442
-21.395092 -9.0728722 469.33105 0.83019543 0.37845191 -0.40932828 0.082102358
-19.931973 -8.5111256 469.13217 0.79553396 0.38175118 -0.47052291 0.092556596
-22.837988 -6.2445884 469.14062 0.92396545 0.35318226 -0.1467995 0.07307747
-22.369741 -7.4218807 468.92844 0.89511347 0.35489461 -0.26985508 0.084793277
-8.996397 -6.3921423 469.20905 -0.92473322 0.37134156 -0.083510213 0.079219438
-7.438292 -5.0537286 468.32358 -0.97498596 0.19163738 -0.11259459 0.072267592
-23.933537 -3.9151163 468.52414 -0.89064348 -0.44418797 -0.097217694 0.044590581
-6.7841206 -3.4382737 469.59671 -0.98148042 0.17976512 -0.066186287 0.072181337
-5.841186 -1.877841 468.55771 -0.99671704 0.063228324 -0.050570782 0.047440846
79.886681 7.1614585 469.78366 -0.015931802 -0.52403784 -0.85154599 0.0060688569
81.507858 6.0670624 469.57495 0.026381455 -0.55835915 -0.82917988 0.0083079031
84.087219 5.9987135 469.4707 0.08489494 -0.56796801 -0.81866056 0.006640947
85.9375 6.9238992 469.04611 0.12736005 -0.5635311 -0.81621826 0.0088440031
88.489082 6.9429765 469.35471 0.18698764 -0.58060914 -0.79241949 0.0098242871
90.495697 7.169198 469.69696 0.22628209 -0.58454895 -0.77916557 0.0094821118
81.556534 8.2879333 469.41852 0.011280404 -0.50992393 -0.86014557 0.0072879097
83.819435 8.7801867 468.96616 0.062042225 -0.50337976 -0.86183494 0.0026791252
85.9375 9.1796894 468.73743 0.11506559 -0.51273888 -0.85079885 0.005914812
88.300781 9.1351023 468.72681 0.17350486 -0.53208536 -0.82872266 0.0083440002
91.279266 9.14048 469.45267 0.2364766 -0.55397183 -0.79824436 0.0099408617
95.229149 -40.261696 470.71875 0.027282916 0.70279396 -0.71087009 0.15111822
92.124374 -38.260857 470.96735 0.61390686 0.62884581 -0.47714922 0.13309881
93.445976 -39.362103 471.0993 0.32747528 0.68999892 -0.64549321 0.14373294
96.218262 -39.197147 471.48862 -0.16673777 0.6340214 -0.75512612 0.12988964
98.608871 -38.576935 470.64368 -0.5049926 0.54633766 -0.66820478 0.12858641
91.201447 -36.406261 471.52631 0.74697256 0.56733799 -0.34664041 0.12596211
99.316444 -36.080387 471.92181 -0.6270662 0.42956039 -0.64981991 0.12353499
101.03876 -36.011253 470.66531 -0.87254024 0.29566589 -0.38891551 0.11133856
89.449585 -33.560974 471.04901 -0.93325597 -0.3590489 0.010824141 0.11390062
90.3349 -34.494041 471.11694 -0.31291854 0.40312552 -0.85998362 0.13458294
101.39443 -33.593742 471.1123 -0.98020262 0.11767697 -0.15923253 0.097940877
88.36821 -31.205582 471.25699 -0.97385567 -0.15441321 -0.16661806 0.082910664
100.78324 -31.137421 471.18668 -0.8784073 0.25445515 -0.40454063 0.10425086
87.203873 -27.68191 471.71329 -0.95328337 0.025315322 -0.30101487 0.072576091
88.111137 -28.393953 470.72736 -0.92210525 0.063726224 -0.3816554 0.07741069
100.27765 -28.55267 471.32455 0.89451993 0.24721435 -0.37245017 0.092910126
88.826927 -26.435287 471.50336 -0.86721867 0.16543576 -0.46964115 0.083019435
90.732826 -25.095488 470.42566 -0.59380323 0.35945022 -0.71985644 0.082753837
99.75222 -26.354898 470.16931 0.77854222 0.3498176 -0.52105641 0.10154382
100.15243 -25.849443 471.94269 0.84378338 0.30837187 -0.43924525 0.090455353
89.45163 -23.825865 472.26413 -0.74969649 0.30714411 -0.58618909 0.076529078
91.021103 -23.66305 471.04395 -0.53418368 0.4024156 -0.74344438 0.072965659
99.172325 -23.88418 470.83401 0.70053422 0.40724367 -0.58600718 0.10051037
91.662025 -21.333303 471.8158 -0.39960003 0.46917501 -0.7875244 0.059071448
93.395264 -21.43638 470.48145 -0.17934249 0.51352733 -0.83912218 0.051424429
96.481529 -20.681517 470.67609 0.26736724 0.53220516 -0.80328852 0.081630416
98.434799 -21.592194 471.689 0.61390901 0.45132858 -0.64762515 0.10557242
93.330528 -19.263739 471.90576 -0.17644869 0.52839971 -0.83045739 0.047059208
95.975227 -18.782948 471.89536 0.19743747 0.5449928 -0.81486273 0.072658308
97.571014 -19.140631 472.26562 0.47342396 0.49955246 -0.72547722 0.096626863
-15.675277 -11.627719 472.26562 0.17844394 -0.87850809 -0.44314936 0.083339788
-14.272194 -10.678906 472.17261 0.17595389 -0.88686454 -0.42721364 0.08869195
-20.703136 -8.721242 470.00781 0.79382384 0.35838458 -0.49132904 0.081368022
-13.754603 -9.2351456 471.54111 0.17106569 -0.89890426 -0.40337041 0.1029906
-11.257998 -8.3928814 472.13669 0.35238922 -0.86155415 -0.36543989 0.1051403
-9.765625 -8.1566429 472.29599 0.6059444 -0.75647485 -0.24612446 0.083686583
-23.01091 -5.5873542 470.11719 0.9206838 0.36047426 -0.14966519 0.073409595
-21.022558 -6.3952694 471.04581 0.77413088 0.29821518 -0.55838072 0.086963885
-19.921869 -6.1277151 471.48441 0.70803195 0.16028519 -0.68774956 0.084485039
-10.566504 -7.4218807 471.51862 0.52676314 -0.81255686 -0.24954358 0.11276542
-9.2095852 -5.9857473 471.66367 0.4855893 -0.81024104 -0.32819584 0.082595415
-8.2094069 -4.1576352 470.89133 0.29538068 -0.81889123 -0.49210507 0.084431335
74.321907 2.4580956 472.24261 -0.085504413 -0.59118634 -0.80198985 0.010474127
76.541946 2.2534347 471.95081 -0.042192906 -0.60212445 -0.79728657 0.0084492266
78.90625 2.2625177 471.80875 -0.0043435465 -0.6033271 -0.79748201 0.0025171612
81.224625 2.3385119 471.87061 0.035743531 -0.61000425 -0.79159153 0.0021053986
83.463554 2.4608622 471.98935 0.078079127 -0.61175448 -0.78718489 0.00050364446
74.000992 3.8661809 472.12979 -0.10579655 -0.56413376 -0.81887746 0.011541458
76.823204 3.8462927 471.05823 -0.050436229 -0.56975675 -0.82026416 0.00702608
78.906258 3.9031208 470.7041 -0.012981997 -0.57759231 -0.81622213 0.0046460452
81.25 3.8705842 470.65634 0.031741526 -0.59256554 -0.80489659 0.0053966716
84.369164 3.5351074 471.17715 0.098864116 -0.59962547 -0.79415071 0.0011366166
86.229805 3.3298159 471.70197 0.15446849 -0.60305774 -0.78259873 0.001343011
88.365372 3.8106022 471.69037 0.19824682 -0.60996681 -0.76722789 0.0050248099
91.116066 4.4051676 471.86072 0.2511344 -0.61558843 -0.74698222 0.0088598393
74.154549 5.0781369 472.17258 -0.11434107 -0.53864557 -0.83473772 0.010803421
76.52932 5.6903276 470.91287 -0.072006702 -0.5336557 -0.84263068 0.0083944462
79.014709 6.2658262 470.02393 -0.028998956 -0.52986711 -0.84758478 0.0035469057
85.993301 5.3246107 470.02881 0.14034803 -0.58649218 -0.79770255 0.0055804811
88.31649 5.3519011 470.35837 0.19165599 -0.60012931 -0.7766034 0.0081635378
91.77137 5.9239354 470.94305 0.25635782 -0.60684085 -0.75234616 0.011309933
93.863998 6.7728963 471.81213 0.31202343 -0.60202831 -0.73498529 0.0082351919
93.761703 8.3473234 471.07849 0.30866328 -0.5879128 -0.7477203 0.012129048
93.85173 -37.847935 472.99292 0.13061576 0.63975108 -0.75740224 0.11968791
96.042686 -37.965519 473.24387 -0.18540709 0.59805304 -0.77971584 0.09665519
91.843605 -35.566864 473.85559 0.57390648 0.63072491 -0.52231932 0.11913511
94.180176 -36.746563 474.51889 0.042249594 0.63245201 -0.77344644 0.093608297
97.097565 -36.030045 474.31732 -0.3221457 0.53746957 -0.77932578 0.082972407
98.230286 -35.979172 473.18646 -0.45837006 0.48442018 -0.74514019 0.097469881
89.998543 -33.203125 473.04691 0.85817695 0.47348332 -0.19835787 0.12788995
90.893829 -33.962658 474.33566 0.71064907 0.58396977 -0.39237395 0.12018508
98.75061 -33.979237 474.27707 -0.56693959 0.4275668 -0.70410669 0.095749915
100.29555 -33.740818 473.25854 -0.77773106 0.33019602 -0.53488791 0.10287599
88.845543 -31.120592 473.89841 -0.97507381 -0.21384305 -0.059179481 0.094319254
99.972702 -32.122112 474.62082 -0.76623887 0.3274231 -0.55287629 0.095105492
100.51353 -31.043358 473.95352 -0.93132782 0.18855552 -0.31156892 0.095078267
88.354446 -29.472097 473.68097 -0.98126042 -0.17036361 -0.090023205 0.086224712
100.44784 -28.291412 473.82401 -0.13220401 0.53054452 -0.83728403 0.081089988
87.144798 -26.916597 474.34894 -0.98758709 -0.066840857 -0.14214097 0.075229421
87.770149 -26.446898 473.32028 -0.97001922 0.01399151 -0.24262518 0.08338853
100.53547 -26.426504 473.87021 0.76497871 0.35642633 -0.53644001 0.073466815
87.185349 -23.464994 474.74979 -0.94002807 0.11714254 -0.32035127 0.064802997
88.322632 -24.131134 473.15399 -0.87175316 0.20066693 -0.44696665 0.071817458
100.32123 -24.061737 474.02234 0.87341571 0.28722382 -0.39325252 0.079484157
89.237885 -21.129187 474.12109 -0.73616832 0.33211029 -0.58971095 0.064013273
90.452629 -20.964863 473.17462 -0.57616282 0.41593897 -0.70358449 0.067784056
99.300865 -20.765457 473.89691 0.74788767 0.38257831 -0.54249233 0.10030062
91.205238 -18.711685 473.79663 -0.42947152 0.48702261 -0.76050198 0.055847373
97.265633 -18.359364 472.67294 0.40776551 0.51764023 -0.75218081 0.085344702
98.292915 -18.35533 473.88696 0.61603278 0.45450351 -0.64337409 0.10393419
92.125671 -17.089922 474.11816 -0.29458633 0.52461088 -0.79875046 0.058409333
93.762932 -16.238516 473.80338 -0.10377887 0.55643356 -0.82438558 0.057281327
96.053894 -16.237789 473.83838 0.22618361 0.55598384 -0.79982686 0.078137808
98.395226 -17.249641 474.90756 0.63582116 0.43859708 -0.6351096 0.10309133
-15.574444 -13.048763 473.87268 0.21169697 -0.82346034 -0.52640039 0.049550243
-14.055052 -12.994971 474.86105 0.25064439 -0.78633815 -0.56466776 0.029956222
-15.234381 -11.642143 472.78616 0.19083583 -0.86467022 -0.4646796 0.074081674
-13.584518 -11.66681 473.51929 0.22065312 -0.85313922 -0.47272158 0.063570574
-11.74572 -10.848116 474.01236 0.29926044 -0.84069389 -0.45130593 0.058669306
-9.7214327 -10.960404 474.97729 0.35240135 -0.81020218 -0.46838632 0.038652532
-10.72131 -9.381609 472.93869 0.43036243 -0.83184153 -0.35046792 0.084761448
-9.0037718 -9.1890192 473.81726 0.46584648 -0.79708916 -0.38423413 0.062150147
-6.7983699 -8.546833 474.7869 0.42754269 -0.76927149 -0.47479323 0.04586374
-8.4186945 -6.4453115 473.07684 0.52764016 -0.76474476 -0.36981261 0.070855707
-6.92946 -7.1289997 474.03024 0.46224993 -0.76960409 -0.44049352 0.057786718
73.697914 -0.5611794 474.31943 -0.081308439 -0.63128144 -0.77127981 0.0025898027
76.5625 -0.50972521 474.14355 -0.033872958 -0.63741463 -0.76977605 0.0011959323
78.90625 -0.44399747 474.1864 -0.00046101821 -0.63835829 -0.76973927 0.00019297427
81.293915 -0.866225 474.91171 0.041481983 -0.6483748 -0.76019037 0.00016540132
71.143661 1.5808302 474.19806 -0.1532717 -0.58918071 -0.79333085 0.0069019361
73.328835 1.4242201 473.1106 -0.10151364 -0.59962976 -0.79381299 0.0060959398
76.5625 0.78240287 473.04929 -0.036387887 -0.62300289 -0.78137267 0.0041725817
78.90625 0.78009063 473.04648 -0.0014243206 -0.62270916 -0.78245211 0.00085045089
81.28862 0.69743544 473.35709 0.038788613 -0.62757099 -0.77759248 0.00011739804
84.300591 1.0514945 473.51511 0.10253496 -0.62671524 -0.7724731 2.2704446e-05
86.295113 1.1900872 473.80075 0.16155413 -0.62201244 -0.76615977 0.00015999199
88.355347 1.4679114 474.01642 0.20562363 -0.6191631 -0.75786275 0.0032954093
91.665947 2.0727406 474.6626 0.27243 -0.61113012 -0.74317014 0.0025725423
71.53653 3.2629819 473.82812 -0.15559044 -0.56424201 -0.81081605 0.010957908
72.722252 3.8281262 472.94946 -0.13597736 -0.55890143 -0.81800938 0.010191657
91.404564 3.0857177 473.36639 0.26758087 -0.61838913 -0.73891503 0.0054232371
93.657654 3.9443862 474.14139 0.3248525 -0.61311561 -0.72011119 0.0041152132
94.707153 5.6931591 473.72021 0.35383514 -0.60990578 -0.70909494 0.0061683916
93.433914 -35.463127 475.75598 0.11085255 0.65831077 -0.7445392 0.084594533
91.89695 -33.366306 476.70227 0.43092176 0.65648913 -0.61913532 0.10805804
93.067368 -34.567299 476.40076 0.17934175 0.66930282 -0.72102028 0.091726854
97.261719 -33.584755 475.77258 -0.37541559 0.49292874 -0.78491044 0.079894476
98.237427 -33.418571 475.59164 -0.48775536 0.46048599 -0.74165177 0.079739049
89.38871 -30.238867 476.93884 0.79174602 0.53439391 -0.29590771 0.10842997
90.319435 -31.8612 476.22607 0.7399798 0.56633365 -0.36289954 0.12071568
98.739517 -31.149429 475.87756 -0.64193076 0.38596049 -0.66254014 0.09563119
88.300652 -28.617456 475.79568 -0.97610497 -0.21711157 -0.0090362113 0.081722684
99.155403 -28.574972 476.62387 -0.79048926 0.2967158 -0.53580451 0.10235921
87.240845 -25.654221 475.76227 -0.98896658 -0.055037484 -0.13753535 0.071973562
100.39841 -25.662558 475.94571 -0.99930722 0.0039206469 -0.0370101 0.072882764
86.990273 -23.67053 476.22546 -0.98043853 0.019953901 -0.19581147 0.069161035
100.64336 -23.502602 475.84637 0.91993243 0.2321794 -0.31593838 0.061186496
86.98407 -21.889984 476.06314 -0.94583142 0.12922938 -0.29783002 0.058788836
87.880768 -20.835562 475.58865 -0.87612212 0.22593607 -0.42586714 0.056911435
100.3867 -21.432638 476.12518 0.88746917 0.27084348 -0.37288377 0.073348343
88.506714 -18.403467 476.2222 -0.76248246 0.32954174 -0.55679685 0.047089066
99.457596 -18.805576 475.74414 0.77594066 0.36609876 -0.51370013 0.095724359
89.241638 -16.64896 476.83627 -0.64343202 0.3693153 -0.67052335 0.050487503
91.000984 -15.976406 475.95947 -0.41979003 0.46624008 -0.77871466 0.060186189
98.813461 -16.288372 476.23007 0.70511097 0.4050653 -0.58201438 0.10088205
-16.228914 -14.068611 475.97058 0.18644232 -0.81811643 -0.54398966 0.025226763
-13.208706 -13.513749 476.38446 0.28544074 -0.78700465 -0.54694355 0.020662306
-10.998434 -12.794997 476.40662 0.2955724 -0.77934355 -0.55250394 0.021023817
91.55069 -14.264008 476.69635 -0.3126314 0.46058083 -0.83073878 0.071563646
93.433968 -13.401518 476.26398 -0.088828973 0.50107676 -0.8608318 0.075218171
96.094902 -13.661485 475.91031 0.26707175 0.52537274 -0.8078714 0.08390227
98.062065 -14.167031 476.64627 0.60160053 0.43643573 -0.66902971 0.10406523
-12.754972 -12.352387 475.12878 0.27807105 -0.79951358 -0.5324046 0.029950427
-11.360576 -12.0974 475.40042 0.30331361 -0.80459648 -0.51051474 0.028226564
-8.8885231 -11.717724 476.22852 0.32861429 -0.77845925 -0.53480268 0.023522496
-7.0376759 -10.895165 476.60553 0.36111295 -0.74365109 -0.56265491 0.016497092
93.75 -12.109369 477.11795 -0.022284027 0.4443295 -0.89558625 0.077874631
95.312508 -11.947721 476.95316 0.17687821 0.47100458 -0.86421573 0.074354775
-6.0749674 -9.1570377 475.90009 0.39976203 -0.73849833 -0.54296452 0.026153896
-5.859375 -7.4218807 475.10739 0.41576105 -0.75044274 -0.51378846 0.03854008
69.53125 -2.7343631 477.23224 -0.15545854 -0.65853059 -0.73632205 0.0062194169
71.09375 -3.1305103 476.95316 -0.12060097 -0.6643005 -0.73767221 0.00364698
73.671875 -3.1064281 476.66019 -0.075327381 -0.66651011 -0.74168056 0.00071589061
76.302086 -3.1509373 476.69873 -0.036534041 -0.67106342 -0.74049914 0.00040666704
78.90625 -3.1581669 476.95316 0.0079428023 -0.68045908 -0.73274314 0
80.078125 -3.0210316 476.95316 0.028043831 -0.6819644 -0.7308476 0
84.179688 -2.7343631 477.12021 0.070566595 -0.63622552 -0.76826912 0.0024883081
85.9375 -2.7343631 477.30832 0.095214717 -0.59156734 -0.80061364 0.0098746885
87.500008 -2.7343631 477.47076 0.11459691 -0.54042727 -0.83355021 0.018869076
69.038399 -1.1402121 476.79721 -0.18304372 -0.63305944 -0.75215077 0.0076883337
70.813316 -1.1613646 475.54529 -0.14027388 -0.63193071 -0.76222485 0.0037695072
73.220482 -1.9817501 475.61856 -0.085589163 -0.65116519 -0.75409436 0.001720801
76.822914 -2.055568 475.6019 -0.029516406 -0.65588003 -0.7542879 0.00047579687
78.90625 -2.0077279 475.75903 0.0017573402 -0.65842748 -0.75264215 0.00014564564
81.277893 -2.3756082 476.45343 0.043502577 -0.6696409 -0.74140984 9.6880947e-05
84.190407 -1.2863001 475.78113 0.097830869 -0.64622003 -0.75685453 0.00070427771
86.331512 -1.0318878 475.90808 0.14886279 -0.62370896 -0.76735067 0.005857002
88.33654 -1.3461 476.55014 0.1655051 -0.57784921 -0.79918605 0.015462046
91.145546 -0.7740044 476.8696 0.21730104 -0.54117906 -0.81234568 0.02517567
69.65036 0.9961645 475.60812 -0.18928723 -0.59416056 -0.7817567 0.0057155602
91.353271 0.87597275 475.64276 0.25311825 -0.5956102 -0.76235145 0.0095232427
93.881378 1.7732348 476.88669 0.32180068 -0.57597691 -0.75146192 0.011901873
94.316231 3.567724 475.74002 0.34877318 -0.60373521 -0.71684104 0.0022548456
92.187492 -32.572701 477.991 0.29675785 0.66109318 -0.68912315 0.10579059
91.386772 -31.341324 478.51907 0.44365019 0.66860348 -0.59677798 0.11476722
93.359383 -30.468746 479.84879 -0.013772132 0.62941647 -0.77694613 0.087901786
88.60099 -28.2484 478.3143 -0.98995548 -0.00048176773 -0.14137828 0.082848124
90.303726 -29.191845 479.20419 0.70359188 0.5972901 -0.38497156 0.14166255
97.264404 -27.733126 479.29428 -0.51501888 0.46938044 -0.71724302 0.080688767
98.581306 -27.991043 478.22067 -0.67162436 0.38118008 -0.63531291 0.088823549
87.761612 -26.591366 478.45236 -0.97869116 -0.20378993 0.025165979 0.059978329
98.993484 -26.273523 478.51123 -0.82037413 0.31372291 -0.47808388 0.099510275
87.05648 -23.872576 478.36401 -0.9943434 -0.0750212 -0.075186513 0.062975578
99.524063 -24.855255 478.90509 -0.93623275 0.20756038 -0.28352594 0.091714539
100.37971 -23.619333 478.18085 -0.99896181 -0.026362617 0.037152484 0.061769657
86.916367 -20.985563 478.18988 -0.97645313 0.074770004 -0.20235777 0.060138036
100.63529 -21.406246 478.58862 0.76233268 0.39238229 -0.51466995 0.050680973
87.191391 -18.800062 478.29919 -0.92943531 0.16028073 -0.33235541 0.052975111
100.45654 -18.705933 478.45801 0.91023386 0.2423546 -0.33576557 0.069989905
-14.453114 -15.040934 479.29691 0.22949812 -0.84853077 -0.47678736 0.017349457
87.151367 -17.156023 478.90625 -0.87876797 0.14915007 -0.45334446 0.054686263
88.391205 -15.987598 478.28943 -0.73102731 0.25687107 -0.63215226 0.058940664
99.680351 -16.131136 478.04166 0.81455797 0.32596684 -0.47983432 0.092253543
100.27456 -17.107809 479.0148 0.88910508 0.26335266 -0.37434962 0.075648248
-18.577568 -13.342891 479.10156 0.12275472 -0.88100433 -0.45690554 0.02244081
-16.371655 -14.580776 478.29321 0.19225183 -0.85200697 -0.48695317 0.019577986
-13.256512 -14.604963 478.25076 0.26392722 -0.81619459 -0.51397353 0.018911967
-10.941592 -14.048388 478.32312 0.29162836 -0.7953229 -0.53142679 0.021033615
-9.072751 -13.466614 478.34518 0.30376297 -0.78607005 -0.53835118 0.02088174
-6.9161282 -12.545612 478.97073 0.33381072 -0.76250076 -0.554223 0.016666755
89.379738 -13.793241 478.96353 -0.56501138 0.2539683 -0.78502375 0.085796297
90.638184 -13.157955 478.17957 -0.3771255 0.34281963 -0.86037844 0.085595042
98.956924 -13.60895 478.34808 0.73326844 0.35196498 -0.58175421 0.099446461
-6.0769396 -11.560738 478.3327 0.34955654 -0.73803735 -0.57715786 0.013635466
-4.2968693 -10.447398 478.63031 0.38431749 -0.70022106 -0.6016565 0.011304483
91.787849 -11.356849 478.32367 -0.19185315 0.29800788 -0.93508488 0.092955805
93.669441 -11.049934 477.81314 0.013464238 0.37542477 -0.92675507 0.082236521
96.572365 -11.243872 477.92987 0.3974103 0.42016762 -0.81579661 0.084733076
98.538162 -11.734461 478.90201 0.68983722 0.3361519 -0.64119154 0.095095463
-4.5979271 -9.8607788 477.75763 0.39461398 -0.68786448 -0.60919809 0.010711251
91.500763 -9.2355518 479.31937 -0.11865373 0.10207495 -0.98767507 0.10064098
94.191437 -9.3166628 478.69345 0.15416779 0.26796225 -0.95101452 0.082780086
96.0392 -9.2203779 479.13861 0.39293781 0.32066754 -0.86184239 0.08547125
98.046867 -9.765625 479.81979 0.64445019 0.30603486 -0.70073301 0.08595214
69.548737 -5.2389951 479.35818 -0.14260134 -0.69623518 -0.70350659 0.001346792
71.09375 -5.3068137 479.07358 -0.11203346 -0.69766849 -0.70760673 0.00074603141
73.4375 -5.3834615 478.99573 -0.072906569 -0.70371509 -0.70673174 0.00068418682
76.5625 -5.287107 479.10602 -0.025265153 -0.70646054 -0.70730138 0
78.90625 -5.2175636 479.1756 0.0053859912 -0.70637429 -0.70781797 0
81.222099 -5.3491983 479.34094 -0.017510489 -0.68818814 -0.72532094 0.0029435647
84.179688 -5.4291191 479.35956 -0.066212803 -0.60225987 -0.79554939 0.024348255
85.9375 -5.4740958 479.29105 -0.061168522 -0.51841378 -0.85293943 0.044590097
88.411461 -6.126277 479.58514 -0.07084699 -0.35113034 -0.93364245 0.069518209
91.407333 -6.1837912 479.51007 0.047045559 -0.17427281 -0.9835729 0.081703171
94.097229 -6.6840301 479.68872 0.25050184 0.02964315 -0.96766216 0.091573648
67.368683 -2.7343631 479.29691 -0.21460485 -0.65810925 -0.72169036 0.0053596525
68.737076 -4.0191441 478.69611 -0.16825843 -0.67720592 -0.71629691 0.0045338436
71.09375 -3.9310553 477.69189 -0.11594429 -0.67742896 -0.72639316 0.0033143628
73.4375 -3.996057 477.55585 -0.077780478 -0.67895317 -0.73004979 0
76.5625 -3.9591887 477.61679 -0.031347889 -0.68478733 -0.72806841 0
78.906258 -3.8972299 477.75351 0.011155002 -0.69280928 -0.72103459 0
81.347649 -4.1511073 478.1994 0.017629946 -0.67790675 -0.73493648 0
84.160965 -4.0538883 478.246 0.013855335 -0.61913145 -0.78516507 0.011638573
86.432289 -3.8615484 478.18057 0.048635397 -0.54125792 -0.83944887 0.026447127
88.742722 -3.6462972 478.19019 0.082043611 -0.46345064 -0.88231641 0.039956436
91.40419 -3.4330835 478.68933 0.15937245 -0.37739423 -0.91223574 0.057060126
93.359383 -3.90625 479.72711 0.25231537 -0.25046948 -0.93466681 0.070195377
68.055893 -2.3314686 478.21124 -0.19760296 -0.65435541 -0.7299124 0.0085638426
91.722481 -1.7314057 477.8494 0.20867382 -0.47623795 -0.85419708 0.039989948
93.471809 -1.1652259 478.76526 0.28629383 -0.43921396 -0.8515439 0.044851821
94.391502 1.1118042 478.55649 0.33875981 -0.52857774 -0.77836198 0.024605144
94.86097 2.7343631 477.73438 0.36942479 -0.57969153 -0.72628033 0.010970023
91.900063 -30.397427 480.07507 0.21112826 0.67265028 -0.70920128 0.10221229
93.383339 -30.273432 480.27344 -0.034408946 0.63825703 -0.76905394 0.087918125
89.426369 -27.601288 480.32822 0.79864925 0.51078475 -0.3182112 0.12123585
91.376167 -28.383451 481.29269 0.32390401 0.67472821 -0.66319537 0.12433505
93.36068 -28.897942 480.98419 -0.057726588 0.63095933 -0.77366525 0.091456272
88.49662 -26.26268 481.51453 0.18837158 0.86532223 -0.46447125 0.074119449
90.484177 -26.936859 482.45563 0.51682293 0.62322527 -0.58692801 0.14344549
98.042023 -26.171864 480.06567 -0.64027482 0.43975502 -0.62981242 0.07934057
87.071251 -23.677015 481.15717 -0.98723978 -0.15746506 0.023716202 0.051549993
98.688103 -24.008173 480.96326 -0.79678911 0.37454095 -0.47417948 0.078645863
87.001076 -21.237356 481.19232 -0.99622226 -0.041558057 -0.076250724 0.052501865
99.431183 -21.41013 481.68658 -0.98129869 0.14338452 -0.12842831 0.061252505
100.58912 -20.776884 480.53885 -0.99296159 -0.072694868 0.093503632 0.036614042
87.210693 -18.747559 481.33679 -0.97449732 0.016674232 -0.22377867 0.057500023
100.6486 -18.716423 481.57263 -0.99172223 -0.065253526 0.1105847 0.040519916
-15.559896 -15.064731 481.11981 0.18490426 -0.89556217 -0.40469602 0.016054135
-13.361846 -15.222105 481.3291 0.23033318 -0.88005686 -0.41526672 0.017815866
-11.101472 -15.123653 481.44531 0.26752186 -0.86039943 -0.43375668 0.019749463
-9.765625 -15.039385 481.64062 0.27548534 -0.84876484 -0.45133811 0.020822866
87.364075 -16.643766 481.509 -0.921776 -0.0044524949 -0.3876974 0.073373348
87.567001 -15.625 480.46875 -0.84325516 0.062935621 -0.53381634 0.077808581
100.66151 -16.333925 481.13947 0.91307259 0.21458739 -0.34677178 0.058727253
-18.532246 -13.884708 480.07812 0.10534419 -0.90293372 -0.41666931 0.01985015
-16.731642 -14.837917 480.72916 0.15368266 -0.90119219 -0.40525836 0.016475897
-10.937497 -14.838651 480.07812 0.28450626 -0.82980496 -0.48008326 0.019974004
-9.1118097 -14.586351 481.30762 0.28650728 -0.83775908 -0.46483696 0.020559754
-7.1795306 -13.450936 480.98245 0.32646638 -0.80168205 -0.50072515 0.018617794
88.11171 -13.638481 481.1825 -0.73961103 0.020478804 -0.672723 0.10399655
99.608894 -12.587339 480.38715 0.82528126 0.25187185 -0.5054419 0.087022983
100.42902 -13.497554 481.81012 0.91657048 0.17057535 -0.36166653 0.067600563
-5.405118 -12.106737 480.20831 0.34454405 -0.76614249 -0.54250818 0.017167017
88.61245 -11.457699 481.11124 -0.56046021 -0.031921346 -0.82756603 0.12216506
99.170715 -10.803064 480.42191 0.7788623 0.26597884 -0.56800425 0.08739233
100.00238 -11.015624 482.22256 0.88518238 0.18953988 -0.42488447 0.076453231
69.581245 -8.1060982 482.28476 -0.11202377 -0.77504808 -0.62189317 0.012695628
71.149559 -8.2634382 482.18866 -0.079239376 -0.78095335 -0.6195426 0.0097788712
73.4375 -8.4151678 482.22827 -0.051396172 -0.78617567 -0.61586219 0.0065438235
76.534592 -8.3066177 482.23407 -0.017063228 -0.78453642 -0.61984795 0.0023560652
78.90625 -8.0753622 482.0903 -0.033952896 -0.77434593 -0.63185102 0.0094599733
81.25 -8.105792 482.08282 -0.13923509 -0.72776586 -0.6715433 0.032258943
84.271454 -8.4540005 482.17334 -0.30372834 -0.61970913 -0.72367787 0.075110458
86.678986 -8.7804241 481.6012 -0.37416995 -0.41434833 -0.82964587 0.10350542
88.712807 -8.8628893 480.60513 -0.30455372 -0.17762245 -0.93578696 0.11031989
96.944305 -8.2402678 480.14264 0.52109832 0.28379107 -0.80493426 0.078423008
98.935936 -9.0479593 481.4187 0.77853137 0.25124037 -0.57512355 0.080455273
66.822548 -5.7405663 481.84131 -0.20659237 -0.71572322 -0.66712809 0.005858555
68.627159 -6.5231247 480.97604 -0.15148036 -0.7295242 -0.66696948 0.0061954656
71.09375 -6.8341346 480.67517 -0.099735186 -0.73662269 -0.66890949 0.0020135052
73.4375 -6.9107141 480.59753 -0.062831521 -0.74317962 -0.66613531 0.0005755116
76.5625 -6.812562 480.69077 -0.018158969 -0.74723572 -0.66431093 0.00015931409
78.90625 -6.736115 480.76987 -0.012366671 -0.7469371 -0.66477978 0.0023385822
81.25 -6.7912769 480.70242 -0.077595785 -0.70515531 -0.70479423 0.014215134
84.17968 -6.8916759 480.59729 -0.17633995 -0.5968318 -0.78274906 0.043831237
86.691742 -6.989934 480.32458 -0.18033805 -0.43841013 -0.88049686 0.070376083
88.76638 -7.3760948 480.09476 -0.16432616 -0.26103503 -0.95124006 0.096980132
94.162025 -5.3408813 480.09369 0.28533643 -0.085022211 -0.95464885 0.082736164
96.379974 -6.1393332 481.11267 0.51306933 0.14086714 -0.84670913 0.076969713
98.374557 -6.8139277 482.02765 0.72132534 0.24970606 -0.64601594 0.065786615
66.701721 -4.1502247 481.1051 -0.22744721 -0.68398994 -0.69312739 0.0026518623
93.97924 -3.90625 480.18875 0.3001489 -0.21334986 -0.92972714 0.075041123
95.800537 -3.9136899 481.69568 0.48653042 -0.047555972 -0.87236845 0.066560708
94.517944 -1.6076465 480.61658 0.37146193 -0.3312299 -0.86735398 0.055704247
95.319489 -1.7275513 481.91534 0.45772016 -0.24033736 -0.85599667 0.051793709
94.750282 0.39061904 480.07812 0.3733021 -0.45839831 -0.80654603 0.038968686
92.57811 -27.734369 483.1889 -0.025460899 0.65475172 -0.75541508 0.093901105
89.132919 -25.664398 483.6171 0.79449767 0.46120054 -0.39505377 0.11056855
91.438797 -26.414162 483.61246 0.15690525 0.61713666 -0.77105319 0.12609853
88.253448 -23.952393 484.2251 0.79415077 0.41709423 -0.4419921 0.07137356
97.851547 -23.046881 483.20316 -0.65349436 0.48817772 -0.57847017 0.057950344
87.247589 -20.807293 483.29297 -0.9952274 -0.096227139 -0.016213607 0.048615292
97.978859 -20.860418 483.8389 -0.78633428 0.44188413 -0.43176031 0.074429139
87.407104 -18.945312 484.17969 -0.98718268 -0.10082389 -0.1237136 0.05556735
99.037781 -19.03237 483.897 -0.99448663 0.10025523 -0.030745687 0.045030542
87.416641 -16.406254 483.59375 -0.93864626 -0.1099842 -0.32687396 0.077241272
87.534698 -17.187506 484.76566 -0.96481204 -0.15169863 -0.2147682 0.081751332
100.53821 -16.344778 483.56897 -0.98952043 -0.02901835 0.14144726 0.040437698
87.246834 -13.387492 484.00943 -0.81978083 -0.24420598 -0.51799899 0.11714381
100.86881 -13.281248 483.59375 0.95998466 0.079347633 -0.26857662 0.054693308
69.53125 -10.182589 484.76566 -0.087391168 -0.81647187 -0.57073331 0.015990254
70.703117 -10.454655 484.76566 -0.069005594 -0.82212991 -0.5651024 0.01557055
74.609367 -10.458946 484.76566 -0.015630199 -0.83339679 -0.55245411 0.0083226115
76.5625 -10.293423 484.76566 -0.013738571 -0.83450419 -0.55083036 0.0079777334
86.686668 -11.442326 483.66336 -0.65894479 -0.41788885 -0.62542838 0.13090624
100.52216 -10.881506 483.61212 0.92819262 0.13167793 -0.34802219 0.066032007
66.832176 -8.1586046 484.03384 -0.1707491 -0.78152364 -0.60005462 0.015275517
68.75576 -8.8823652 483.46396 -0.11967061 -0.79049712 -0.60066062 0.014926073
70.898438 -9.2877789 483.35651 -0.074871995 -0.80357766 -0.59047198 0.015408252
73.4375 -9.6728802 483.64133 -0.039811295 -0.80925781 -0.58610314 0.0089856395
76.573227 -9.6093159 483.71478 -0.016760718 -0.81330228 -0.58159995 0.0055790236
78.515625 -9.1611071 483.28311 -0.044214632 -0.79542601 -0.60443574 0.012239789
81.25 -9.2309561 483.45523 -0.17906089 -0.75806683 -0.62711394 0.046172831
83.83905 -9.4385023 483.46118 -0.34347364 -0.68601722 -0.64140952 0.085625805
86.012817 -9.6731186 482.87158 -0.4635272 -0.52714562 -0.71222192 0.11219886
100.33855 -9.3056021 483.79199 0.90759599 0.15613504 -0.3897323 0.068770923
66.331085 -6.8099828 483.81546 -0.20581727 -0.75251251 -0.62559116 0.010702719
99.303429 -5.9870114 483.57727 0.81686544 0.22567834 -0.53084862 0.055535417
100.31198 -6.0597515 484.84158 0.88352722 0.19042823 -0.42792159 0.054921947
96.881035 -2.9042728 483.15454 0.62292928 0.0242566 -0.78190202 0.052191734
98.257721 -3.362359 483.89471 0.73162943 0.18512337 -0.65608513 0.039615184
90.445862 -25.045954 485.17407 0.28751597 0.53503323 -0.79440171 0.14378397
89.216202 -23.442364 486.11826 0.66235512 0.42454702 -0.61728889 0.11947427
91.215141 -24.483166 486.1225 0.088573776 0.4976514 -0.8628428 0.11639867
88.058777 -21.335621 486.17462 -0.25453049 0.46575895 -0.84751564 0.062731341
87.9133 -19.157492 487.08472 -0.97331929 -0.22781505 0.027383812 0.075668737
97.080658 -18.174095 485.66785 -0.73326403 0.59029043 -0.33746266 0.11356263
87.493904 -15.494794 485.02603 -0.92358512 -0.1922299 -0.3317202 0.091161251
87.502594 -15.234381 486.71875 -0.92126894 -0.2827712 -0.26702827 0.10638804
97.265633 -16.546085 486.87817 -0.89872426 0.433348 -0.067113176 0.13071659
98.824356 -16.616707 486.13144 -0.99035579 0.12254528 0.064638346 0.043925487
100.23202 -15.625 485.15625 -0.98913413 0.035575334 0.14264673 0.04077265
87.10379 -13.878571 486.3595 -0.85218853 -0.34100726 -0.39684862 0.10998676
100.5107 -14.189516 485.95712 -0.18753846 0.071349122 -0.97966254 0.047953386
68.726746 -10.66031 486.39966 -0.10128348 -0.82984108 -0.54873085 0.017424185
71.170753 -11.059973 485.77954 -0.056189749 -0.83503956 -0.54731303 0.014708588
73.438522 -11.071166 485.8924 -0.021516444 -0.84969467 -0.52683586 0.011962436
76.57843 -10.725513 486.07584 -0.011173308 -0.85409909 -0.51999032 0.0092741325
78.91201 -10.412339 486.17648 -0.065134257 -0.8433212 -0.53344816 0.021074178
81.25 -10.144196 485.9375 -0.17387642 -0.82485569 -0.53794062 0.047953315
84.068733 -10.551451 486.14111 -0.38217011 -0.7672931 -0.51498288 0.094580673
85.821678 -12.02931 486.09741 -0.64682913 -0.57463777 -0.5014016 0.1240077
101.10017 -11.718575 485.95657 0.96064425 -0.0070544085 -0.27769208 0.056980524
66.860123 -9.1559992 485.93228 -0.16104326 -0.80494785 -0.57107264 0.016352836
68.017159 -9.7947979 485.07089 -0.12534346 -0.80792272 -0.5758037 0.015997635
101.05525 -9.1557131 485.82764 0.93797374 0.05209893 -0.34276944 0.061977774
101.17374 -6.2287078 486.16467 0.91480714 0.10230168 -0.39072016 0.056585658
99.743477 -4.0364566 485.15955 0.82982874 0.23840652 -0.50452614 0.03883725
88.48008 -20.95706 488.18002 0.70735645 0.41599214 -0.57148701 0.078347318
87.992142 -15.390629 489.10187 -0.90549177 -0.42146236 -0.049539678 0.13898773
97.265633 -15.21349 488.90002 -0.83062106 0.55234259 0.070613369 0.15307617
98.117607 -15.400406 488.72144 -0.95925897 0.25026143 0.13111629 0.060991623
86.598434 -13.466771 488.90106 -0.79053849 -0.53349662 -0.30071607 0.11280704
87.519081 -14.427205 489.84375 -0.88453501 -0.44276553 -0.14682142 0.10732209
99.236649 -14.170896 488.97742 -0.29959172 -0.79855186 -0.52207255 0.056433588
100.34308 -12.919209 488.36826 0.95267236 -0.1598603 -0.25857329 0.058272019
68.658264 -10.987176 488.444 -0.095723078 -0.85939133 -0.50227839 0.02054364
71.158859 -11.670349 488.99738 -0.037729751 -0.88566029 -0.46279833 0.017337972
73.413429 -11.470826 489.04419 0.0014641393 -0.90216023 -0.43139854 0.013525701
76.484421 -10.761887 488.88165 0.0078830998 -0.89639115 -0.44319376 0.0088152718
78.256638 -10.324816 488.75 -0.027268084 -0.88578987 -0.46328467 0.014644952
81.510414 -10.068436 488.67188 -0.14986067 -0.87811333 -0.45437738 0.038228374
84.027374 -11.190725 489.00861 -0.37727126 -0.83327889 -0.40411955 0.085152797
101.33174 -11.203382 488.95367 0.91115236 -0.22723947 -0.3437492 0.065550432
80.468742 -9.8555393 489.45312 -0.10213444 -0.8906163 -0.44313797 0.027447548
102.07076 -9.1468639 488.68665 0.8922509 -0.20870802 -0.40041137 0.066391259
102.71724 -8.5312271 489.87955 0.80427229 -0.35999212 -0.47281256 0.065773778
102.06033 -6.5429692 487.86676 0.90739202 -0.06855721 -0.41465586 0.059871674
102.76064 -7.2828727 489.41544 0.82924312 -0.28830877 -0.47878388 0.061251566
88.193207 -15.234381 491.40625 0.79494351 0.5263567 -0.30168447 0.15433909
86.302246 -13.334053 491.42682 -0.7482968 -0.64372563 -0.16021632 0.099833935
87.713394 -14.208671 491.35138 -0.87264639 -0.47648737 -0.10699601 0.11231971
99.049698 -13.238736 491.23779 0.85587889 -0.40377593 -0.32316622 0.064015068
100.63625 -12.661793 490.79132 0.84587771 -0.38447908 -0.36968464 0.064682052
84.112396 -11.994908 491.70605 -0.4117468 -0.87454498 -0.25619465 0.079677187
101.13046 -11.464563 490.56876 0.84061497 -0.37048188 -0.39510715 0.066301785
102.80425 -11.121855 492.0069 0.68054557 -0.53773934 -0.49768874 0.053565659
103.37949 -9.369647 491.41049 0.67517203 -0.51920748 -0.52399063 0.055565149
163.63208 -65.605644 494.82169 -0.043567069 -0.6020034 -0.79730409 0.26806688
165.24756 -65.264992 494.9072 0.42886397 -0.44572839 -0.78574932 0.25656348
162.22456 -63.867226 494.8447 -0.45422217 -0.11522162 -0.88340604 0.25180274
164.21237 -63.22509 494.26169 0.090061568 0.011675892 -0.99586773 0.23852387
165.65657 -63.252548 494.77917 0.42942533 -0.052987147 -0.9015466 0.22361863
163.08868 -61.924301 494.89221 -0.18063469 0.17303212 -0.96821022 0.21302508
97.371689 -15.234381 492.52899 0.55779827 -0.7679562 -0.31480843 0.12604485
