# .PCD v0.7 - Point Cloud Data file format
VERSION 0.7
FIELDS x y z normal_x normal_y normal_z curvature
SIZE 4 4 4 4 4 4 4
TYPE F F F F F F F
COUNT 1 1 1 1 1 1 1
WIDTH 620
HEIGHT 1
VIEWPOINT 0 0 0 1 0 0 0
POINTS 620
DATA ascii
20.998169 -63.380424 234.54646 -0.27242792 0.043356273 -0.96119887 0.038635742
22.945786 -63.23877 234.69855 -0.29866651 0.03758508 -0.95361716 0.034061465
24.968674 -63.122829 234.70114 -0.32005444 0.015864842 -0.94726628 0.033089716
26.998579 -63.248177 234.36218 -0.33924255 -0.0018025939 -0.94069719 0.031974792
28.333948 -63.273846 234.15759 -0.37201357 0.0010840135 -0.92822659 0.031746686
51.348972 -26.245424 234.21758 0.23331095 0.36918938 -0.89959168 0.0098574711
53.018757 -26.448721 234.38405 0.22648363 0.37988305 -0.89688015 0.0097665414
54.91423 -26.40564 234.62247 0.21917218 0.39270696 -0.89316559 0.01133662
56.947144 -26.462891 234.53604 0.21133189 0.40515649 -0.88948697 0.010473807
58.93055 -26.353449 234.62166 0.2087305 0.4190861 -0.88362801 0.0087278076
60.562782 -26.22555 234.16995 0.19313589 0.45754251 -0.86795932 0.010346951
49.525867 -25.144548 234.09508 0.24902311 0.34936082 -0.90329099 0.0089556314
50.99231 -24.95055 234.50786 0.23923732 0.36189696 -0.90099728 0.0099467058
52.966351 -25.051121 235.11917 0.23181048 0.37420598 -0.89790523 0.010188902
54.842587 -25.131948 235.52058 0.22560534 0.3835133 -0.89555556 0.010444826
57.045029 -25.468004 235.40704 0.21891582 0.39529008 -0.89208829 0.010205613
59.050941 -25.482819 235.49443 0.22191523 0.40337205 -0.88771868 0.010681788
60.936607 -25.399185 235.29422 0.21455804 0.42678434 -0.87853289 0.011220697
62.900932 -25.050875 235.55107 0.20685227 0.44958097 -0.86895865 0.010703543
64.662315 -24.667269 235.62531 0.19202849 0.47727203 -0.85751766 0.0094452137
66.020882 -24.257843 235.68159 0.18351977 0.49625763 -0.848557 0.0089808879
49.455914 -22.788013 234.16666 0.2577022 0.33768219 -0.90529573 0.010024476
50.973671 -23.054325 234.84264 0.24701957 0.35332793 -0.90229744 0.011117164
52.834328 -23.088072 235.5415 0.23869912 0.36352655 -0.90048385 0.010362035
54.027142 -23.698816 235.81372 0.23381567 0.37063825 -0.89886463 0.010054436
51.097767 -21.100712 234.8215 0.25820675 0.33695111 -0.90542436 0.011841142
52.956104 -21.042372 235.6734 0.24777147 0.34738088 -0.90439802 0.011433677
51.429108 -19.606747 234.55103 0.27997303 0.29658577 -0.91304547 0.011389778
53.147289 -19.334091 235.62679 0.26728815 0.31186444 -0.9117552 0.011975876
-19.107597 -90.565132 236.09599 -0.3696177 0.37273234 -0.85114825 0.019841122
-20.655228 -88.923859 236.22575 -0.41349179 0.36094457 -0.83590883 0.021838311
-19.429783 -89.15255 236.13947 -0.41338146 0.35361677 -0.83908939 0.019193683
-19.395981 -87.930527 236.18109 -0.4411099 0.32224482 -0.83760393 0.020218961
43.852005 -78.172714 236.10989 -0.19476916 0.58976698 -0.78373456 0.063868389
44.922119 -78.307152 236.10799 -0.30386436 0.57806563 -0.75730222 0.062138844
43.572124 -76.97863 236.83202 -0.18678454 0.60567832 -0.77347612 0.071852326
44.918209 -76.928429 236.98677 -0.36508071 0.57845396 -0.72945672 0.065108865
47.005566 -76.552078 236.54338 -0.46496919 0.51870441 -0.71746039 0.034243334
42.987831 -75.140961 237.07372 -0.20659283 0.61855388 -0.75809664 0.080650263
45.238026 -75.602722 237.57164 -0.45142654 0.53495401 -0.71416962 0.046828043
46.959949 -75.194344 237.46031 -0.490381 0.49086213 -0.72012556 0.022279125
48.271759 -75.12056 236.86079 -0.49026099 0.47667181 -0.72967678 0.015454601
42.706402 -73.793564 237.66815 -0.26542795 0.59561157 -0.75815237 0.074843273
17.218975 -68.273651 236.96767 -0.23212898 0.066570379 -0.97040427 0.060761344
18.83979 -68.368378 236.19061 -0.24652618 0.10432953 -0.96350414 0.044554032
20.29574 -68.302155 236.1338 -0.25781465 0.11949442 -0.95877665 0.037453674
17.184156 -67.20372 236.89659 -0.22274166 0.066563413 -0.97260243 0.057720043
19.034569 -67.066727 236.44098 -0.24198586 0.096008852 -0.96551812 0.041576669
20.616201 -66.947952 236.25247 -0.26155502 0.10476459 -0.95948601 0.03560349
17.715347 -65.921173 236.24161 -0.22682357 0.072034121 -0.97126836 0.050560813
18.521275 -65.908203 236.13571 -0.23554827 0.082854852 -0.96832436 0.044078209
20.584412 -65.939171 236.16621 -0.26243484 0.089773029 -0.96076471 0.036417842
55.501175 -24.324614 236.38338 0.22743596 0.38140485 -0.89599288 0.011397073
56.972576 -24.440292 236.38535 0.22603649 0.38659123 -0.89412236 0.011455839
58.904205 -24.561399 236.48866 0.23118702 0.3911711 -0.89080739 0.012335789
61.01548 -24.460903 236.52823 0.23297785 0.3969892 -0.88776177 0.011695182
62.956882 -24.42622 236.55829 0.2276773 0.41038945 -0.88303089 0.009776026
65.054779 -24.227983 236.46948 0.21083106 0.44900095 -0.86830199 0.0094365831
53.630444 -22.528105 236.10985 0.23946315 0.36140907 -0.90113312 0.011321745
54.971283 -22.944387 236.38892 0.23405346 0.36942482 -0.89930207 0.010678518
57.027973 -22.930643 237.01094 0.23404871 0.37477833 -0.89708549 0.011980262
58.969936 -23.107924 237.46907 0.24049029 0.37413996 -0.89564717 0.01189439
60.992756 -23.408546 237.57954 0.24175923 0.37615886 -0.89445907 0.0097176209
62.974285 -23.583755 237.51779 0.24132882 0.38366455 -0.89138198 0.0088044265
65.039551 -23.608728 237.33818 0.23645104 0.40848929 -0.88160503 0.011183667
66.522118 -23.371958 237.69624 0.22599824 0.43070796 -0.87373656 0.013410045
68.658035 -22.560343 237.95256 0.21399489 0.44328874 -0.87046039 0.011291151
53.193928 -20.825649 236.16357 0.24865335 0.34624302 -0.90459234 0.012318863
54.963039 -20.98485 236.72223 0.24391188 0.35228792 -0.90354872 0.010834687
56.904922 -21.026627 237.4604 0.24294004 0.35706726 -0.90193295 0.011178983
58.397728 -21.387897 237.84135 0.24585941 0.35955486 -0.90015191 0.010653903
53.812317 -19.660147 236.26775 0.25653267 0.33071217 -0.90819627 0.012732917
55.078777 -18.990223 236.67575 0.26188204 0.31716281 -0.91149634 0.0085648987
56.853947 -18.967787 237.54642 0.25705472 0.33127099 -0.90784496 0.010068349
58.432304 -19.491734 237.95766 0.2530528 0.34607601 -0.90343547 0.011736998
55.28841 -17.663988 236.58569 0.29057834 0.26618552 -0.91908079 0.007602531
57.193249 -17.395037 237.55809 0.28389895 0.28501883 -0.91551393 0.010163667
58.4622 -16.487633 237.92749 0.29428673 0.26721993 -0.9175995 0.010829027
43.808281 -76.633087 238.09566 -0.20899229 0.59876579 -0.77317649 0.069404908
43.578068 -74.74144 238.55826 -0.34064782 0.5535571 -0.75995624 0.051408134
44.822849 -74.726433 238.53279 -0.44699237 0.51731908 -0.72977996 0.038684834
46.94347 -74.362091 238.25668 -0.49543425 0.48775932 -0.71877378 0.022786623
43.422237 -73.816971 239.05853 -0.31361064 0.5531261 -0.77181596 0.046306688
45.257088 -73.852539 239.38383 -0.45266888 0.50728333 -0.73331749 0.038634434
46.756317 -73.849091 238.87952 -0.49498814 0.48748344 -0.71926814 0.025586285
48.046169 -73.805412 238.19031 -0.50094444 0.47554016 -0.72312951 0.017997913
59.581608 -22.203615 238.12077 0.2460746 0.36435565 -0.89816046 0.010097985
61.218552 -22.398834 238.33521 0.2473233 0.3649604 -0.8975718 0.0091603026
63.033783 -22.548723 238.64014 0.25203633 0.36723721 -0.8953293 0.010162709
65.036064 -22.67704 238.57207 0.25521323 0.37313277 -0.89198554 0.012342123
67.031036 -22.553677 238.61504 0.24184185 0.39561918 -0.88600111 0.012252545
68.607391 -22.374466 238.76796 0.22631776 0.42385545 -0.87699866 0.013449379
57.721127 -20.620352 238.05199 0.24712259 0.3537986 -0.90208477 0.010757321
59.16782 -20.942265 238.3801 0.25017577 0.35460579 -0.90092558 0.010928121
60.955265 -20.987673 238.77802 0.25387701 0.35253403 -0.90070319 0.010784439
62.968185 -21.067074 239.42839 0.26114437 0.34999186 -0.89961618 0.011935594
64.908394 -21.331991 239.651 0.26337233 0.35344645 -0.89761388 0.012299882
66.972389 -21.630323 239.59879 0.25841439 0.36406019 -0.89480847 0.012913188
68.720573 -21.577616 239.60913 0.24875405 0.38397405 -0.88920486 0.014846584
70.731247 -21.187983 239.83182 0.2337153 0.40599853 -0.88348305 0.012252108
57.719822 -19.249821 238.10588 0.25407159 0.34048444 -0.90527236 0.011574975
59.031586 -19.00639 238.5694 0.25806636 0.33660024 -0.90559483 0.012473712
61.026196 -19.013721 239.28751 0.26299176 0.33799738 -0.90365541 0.013143403
62.518635 -19.361219 239.79283 0.26641053 0.33950481 -0.90208745 0.012930037
57.862541 -17.509619 238.02563 0.27646515 0.29897651 -0.91333461 0.010857906
59.093441 -17.071259 238.58888 0.2781795 0.29978183 -0.91254979 0.012840349
60.912262 -17.000738 239.42679 0.27466461 0.31405404 -0.90880662 0.014035637
62.347412 -16.051281 239.84625 0.28421181 0.30125815 -0.91020173 0.014309283
59.302509 -15.611306 238.34818 0.31143206 0.23735896 -0.92014718 0.010630213
61.164062 -15.202019 239.33485 0.3046346 0.25411817 -0.91794431 0.011911802
62.399227 -14.738384 239.80226 0.30498233 0.25540659 -0.91747105 0.010973715
61.688774 -13.79475 239.53253 0.33694586 0.18989232 -0.92217594 0.0080655813
62.16711 -13.656627 239.62167 0.33313414 0.19547123 -0.92239505 0.0073618814
32.999241 15.689 239.44145 0.046295434 0.19400476 -0.97990757 0.036069252
32.693672 16.449934 239.743 0.025690565 0.19492267 -0.9804821 0.032836094
33.44479 20.666521 239.64873 -0.14406063 0.23161694 -0.96208113 0.022962913
33.72369 23.56304 239.38263 -0.141783 0.22265001 -0.96453333 0.014382984
34.003628 23.44532 239.73517 -0.14183944 0.22265889 -0.96452302 0.01329647
33.671738 24.042383 239.98601 -0.14034691 0.22485012 -0.96423298 0.014173705
39.978882 27.090342 239.94243 -0.12830533 0.23289339 -0.96400124 0.018602749
-14.144729 -72.408722 241.4167 0.79534274 0.23552904 -0.55853027 0.013627402
-13.858043 -72.495628 241.82277 0.79038221 0.24472035 -0.56161195 0.012916883
43.97686 -73.813637 240.061 -0.30090049 0.55021948 -0.77892077 0.046839848
44.438583 -73.8396 240.16 -0.3569226 0.53566164 -0.76529264 0.047827348
-14.121975 -71.304977 241.4913 0.7941848 0.15634951 -0.58721834 0.013368597
-13.821289 -70.906517 241.86623 0.78817582 0.15951596 -0.59441864 0.013024006
63.443451 -20.308212 240.07393 0.26665962 0.34462139 -0.9000715 0.012924233
65.223282 -20.58783 240.31953 0.26626202 0.34654093 -0.89945203 0.011873987
66.963867 -20.593296 240.53423 0.26551494 0.35001296 -0.89832771 0.013182335
69.039986 -20.620317 240.61554 0.26094052 0.36226615 -0.89480352 0.014716768
70.947006 -20.547758 240.77223 0.24770404 0.37974718 -0.89131069 0.01284975
72.635574 -20.117172 241.06506 0.23828727 0.38421413 -0.89196342 0.010858287
75.130882 -20.030378 240.68213 0.20304725 0.44038191 -0.87454879 0.008727313
63.219608 -18.769005 240.25848 0.27116594 0.33234075 -0.90333754 0.013217437
65.041786 -18.986814 240.7766 0.27185351 0.33343992 -0.90272558 0.012076966
66.996529 -19.08153 241.36147 0.27172762 0.33807394 -0.90103829 0.013063384
68.886665 -19.206001 241.59418 0.27003559 0.34362349 -0.89944631 0.013924927
71.255287 -19.460669 241.64342 0.25833967 0.35115278 -0.89997351 0.011399435
72.705894 -19.628511 241.60588 0.24771126 0.3644484 -0.89767277 0.010536132
74.892975 -19.553181 241.43782 0.2263649 0.40399343 -0.88631153 0.0095910504
76.27005 -19.194168 241.8342 0.22008325 0.41859365 -0.88110316 0.01085701
61.734436 -17.643656 240.20895 0.27308196 0.3239139 -0.90581793 0.014801949
63.079933 -17.064615 240.53844 0.27857849 0.31556067 -0.90709174 0.013338528
64.989723 -16.980396 241.21043 0.28063124 0.31344646 -0.90719211 0.011298321
66.821114 -17.207235 241.74789 0.27971068 0.31721571 -0.9061656 0.0114148
63.268963 -15.05762 240.49397 0.2954185 0.27397746 -0.91523993 0.011139081
65.021935 -15.018406 241.41725 0.29465851 0.27838621 -0.91415393 0.0095460629
66.552528 -14.987069 241.87465 0.29344442 0.28386822 -0.91285777 0.0087672854
63.433056 -13.693713 240.42984 0.31746119 0.22557335 -0.92105108 0.0083447602
65.051567 -13.163388 241.11122 0.31889558 0.23088515 -0.91923749 0.0083542727
66.537758 -12.998115 241.74786 0.31456679 0.24481015 -0.91712356 0.0091869272
67.900177 -11.199876 241.97371 0.3377184 0.1962716 -0.92055625 0.010284872
33.15559 16.611866 240.35359 0.0049748174 0.19793141 -0.98020327 0.030851284
32.725689 19.501476 240.51721 -0.12655246 0.23579687 -0.96352702 0.027667085
31.650913 21.014387 241.20378 -0.12920931 0.23403317 -0.96360433 0.023070069
32.874527 21.158697 240.62869 -0.13763143 0.2302741 -0.96334386 0.021443987
34.153889 21.642914 241.34647 -0.13489433 0.22741884 -0.96440876 0.016768448
31.84613 23.156713 240.9776 -0.14459935 0.22374851 -0.96386081 0.016608344
32.907806 23.042912 240.81558 -0.13644212 0.22364905 -0.96507233 0.015292432
34.817638 23.099112 241.39551 -0.13822974 0.22689612 -0.96405947 0.01464965
36.308231 23.404602 240.85576 -0.13552512 0.228948 -0.96395838 0.015268952
31.614441 24.414268 241.30573 -0.14028904 0.22293493 -0.96468598 0.015985461
33.151264 24.96903 241.31709 -0.13542387 0.22473028 -0.96496451 0.013336834
34.87159 24.986172 241.61182 -0.13599114 0.22600301 -0.96458745 0.013081091
37.195164 25.528536 241.12689 -0.13323481 0.22717199 -0.9646976 0.013592954
39.198383 25.765766 240.57227 -0.13118221 0.22821957 -0.96473163 0.013531915
40.560959 25.624081 241.01752 -0.1296877 0.23151082 -0.9641493 0.014557293
31.791519 26.713051 241.66528 -0.12886398 0.22530457 -0.9657287 0.013822079
33.092972 26.913246 241.44696 -0.13441867 0.22710943 -0.96454805 0.012340132
35.579559 26.345612 241.48947 -0.1338748 0.2276171 -0.964504 0.012272492
37.284187 26.245741 241.31013 -0.13353981 0.22885761 -0.96425682 0.013733289
39.056885 27.044485 240.67824 -0.13160093 0.22966726 -0.96433091 0.014714959
40.857738 27.029268 241.18954 -0.1304646 0.22872226 -0.96470988 0.017486554
42.743023 27.430649 240.62717 -0.16086854 0.22045469 -0.96204013 0.021568324
31.196424 29.153412 241.98262 -0.13379224 0.22576164 -0.96495146 0.011014517
33.049938 28.692217 241.87663 -0.13189633 0.22578499 -0.96520692 0.011585031
34.302319 29.349384 241.87271 -0.13432282 0.22715463 -0.96455079 0.011677073
36.21524 28.329187 241.85645 -0.13301082 0.22911318 -0.96426934 0.014384367
39.265648 29.083118 241.16878 -0.13287291 0.22783545 -0.96459103 0.015588467
41.078049 29.017668 241.35674 -0.13183406 0.21855383 -0.96687847 0.017937556
43.069321 28.929178 240.97249 -0.17085801 0.21358189 -0.96186811 0.021859635
44.388683 28.573475 241.35013 -0.16207382 0.22378211 -0.96106899 0.02190005
32.662067 31.212563 241.9072 -0.13062048 0.22728692 -0.96502799 0.0096008666
35.726936 31.965971 241.66306 -0.13270068 0.22900923 -0.96433675 0.012809987
37.719437 31.322405 241.4248 -0.13372172 0.22615732 -0.96486861 0.015468544
38.931293 30.603151 241.63751 -0.13408341 0.22537084 -0.96500242 0.015549808
40.531994 30.470623 241.81113 -0.13196474 0.21679799 -0.96725583 0.015742343
43.067825 30.137714 240.9641 -0.17412673 0.2138266 -0.96122736 0.023528399
35.709896 32.381241 241.94109 -0.13335121 0.22781593 -0.96452963 0.011356296
37.696686 32.157715 241.58119 -0.13568926 0.22428514 -0.96503091 0.015040355
-9.2645407 -79.444695 243.87321 0.68490052 0.35072833 -0.63867122 0.011910651
-13.444091 -72.52594 242.72302 0.77771062 0.25552201 -0.5743472 0.011512261
-13.5642 -71.47802 242.55249 0.78456175 0.22923297 -0.57612062 0.012716786
-11.401386 -69.725029 243.72437 0.75549209 0.1784097 -0.63039792 0.011176785
70.049751 -20.042986 242.07109 0.26172176 0.35436291 -0.89773536 0.012624356
67.8619 -18.688435 242.02396 0.27321234 0.33656549 -0.9011541 0.013714422
69.302155 -18.430788 242.25325 0.2735194 0.32993934 -0.90350819 0.01274923
70.89164 -18.715654 242.46823 0.26596707 0.33493641 -0.90392429 0.010783122
73.05867 -18.675261 242.65094 0.25871924 0.34617326 -0.90179175 0.011038667
75.060722 -18.614023 242.59433 0.25241235 0.3626717 -0.89708257 0.011038477
76.93988 -18.485746 242.72217 0.23751743 0.39255512 -0.88853019 0.010015057
78.44043 -18.232771 243.18263 0.22862712 0.41590551 -0.88020015 0.011605996
67.46402 -16.633032 242.16603 0.28284371 0.3068836 -0.90874743 0.010298254
68.97261 -17.016615 242.86165 0.27959836 0.31161633 -0.90814096 0.010780833
70.97419 -17.001863 243.18413 0.27401423 0.31876847 -0.90736043 0.010343139
72.906204 -17.290195 243.5719 0.26959139 0.32860404 -0.9051739 0.010628135
74.847015 -17.596794 243.48364 0.26758116 0.3383643 -0.90216959 0.010559663
77.00985 -17.710674 243.60005 0.26271057 0.35830587 -0.89587945 0.011945724
79.032021 -17.657238 243.59544 0.24400814 0.40442982 -0.88141739 0.013104168
80.655235 -17.525078 243.74142 0.22709127 0.44410801 -0.86671662 0.014554514
67.32679 -15.068274 242.39696 0.29162058 0.28847346 -0.91199803 0.01029125
68.996284 -15.009687 243.07416 0.28774098 0.29329652 -0.91169202 0.0099658528
70.697472 -15.128474 243.68997 0.28293246 0.30050576 -0.9108488 0.010452778
99.783783 -15.277145 242.11421 nan nan nan nan
67.390038 -13.153623 242.36288 0.30872938 0.25590634 -0.91607749 0.0099357758
68.970497 -12.997672 243.1189 0.30147114 0.26665908 -0.91542786 0.01095067
70.568756 -13.15036 243.76392 0.29295972 0.27907491 -0.91448987 0.0096901506
67.772186 -11.870071 242.57481 0.32482502 0.22325148 -0.91904706 0.010025512
69.11512 -11.383956 243.07256 0.32462972 0.22432415 -0.91885483 0.010888868
70.732552 -11.089768 243.80711 0.3162536 0.24079828 -0.91760552 0.0093698781
71.405067 -9.5740843 243.76299 0.3461538 0.18476911 -0.9198032 0.0075727287
72.223907 -9.2546883 243.79088 0.34939867 0.1919858 -0.91709441 0.0088818725
34.445412 21.429226 242.25005 -0.13504748 0.23011716 -0.96374702 0.016833896
34.85598 23.404556 242.1525 -0.13643059 0.22779763 -0.96410316 0.014496457
31.858217 25.695242 242.17293 -0.13349143 0.22305673 -0.96562195 0.015137826
32.190338 25.561722 242.06177 -0.13229559 0.22398765 -0.96557105 0.015122317
34.538971 25.226547 242.1252 -0.13764589 0.22641204 -0.96425682 0.012755418
36.574615 25.553745 242.03523 -0.13377109 0.22691837 -0.96468306 0.013964821
40.963348 25.700878 242.05298 -0.12987998 0.2334595 -0.96365345 0.015582828
29.933664 27.591263 242.60356 -0.1464189 0.22233817 -0.96391249 0.014247569
30.969955 27.401911 242.70105 -0.13647674 0.22469813 -0.96482378 0.013118254
33.125496 27.177082 242.15062 -0.13399799 0.22706869 -0.96461618 0.012087024
34.60709 26.951345 243.04292 -0.13514654 0.22763154 -0.96432322 0.012222824
41.337673 27.045425 242.08588 -0.13117878 0.22437257 -0.96563405 0.017715778
31.195219 29.000027 242.78857 -0.13274188 0.2263722 -0.96495354 0.010954536
32.951065 29.11533 242.55853 -0.13224594 0.22643173 -0.9650076 0.010781383
35.092373 29.005579 242.79797 -0.13306212 0.22729155 -0.96469325 0.01236053
36.345039 29.010685 242.34981 -0.13228138 0.22835183 -0.9645502 0.01305816
39.31102 29.104656 242.04214 -0.13340722 0.22692235 -0.96473253 0.01528905
40.368732 28.651337 242.25554 -0.13066038 0.22153257 -0.96635973 0.016820839
31.177391 30.91062 243.24336 -0.12817746 0.2266556 -0.96550399 0.0084222378
32.456253 30.834831 242.5179 -0.13037859 0.22713408 -0.96509665 0.0095823295
35.722408 30.919088 242.73714 -0.13280727 0.22775833 -0.96461827 0.013156579
36.614353 31.184107 242.87921 -0.13333216 0.22716822 -0.96468496 0.014607145
38.853519 30.941471 242.64012 -0.13550362 0.22298963 -0.96535718 0.015251152
40.65551 30.728983 242.70909 -0.13600877 0.21546742 -0.96699297 0.016548876
31.599089 32.775967 243.55232 -0.1185251 0.22395915 -0.96736449 0.0081080589
32.263794 33.274796 243.11972 -0.12639707 0.22216974 -0.96678042 0.007744052
35.91938 32.232292 242.86877 -0.13400955 0.22740941 -0.96453428 0.011001389
37.224014 32.945492 242.96484 -0.13703978 0.22332975 -0.96506166 0.012670465
38.958515 33.115215 242.67488 -0.13677385 0.22130607 -0.96556532 0.014233611
40.214195 33.619518 242.75221 -0.14282301 0.21219721 -0.96673363 0.01325947
20.99964 35.641754 243.95979 0.023914983 0.27838689 -0.96017128 0.012383432
31.192543 35.023041 243.93622 -0.085048996 0.22342423 -0.97100377 0.0079596359
32.349354 34.878696 243.7054 -0.1217045 0.21663247 -0.96863735 0.0083018346
37.501438 34.399113 242.93745 -0.1367171 0.22447924 -0.96484059 0.010887591
39.190987 34.503601 243.0024 -0.14043432 0.21853992 -0.96566999 0.011969271
40.20256 34.203545 243.03226 -0.14423102 0.21035746 -0.96692663 0.011858794
20.7349 37.042847 243.84383 0.032050438 0.28395885 -0.95830065 0.009595477
22.652042 36.648533 243.98158 0.010653123 0.2691046 -0.96305209 0.0082735159
39.940224 46.863468 243.92256 -0.18257652 0.28147376 -0.94203943 0.0099832155
40.968838 46.993328 243.55922 -0.18379302 0.27905223 -0.94252324 0.011929569
43.258648 47.310497 243.61786 -0.17043076 0.31749186 -0.93281949 0.017975166
45.537796 47.573174 243.11934 -0.15868026 0.38635984 -0.90859598 0.023481006
46.373917 47.339073 243.52371 -0.15640241 0.42695442 -0.89064485 0.026404962
-8.0317917 -80.12381 245.36386 0.61311126 0.36282089 -0.70175177 0.0075710583
-7.1618347 -80.46183 245.52989 0.58989441 0.37645867 -0.71435523 0.0075091175
-8.9502153 -79.247963 245.06921 0.6589157 0.3426185 -0.6696586 0.011379804
-7.749507 -79.76255 245.92706 0.60081398 0.35536832 -0.71605581 0.0072438736
-10.832341 -74.830078 245.78853 0.68919039 0.28665152 -0.66546792 0.011825028
-11.303994 -73.385025 245.61565 0.7065118 0.26948971 -0.65438241 0.011743207
-11.336612 -70.589928 244.80559 0.73627061 0.21992178 -0.63995314 0.011323765
73.128288 -16.436007 244.14012 0.27578279 0.31957486 -0.90654057 0.010815309
75.027321 -16.684155 244.47089 0.27785045 0.32574636 -0.90370816 0.011352476
77.092476 -16.737753 244.59245 0.28371951 0.33624497 -0.8980214 0.014341217
79.014404 -16.697165 244.70476 0.2808018 0.3595897 -0.88985699 0.01498469
80.938538 -16.602123 244.83774 0.28054628 0.4039849 -0.87068361 0.019848347
82.064087 -16.723207 244.52632 0.2574583 0.44454819 -0.8579582 0.019364275
71.663765 -14.856469 244.18509 0.28189865 0.30188134 -0.91071457 0.010467612
72.926781 -15.022066 244.56982 0.28312624 0.30666313 -0.9087339 0.011098861
74.962112 -15.037049 245.22702 0.29225093 0.3129082 -0.90370226 0.01365445
76.770645 -15.284166 245.6219 0.30129486 0.31899777 -0.89858884 0.015829539
78.797913 -15.563359 245.53661 0.31889224 0.3292056 -0.88878083 0.018912353
80.842468 -15.843731 245.74829 0.34628856 0.36389056 -0.86467797 0.024775345
71.364952 -12.948199 244.28708 0.29382104 0.28334194 -0.91290003 0.01029495
73.086014 -13.042033 245.12473 0.29529247 0.29685214 -0.90811956 0.013148172
75.04541 -13.06808 245.54088 0.30701146 0.30393356 -0.90186936 0.017497942
76.515343 -13.310596 245.87067 0.32446101 0.30977741 -0.89373535 0.0199751
71.278671 -11.241875 244.3289 0.31180385 0.25291961 -0.91586572 0.0098106805
72.938522 -10.960569 245.1086 0.31497428 0.27256784 -0.90911931 0.013902413
74.701881 -11.097247 245.80354 0.31906462 0.30018726 -0.89893568 0.019617306
71.795258 -9.7288313 244.28918 0.34186563 0.20275839 -0.91761482 0.0085290531
73.227669 -9.3525887 244.91035 0.34853402 0.22842558 -0.90903562 0.013005403
74.563927 -8.9726858 245.66728 0.35966209 0.25358337 -0.89796358 0.016141536
75.310577 -7.3685532 245.62508 0.41563255 0.2100144 -0.88495398 0.012335567
76.519806 -6.5750551 245.91818 0.46304598 0.19524319 -0.86456257 0.011236152
34.417027 27.005445 244.29254 -0.13588852 0.22762993 -0.96421939 0.01185457
30.813698 29.625607 244.09186 -0.13180813 0.224041 -0.96562535 0.0097462414
31.041862 30.928274 244.40979 -0.12607843 0.22792906 -0.96548057 0.0078776991
31.167772 33.466469 244.26176 -0.10052213 0.22185414 -0.96988451 0.0086022513
21.470606 35.768185 244.46988 0.030135358 0.28664598 -0.95756245 0.011078173
22.221369 35.715515 244.71129 0.027089907 0.27989399 -0.95964861 0.0088999802
31.54771 35.019432 244.23714 -0.097881593 0.22040744 -0.97048432 0.0082059298
32.303703 35.181793 244.20351 -0.12006772 0.21539578 -0.96911734 0.00877003
21.321651 37.117134 244.59709 0.026676731 0.28518674 -0.95810062 0.0090909423
22.483791 37.207878 244.23088 0.0093786493 0.27125177 -0.96246278 0.0079268115
29.386324 37.684444 245.01039 -0.031911585 0.25228596 -0.96712637 0.0046911258
31.205873 37.182175 244.64145 -0.07051827 0.23683344 -0.9689877 0.0066266428
32.289127 36.969685 244.50845 -0.10825846 0.22265472 -0.9688679 0.0068216179
21.238028 38.768238 245.19254 0.012348863 0.28125709 -0.959553 0.0089483559
22.020662 38.830463 244.55328 0.0016300656 0.2804454 -0.95986867 0.0088153062
29.143904 38.950825 245.27275 -0.026476039 0.25905961 -0.96549839 0.0045906561
30.806549 38.951759 245.29028 -0.054431036 0.25217706 -0.96614903 0.0041627153
32.070957 39.231422 245.12709 -0.092251293 0.24294239 -0.96564418 0.0049160593
21.408388 40.856781 245.24153 0.00064014946 0.27327779 -0.96193492 0.0090928106
22.872046 41.021973 245.60664 -0.0094224196 0.26766738 -0.96346533 0.0073039872
27.681679 41.520622 245.56082 -0.021099983 0.26254058 -0.96469027 0.0066504423
28.733536 40.843628 245.20667 -0.028556215 0.25991809 -0.96520835 0.0042566145
31.08268 41.132351 245.47314 -0.073584087 0.25110799 -0.96515805 0.0040549478
32.165863 40.892647 245.37946 -0.10120448 0.24422076 -0.96442401 0.0040326547
20.443575 43.829784 245.8219 -0.010683567 0.26434472 -0.96436912 0.0054425956
22.017958 42.164387 245.70645 -0.0089188125 0.26326105 -0.96468341 0.006688803
27.506126 42.090378 245.87369 -0.023795689 0.25897667 -0.96559042 0.0071278014
29.161226 42.739586 245.77861 -0.046862636 0.25332004 -0.96624678 0.0055681481
30.864468 42.563629 245.63835 -0.077280521 0.24887361 -0.9654479 0.00495164
32.053627 42.101845 245.8101 -0.10200176 0.24614513 -0.9638508 0.0052845939
19.886213 44.731441 245.21527 -0.016337221 0.26855919 -0.96312463 0.0071419366
20.787443 44.297787 245.78142 -0.011791104 0.26254314 -0.96484822 0.0054816431
32.862206 45.753487 245.60881 -0.10912275 0.24595061 -0.96312022 0.0058155088
26.994204 46.152348 245.95613 -0.042116277 0.2537472 -0.96635324 0.0077791712
35.474716 46.364479 245.69849 -0.13148862 0.25647408 -0.95756555 0.0072970195
37.073448 46.574268 245.40755 -0.15403087 0.27230558 -0.94980216 0.0089771869
39.010597 46.910831 245.21017 -0.17510557 0.28554416 -0.94223279 0.0093867695
40.745667 47.072243 245.2274 -0.18460056 0.27621397 -0.94320112 0.011015345
42.662098 47.305683 245.29544 -0.18144502 0.28718242 -0.94053388 0.014337455
45.531246 47.633213 245.07324 -0.15936568 0.35687312 -0.92045861 0.021184914
46.495174 47.321934 244.66968 -0.15899472 0.40781897 -0.899113 0.026149871
41.703804 48.504822 245.985 -0.18337451 0.27524072 -0.94372475 0.011714824
42.185665 48.51075 245.77951 -0.18349327 0.27670065 -0.94327456 0.012046007
45.017197 48.184685 245.44124 -0.1582762 0.3382625 -0.92764604 0.017643996
-32.480824 -102.20267 246.61157 0.35348806 0.34378812 -0.86997467 0.0075519788
-31.712784 -102.22296 246.66714 0.34454921 0.3401764 -0.8749662 0.0088416161
-34.000153 -100.08609 247.15611 0.35660064 0.32372388 -0.87637824 0.0073492764
-32.633739 -100.91497 247.25339 0.34508699 0.32456869 -0.88066453 0.009492551
-31.272556 -101.41368 247.63182 0.3323364 0.32480744 -0.88546753 0.010568984
-34.795952 -99.045174 247.10878 0.36312467 0.31914124 -0.8753795 0.0076152482
-33.44878 -99.369423 247.5365 0.3460452 0.31255919 -0.88462389 0.0087407688
-36.247375 -97.055092 246.987 0.37936872 0.3130337 -0.87068313 0.007473201
-35.231846 -97.218521 247.41301 0.36235991 0.30766848 -0.87979287 0.0074602771
-36.229984 -95.976295 247.08163 0.37699252 0.30499059 -0.87456119 0.0068812063
-6.6042604 -80.405693 246.76871 0.56556326 0.37251168 -0.73578072 0.0084509663
-5.3007035 -80.899399 247.3331 0.53638828 0.38639063 -0.75032651 0.008859125
-3.8882039 -81.455788 247.85345 0.49906993 0.4117896 -0.76246876 0.010573331
-8.282012 -78.637527 246.43605 0.62548518 0.32802895 -0.70793027 0.011169507
-7.2721195 -79.099792 247.18526 0.57814002 0.34274036 -0.74046141 0.0078203911
-8.4590788 -77.145897 247.23955 0.62752897 0.30459785 -0.71653861 0.011573221
-7.6618867 -77.589226 247.73848 0.59517378 0.31227458 -0.74044096 0.0095585622
-10.412307 -74.765411 246.38161 0.67670977 0.28311208 -0.67964065 0.012968393
-9.390214 -74.915833 247.43234 0.65040332 0.27935147 -0.70635557 0.012602247
-10.533764 -72.977188 246.57362 0.68592918 0.2592572 -0.6799168 0.012721322
-9.4889717 -73.000984 247.46782 0.6604104 0.25594851 -0.70593804 0.01253043
-10.237486 -71.926941 246.57703 0.68644005 0.23873219 -0.68688208 0.011420647
77.303558 -14.45659 246.34003 0.32605362 0.31697851 -0.89062548 0.01836459
79.076057 -14.732005 246.4308 0.36315385 0.32462692 -0.87334794 0.021658046
80.680344 -15.020881 246.40491 0.39695698 0.33624554 -0.85402817 0.025533298
73.87886 -12.366444 246.49023 0.30715933 0.29972377 -0.90322691 0.018983468
75.074379 -12.420409 246.07343 0.31665266 0.30509603 -0.8981356 0.019937901
77.166359 -12.932889 246.62894 0.35391369 0.3137756 -0.88107318 0.021108802
79.015869 -13.044533 247.22127 0.41339606 0.3108629 -0.85584337 0.02295885
80.487991 -13.338307 247.34628 0.45082757 0.30512199 -0.83884156 0.023379071
75.586304 -10.907598 246.21924 0.33696029 0.30776864 -0.8897956 0.020026585
76.977715 -11.090683 246.93019 0.38042086 0.30938968 -0.87152624 0.021065261
78.639359 -11.113594 247.58588 0.43578041 0.29680145 -0.84970832 0.020520976
75.428299 -9.121151 246.18332 0.36981478 0.27751845 -0.8866908 0.017867463
76.90213 -9.0125513 246.87654 0.41435909 0.27812931 -0.86657411 0.018177455
78.3377 -9.0552034 247.54819 0.46013591 0.26283932 -0.84805101 0.017290166
75.566429 -7.6350708 246.15181 0.42018938 0.22350663 -0.8794803 0.013116934
77.122955 -7.0663815 246.69876 0.47635862 0.20338666 -0.85540414 0.012691223
78.460075 -6.9103847 247.55205 0.52220982 0.1791943 -0.83377832 0.011374807
78.616592 -5.0042644 247.31364 0.55250251 0.13409007 -0.82265472 0.006375975
78.238045 -3.969676 246.07726 0.5510813 0.1339858 -0.82362443 0.0039947242
75.64592 13.978825 247.55315 0.46974793 -0.15979823 -0.86821741 0.013600447
76.869308 15.518872 247.79741 0.45373756 -0.20138282 -0.8680824 0.010084013
77.246292 16.291014 247.39845 0.44192204 -0.23974542 -0.86442298 0.0067936466
78.396523 16.523577 247.75659 0.43355107 -0.24035943 -0.86848187 0.0063802497
20.902891 39.210609 246.13269 0.01440732 0.28170452 -0.95939308 0.0094917854
29.572277 39.739189 246.34697 -0.032443944 0.25927132 -0.96525949 0.0042399974
30.310411 39.931995 246.18135 -0.050535262 0.2581194 -0.96479046 0.0033937576
22.687052 41.538837 246.34126 -0.0091081811 0.26535562 -0.96410751 0.0072925896
27.784441 41.802845 246.19994 -0.025123252 0.25936419 -0.96545273 0.0065025492
29.170538 40.793213 246.51752 -0.035627227 0.25766218 -0.96557802 0.0044127195
30.317291 40.408375 246.27626 -0.05271861 0.25504044 -0.96549219 0.003523276
21.029797 43.783134 246.42038 -0.0066847014 0.25773042 -0.96619374 0.0051519186
22.782227 42.770142 246.66989 -0.0073430105 0.26088473 -0.96534204 0.005805634
25.698261 43.690411 246.64594 -0.014237433 0.25777709 -0.96609956 0.0068501029
27.041481 43.092369 246.76054 -0.024895739 0.25674817 -0.96615762 0.0068546613
28.912678 43.264271 246.2946 -0.044983834 0.25375235 -0.96622258 0.0062610796
30.683516 42.966274 246.25867 -0.075291306 0.24866903 -0.96565777 0.0045478963
32.030952 42.343117 246.08797 -0.10218741 0.24553394 -0.96398693 0.0053803879
19.80455 45.224792 246.2095 -0.012581593 0.26510346 -0.96413785 0.0093872836
20.813236 45.077282 246.69817 -0.014365435 0.26203799 -0.96495068 0.0080690589
22.985195 44.927605 247.27669 -0.0071892822 0.25754902 -0.9662385 0.0070562079
25.220713 45.127251 247.04857 -0.015447604 0.25897703 -0.96575987 0.0081222858
27.100264 45.12001 246.74785 -0.036628768 0.25671753 -0.96579218 0.0076669184
29.190746 44.943401 246.65767 -0.057631876 0.24883634 -0.96682936 0.0045285188
33.399837 45.591084 246.87746 -0.11220749 0.24713247 -0.96246302 0.005350796
34.348156 45.823082 246.82033 -0.12094023 0.25051987 -0.96052766 0.0058023888
19.852468 46.139492 246.03677 -0.010561678 0.26125273 -0.9652127 0.01067699
21.073446 46.712456 247.13191 -0.012544691 0.2601583 -0.9654845 0.010879875
23.007975 46.925434 247.49641 -0.011541108 0.25957844 -0.96565306 0.01024634
25.002396 46.938244 247.53027 -0.02099577 0.25542289 -0.96660143 0.0078525255
27.026457 47.035717 247.34634 -0.046379786 0.25024182 -0.96707183 0.0072702169
29.064129 47.122353 247.23094 -0.066971026 0.24299517 -0.96771288 0.0047903042
30.184294 47.813576 246.99844 -0.082519032 0.23895071 -0.9675191 0.0035584492
32.881477 47.132904 247.34703 -0.10435782 0.24436833 -0.96405065 0.0061773909
34.89151 47.127457 246.76273 -0.12236312 0.25250095 -0.95982838 0.0060379659
36.810806 47.287605 246.60316 -0.14444695 0.27129474 -0.95159554 0.0086455243
39.255135 47.364967 246.21565 -0.17668077 0.27931702 -0.94380403 0.010526597
40.63216 47.337177 246.37866 -0.18612565 0.27255484 -0.94396561 0.012028051
45.837482 47.635025 246.47429 -0.1606361 0.35104457 -0.92247695 0.021736816
21.435863 48.532887 247.21272 -0.0035325852 0.24680404 -0.96905899 0.01153715
23.190409 49.122696 247.49892 -0.010287256 0.25304562 -0.96739966 0.010079787
25.177099 48.838242 247.84979 -0.030278329 0.25396487 -0.96673936 0.0081129838
27.062048 49.061668 247.7989 -0.054087758 0.24992286 -0.96675384 0.0068451073
28.929745 48.876827 247.72487 -0.071601205 0.243313 -0.96730143 0.0045097852
31.448206 48.871925 247.64255 -0.0918357 0.24421754 -0.96536207 0.0054303864
32.948036 49.009396 247.65685 -0.10254782 0.248025 -0.96331072 0.0053540291
34.904808 48.991573 247.17592 -0.1175921 0.26142588 -0.95803368 0.006381969
36.900658 49.001949 246.89517 -0.13958055 0.27966252 -0.94989794 0.0092040207
38.769768 49.247231 246.83846 -0.16913594 0.27475882 -0.94652027 0.012826185
41.015285 49.39341 246.57039 -0.18348545 0.27296937 -0.94436264 0.01481628
42.231014 48.974865 246.25597 -0.18362986 0.27604768 -0.9434393 0.013358762
45.424133 48.13102 246.0546 -0.15875836 0.3418296 -0.92625499 0.018589703
23.039352 50.380493 247.59775 -0.0055647036 0.24305698 -0.96999609 0.010313676
25.325254 50.773891 247.94585 -0.031892989 0.24379747 -0.96930164 0.0078195082
26.597122 50.190727 247.978 -0.051945448 0.25154489 -0.96645069 0.0073204716
28.78334 50.822407 247.95174 -0.076305889 0.24785569 -0.96578723 0.0060560382
31.003738 50.578785 247.83055 -0.089623325 0.25193873 -0.96358418 0.0068922467
33.085018 50.46072 247.67831 -0.10244343 0.26096892 -0.95989615 0.0068252548
35.048157 50.891212 247.52759 -0.11558523 0.27132002 -0.95552361 0.0089260209
36.919365 51.030922 247.21371 -0.13832879 0.27221054 -0.95224291 0.010349813
38.884781 50.951389 247.2762 -0.17189173 0.26460421 -0.94891405 0.012371223
40.701523 50.581429 246.85536 -0.18248543 0.27080449 -0.94517934 0.014892159
27.652092 52.418266 247.95224 -0.063059226 0.23233114 -0.97059041 0.0042630448
32.886772 53.605305 247.95688 -0.095056266 0.25227642 -0.96297503 0.0075477846
35.223122 52.616554 247.61755 -0.11660156 0.26746035 -0.95648789 0.0089503555
37.234406 52.670094 247.69589 -0.14444676 0.26057357 -0.9545871 0.0098611331
38.728432 52.587929 247.54321 -0.17019524 0.25870571 -0.95084429 0.011732584
33.567966 54.306324 247.91 -0.098762877 0.24481152 -0.96452749 0.0054277009
-30.705669 -100.61455 248.36742 0.31533167 0.31456912 -0.89532804 0.010054951
-29.028805 -100.74145 248.88942 0.28906259 0.30722928 -0.90667135 0.0082607176
-27.13195 -100.30295 249.69267 0.27787209 0.29477623 -0.91427249 0.0077108531
-25.496178 -100.04968 249.89868 0.26812357 0.29186633 -0.91810888 0.012090743
-32.776604 -98.803024 248.35832 0.33753958 0.30573684 -0.89027637 0.010340919
-30.964952 -98.997589 249.02269 0.30039954 0.29722962 -0.90631926 0.009902156
-29.044645 -99.193634 249.58206 0.2829679 0.28757861 -0.91500151 0.0070486455
-27.820679 -99.689407 249.80656 0.28171605 0.28775448 -0.91533244 0.0054352684
-25.183157 -99.746582 249.9225 0.26351637 0.28935072 -0.92023659 0.0093386304
-34.436523 -96.254189 248.5255 0.34629214 0.29881266 -0.8892653 0.0082307579
-32.946964 -96.914139 249.00017 0.32751071 0.29032421 -0.89913768 0.0072068754
-31.212191 -97.208199 249.66661 0.28991288 0.28391457 -0.91397107 0.010891965
-29.448618 -97.824989 249.97395 0.28290999 0.28474012 -0.91590673 0.0072878771
-34.408657 -95.041748 248.73819 0.34643084 0.28937542 -0.89232707 0.0082865423
-33.116604 -95.08503 249.45593 0.32271957 0.27712193 -0.90501684 0.0073803202
-31.452024 -95.610252 249.95714 0.28709397 0.28366083 -0.91493905 0.009411633
-32.532539 -93.587593 249.78932 0.31481868 0.27063864 -0.90974939 0.0074378806
-31.799204 -92.769753 249.82101 0.30603051 0.2732015 -0.91197938 0.0085899141
-0.77252102 -82.182709 249.48604 0.40922007 0.44501296 -0.79655653 0.010454945
0.66112059 -82.44368 249.70523 0.36730537 0.46678916 -0.80448401 0.015105533
2.7481036 -82.874237 249.83466 0.29475772 0.48275602 -0.8246603 0.0080912719
-6.0442824 -80.203056 248.05347 0.54432577 0.36804777 -0.75382388 0.0096061798
-4.5674262 -80.533615 248.37479 0.51284504 0.38166627 -0.76897383 0.010568582
-3.0819879 -81.103882 249.09839 0.47116071 0.4131884 -0.77928352 0.012325478
-1.3683556 -81.716438 249.55984 0.42358288 0.43306336 -0.79563409 0.0094494084
-6.3562412 -78.823906 248.37302 0.54684269 0.34596539 -0.7624113 0.0085233375
-5.0793052 -79.146004 249.12045 0.51999909 0.35969761 -0.77473778 0.010372075
-3.8080363 -79.635582 249.83269 0.48912007 0.3843106 -0.78298593 0.013518115
-8.122982 -76.687347 248.00647 0.61253452 0.29642943 -0.73275584 0.010798329
-6.8637962 -76.938522 248.95006 0.56470746 0.3135764 -0.76339716 0.0087968837
-5.5457101 -77.60479 249.65508 0.52720124 0.33845377 -0.77942801 0.0087713171
-8.4686909 -74.938927 248.42931 0.62504381 0.27657309 -0.72995031 0.011855173
-7.2952394 -75.091148 249.39938 0.58438504 0.28645629 -0.75923443 0.0098856343
-8.5191336 -73.109337 248.46471 0.637079 0.25264353 -0.72821808 0.011876677
-7.3185496 -73.386345 249.43437 0.59926021 0.263322 -0.75600839 0.0096310787
79.730957 -12.170576 248.44397 0.46415931 0.29166916 -0.83635229 0.020530084
80.634087 -12.6305 248.29863 0.47869277 0.29028779 -0.82860506 0.020532036
79.443359 -10.828693 248.37308 0.47117877 0.27760851 -0.83721203 0.01793566
80.833694 -10.979355 248.96155 0.50188059 0.26245859 -0.82415491 0.015883349
82.082611 -11.472204 249.52499 0.52271295 0.25706407 -0.81282794 0.014943202
79.345963 -8.9970274 248.50833 0.49891862 0.23616132 -0.83385134 0.014412547
80.558907 -9.0775385 249.48485 0.52837783 0.21334361 -0.82176727 0.012823365
79.413597 -7.0032954 248.4453 0.54152256 0.16588005 -0.82415843 0.0098523516
80.350746 -7.0895343 249.56345 0.56013632 0.15183017 -0.81436777 0.0086208526
79.465912 -5.2289701 248.61433 0.56469905 0.12716675 -0.81544077 0.0057048276
80.277176 -5.2109394 249.5439 0.57407242 0.12142112 -0.80975163 0.0058361939
80.285965 -3.5558832 249.8506 0.57908273 0.10583392 -0.80837023 0.0058943206
77.97538 3.2632558 249.69046 0.49338374 0.09046194 -0.8650949 0.0076973261
78.243217 3.1732385 249.9782 0.49173528 0.090404823 -0.86603892 0.0076770415
77.230141 5.2841787 249.73953 0.43248051 0.021142235 -0.90139538 0.010442408
76.639481 7.0126729 249.80208 0.40356871 -0.025003981 -0.91460764 0.012299936
75.830826 8.9265299 249.74355 0.43124375 -0.043452084 -0.90118849 0.013835136
76.395271 9.306016 249.85622 0.42373475 -0.044604473 -0.9046874 0.01433377
75.678406 11.231068 249.22598 0.45681518 -0.076303676 -0.8862831 0.014505838
76.494049 11.152506 249.72421 0.44034052 -0.066737123 -0.89534706 0.014530884
75.62767 12.819551 248.65727 0.46739087 -0.11641337 -0.87635249 0.013491347
76.930206 13.1295 249.26364 0.44944808 -0.10821241 -0.88672793 0.012448796
78.583969 13.646142 249.82523 0.42736033 -0.10935569 -0.89744329 0.012045467
77.350662 14.83551 248.60272 0.45165363 -0.16413477 -0.87696564 0.0096993521
78.845436 14.958849 249.34624 0.4370839 -0.15592341 -0.88580227 0.0109068
80.110611 14.521477 249.97823 0.4206185 -0.13058276 -0.89779073 0.014539341
78.757751 16.080812 248.28798 0.43651134 -0.21016327 -0.87480813 0.0083852075
22.830797 44.701088 248.1067 -0.0054579973 0.25720826 -0.9663406 0.0073167277
27.393085 45.404102 248.01556 -0.042187653 0.25257632 -0.96665686 0.0067172297
21.736439 46.950871 248.6821 -0.0076274797 0.25404814 -0.96716154 0.01115483
23.083166 47.512196 248.17326 -0.012445664 0.2576659 -0.96615392 0.010792297
25.197235 47.441376 248.04424 -0.024286706 0.25277287 -0.96722084 0.0066958978
30.482645 47.721325 248.64665 -0.084492631 0.2387304 -0.96740317 0.0035518354
21.989374 48.294022 248.06018 -0.0034845895 0.24968156 -0.96832174 0.011402521
23.007032 48.783367 248.3158 -0.008854189 0.25255874 -0.96754104 0.0098385662
24.902351 49.114395 248.177 -0.026321767 0.25296083 -0.96711838 0.0080113783
29.106037 49.364868 248.16965 -0.075253271 0.2439083 -0.96687424 0.0053726104
30.759903 48.943272 248.43332 -0.087975591 0.24165483 -0.96636599 0.0053568175
32.531986 48.936028 248.11292 -0.099489741 0.24540243 -0.9643026 0.0055201375
23.571505 50.747414 248.44853 -0.010391667 0.23901381 -0.97096056 0.0097756917
25.118279 50.955326 248.29483 -0.028554415 0.24094386 -0.970119 0.0085897064
27.098291 50.975239 248.2276 -0.055610031 0.24562989 -0.96776724 0.0061165192
29.10737 51.024822 248.24149 -0.079433806 0.24709126 -0.96573091 0.0069591985
30.987314 51.150028 248.36972 -0.088263646 0.25211725 -0.96366298 0.0076799514
32.812634 51.349796 248.43312 -0.098086588 0.25943288 -0.96076721 0.0073435605
34.337643 51.283314 248.1272 -0.10944451 0.26677731 -0.95752376 0.0087660048
39.133057 51.676056 248.06244 -0.178113 0.25853521 -0.94943941 0.012939591
25.404087 52.46933 248.34137 -0.028020825 0.22735991 -0.97340757 0.0058816914
27.051519 52.916351 248.86143 -0.051586807 0.2237227 -0.97328675 0.0039368523
28.989874 52.90794 248.92424 -0.075236827 0.23598143 -0.96884066 0.0074933558
30.909128 52.991245 248.92902 -0.084049724 0.24485077 -0.96591079 0.0076462883
32.999287 52.942799 248.52907 -0.096781664 0.25450906 -0.96221542 0.007603528
34.511265 52.949429 248.3334 -0.10831237 0.26122108 -0.95918298 0.0082540466
36.203331 52.575253 248.21683 -0.13021339 0.26383746 -0.95573753 0.0081326794
27.958042 54.034595 248.65668 -0.061659753 0.22517388 -0.97236556 0.0058118864
31.875347 54.106033 248.45093 -0.087260522 0.24199985 -0.96634454 0.0063639167
32.930592 54.106197 248.44662 -0.09431076 0.24705513 -0.96440095 0.0073098829
-27.04373 -100.0654 250.11942 0.27724975 0.29126361 -0.91558623 0.0077342554
-25.809225 -100.06432 250.01044 0.27071586 0.29229176 -0.91721231 0.011095345
-28.813967 -98.333267 250.15721 0.28290966 0.28508428 -0.91579968 0.0071343957
-26.935604 -98.903183 250.38258 0.27877757 0.28743801 -0.91633105 0.0095763309
-25.118914 -98.777794 250.85701 0.26356569 0.28644761 -0.9211303 0.0142779
-23.391979 -98.557388 251.17021 0.23975556 0.27919891 -0.92982006 0.018199217
-30.418829 -96.555542 250.28258 0.28483546 0.28546134 -0.91508502 0.012036513
-28.975109 -96.965836 250.64107 0.28386673 0.28586006 -0.91526157 0.0094223712
-27.058405 -97.063751 251.12941 0.27949405 0.28781459 -0.91599447 0.011631283
-25.042233 -97.074631 251.50047 0.25983447 0.28300077 -0.92325336 0.016223842
-22.702841 -97.004219 251.31783 0.22653326 0.26853713 -0.93625349 0.019191841
-21.702375 -96.741783 251.05872 0.20719375 0.26246789 -0.94243371 0.021276204
-32.522175 -94.499069 250.11172 0.3091934 0.27657482 -0.90989327 0.009778101
-30.952019 -94.964966 250.41383 0.28650421 0.28400388 -0.9150176 0.010385952
-28.943184 -94.992531 251.15175 0.28343797 0.28416148 -0.91592318 0.0072592464
-27.043421 -95.063164 251.6203 0.2724427 0.28504905 -0.91897887 0.010027525
-25.489111 -95.699707 251.76076 0.25932789 0.2780157 -0.92490876 0.014172377
-22.489073 -94.949112 251.494 0.21515085 0.2550526 -0.94268674 0.015724903
-21.666361 -95.593529 251.15466 0.20440163 0.25402737 -0.9453519 0.020440551
-32.597786 -93.670242 250.11041 0.31391618 0.2705662 -0.9100827 0.0073651867
-30.787289 -93.128937 250.7605 0.28688753 0.28154692 -0.91565651 0.0079590613
-28.992428 -93.034996 251.49069 0.27825901 0.2773203 -0.91960073 0.0042887419
-27.618414 -93.3274 251.87817 0.26523373 0.27572215 -0.92392009 0.0061105839
-24.512819 -92.787079 251.96198 0.23066153 0.25283933 -0.9396103 0.01077722
-23.310829 -93.136925 251.73528 0.21676053 0.24664484 -0.94455349 0.013466281
-30.580797 -91.977684 250.53513 0.28737974 0.27662781 -0.91700053 0.0088902889
-28.770714 -91.548126 251.57465 0.263796 0.26317993 -0.9279806 0.0058025038
-27.732525 -91.202133 251.89661 0.24776682 0.25342381 -0.93508714 0.0079042241
-24.290716 -91.478317 251.78616 0.21708557 0.23847471 -0.94657475 0.012252272
-23.868086 -91.971985 251.72168 0.21648535 0.24199052 -0.94581962 0.012096316
-0.040951159 -82.244057 250.02203 0.38517916 0.4508968 -0.80518889 0.013012592
1.1637876 -82.248856 250.46376 0.34408379 0.453004 -0.82243162 0.014007362
3.0305781 -82.45565 251.02704 0.2795887 0.45338085 -0.84633094 0.01198569
4.9402952 -82.619377 251.26454 0.21980208 0.45927289 -0.86067146 0.013495155
6.8931427 -82.824203 251.24442 0.16018015 0.46366537 -0.87141079 0.012982456
8.8344975 -82.739265 251.61328 0.10280354 0.44771603 -0.88824648 0.013949413
10.601308 -82.630226 251.618 0.061218761 0.43794474 -0.89691508 0.014290799
-2.5432432 -80.36631 250.25601 0.45026442 0.40759143 -0.79443765 0.011421794
-0.88364124 -80.901306 250.82632 0.40171656 0.41840997 -0.81458998 0.011056298
0.87891912 -81.102325 251.43814 0.3463968 0.42050326 -0.83856201 0.013580035
2.5102079 -81.726578 251.74648 0.29269856 0.42977637 -0.85417789 0.012942517
-4.5935111 -78.32251 250.15657 0.50842804 0.35637772 -0.78389794 0.011840667
-2.9769921 -78.880547 250.74153 0.46446446 0.38170543 -0.79910809 0.014164245
-1.3006281 -79.291687 251.62505 0.40863466 0.3918137 -0.82431775 0.011473705
-6.0766387 -76.172142 250.02611 0.5425505 0.3139613 -0.77914524 0.0082045011
-4.8066754 -76.852516 250.72096 0.51231682 0.3381162 -0.7894358 0.011189894
-3.2833989 -77.180679 251.4863 0.47341356 0.35221717 -0.80735534 0.015194379
-1.9258627 -77.871689 251.93477 0.42870495 0.37071329 -0.82388335 0.014157762
-6.3105035 -74.855362 250.26775 0.55537122 0.29398993 -0.7779029 0.0088827666
-4.9965215 -75.012993 251.03087 0.52530646 0.31144586 -0.79186785 0.011000866
-3.6722226 -75.149094 251.77451 0.48913994 0.3164281 -0.81278247 0.012893994
-6.3237548 -73.485367 250.15639 0.56775117 0.27683696 -0.77525467 0.0087560471
-4.9849439 -73.527847 250.93964 0.53785646 0.28685114 -0.79273373 0.011468255
-3.2921233 -73.302727 251.48355 0.49377909 0.28282702 -0.82230836 0.01094997
-1.1618863 -73.12278 251.81087 0.43388611 0.27898356 -0.85668606 0.011203479
40.616344 -56.096966 251.75906 0.017797459 -0.34983894 -0.9366408 0.015740948
40.95882 -55.530113 251.71558 0.012481531 -0.35902905 -0.93324292 0.014744123
43.475174 -55.176533 251.80302 -0.0275125 -0.35363519 -0.93497878 0.0094531216
81.768562 -10.615791 250.24161 0.53408009 0.23562494 -0.8119356 0.014352486
83.034904 -10.342629 251.49225 0.57874125 0.19565111 -0.79169387 0.013557369
81.392052 -8.6912298 250.47031 0.56015205 0.17905305 -0.80880755 0.011564022
82.758804 -9.0125246 251.54372 0.58814347 0.16232875 -0.79229832 0.011546343
81.351852 -6.9746146 250.75014 0.58101106 0.13622743 -0.802414 0.0081187207
82.459 -6.9634714 251.67317 0.59638083 0.1256845 -0.79280102 0.00844655
81.317467 -4.739233 251.01912 0.58629978 0.10754497 -0.8029238 0.0056508202
82.353691 -5.0280032 251.78255 0.59281981 0.1048639 -0.79847866 0.0057582608
81.021721 -2.9799538 251.02133 0.58183229 0.10361762 -0.80668122 0.0056435103
82.093079 -3.0702028 251.88095 0.58699387 0.099856354 -0.80340952 0.0060008974
79.738785 -0.17834379 250.58344 0.55885875 0.11452848 -0.82131612 0.0068840277
80.977051 -1.024206 251.31955 0.56738526 0.10737102 -0.81642234 0.0067207669
82.565666 -1.3627441 251.97807 0.57209837 0.09967272 -0.81410617 0.0079653747
79.509354 1.1064297 250.70792 0.54090929 0.1118295 -0.83361346 0.0074973591
81.001625 0.99025261 251.46677 0.52998388 0.10252681 -0.84178704 0.0069069015
82.206917 1.2872869 251.90437 0.51180154 0.09236861 -0.85412359 0.0065705287
85.178841 0.86993194 251.95432 0.48728088 0.070187882 -0.87042004 0.0059242067
77.920441 3.6321435 250.11443 0.48121232 0.078323737 -0.87309802 0.0079870606
79.087601 3.0028832 250.62833 0.4987514 0.088984855 -0.86216509 0.0084259063
80.97435 3.0942547 251.4399 0.4856621 0.078108542 -0.87065005 0.0084971897
82.117958 3.8755231 251.95047 0.43979582 0.050388377 -0.89668322 0.0083772466
