# .PCD v0.7 - Point Cloud Data file format
VERSION 0.7
FIELDS x y z normal_x normal_y normal_z curvature
SIZE 4 4 4 4 4 4 4
TYPE F F F F F F F
COUNT 1 1 1 1 1 1 1
WIDTH 613
HEIGHT 1
VIEWPOINT 0 0 0 1 0 0 0
POINTS 613
DATA ascii
-11.92607 -104.61863 229.11159 -0.073707037 0.23677789 -0.96876389 0.008749254
-10.802489 -104.63651 229.16451 -0.075592019 0.23442674 -0.96919042 0.0074161701
-9.4279623 -104.0581 228.91461 -0.081003554 0.23058328 -0.96967512 0.0072645643
-16.399513 -102.82357 229.16106 -0.061902873 0.25244379 -0.9656294 0.01106232
-15.065939 -103.00537 229.19049 -0.066874728 0.24671051 -0.96677905 0.01001961
-13.545372 -103.12286 229.43338 -0.073664047 0.2407409 -0.96779001 0.0089962604
-11.966107 -103.14493 229.42578 -0.081832498 0.23649414 -0.96818084 0.0094562564
-10.549927 -102.97688 229.01889 -0.083669819 0.23380013 -0.96867782 0.0091841379
-9.4010668 -102.9449 228.94412 -0.086148836 0.23031363 -0.96929568 0.0089719556
-18.196959 -101.45049 229.19553 -0.053429015 0.26320958 -0.96325803 0.010260092
-16.789566 -101.57508 229.4581 -0.067777075 0.25269723 -0.96516854 0.010667851
-15.137963 -101.59686 229.84587 -0.071906999 0.24706075 -0.96632832 0.0093458993
-13.536489 -101.6031 229.9034 -0.073992677 0.2425576 -0.96731114 0.0073128664
-11.94161 -101.58673 229.66168 -0.081652336 0.23794079 -0.96784145 0.0079329703
-10.426107 -101.48211 229.07545 -0.090882555 0.23443097 -0.96787518 0.0097579435
-9.3432398 -101.00816 228.8298 -0.098405518 0.22913454 -0.96840781 0.011320896
-19.780048 -99.810463 229.39485 -0.052479472 0.30958498 -0.94942248 0.017757736
-18.440231 -99.95726 229.79185 -0.082044117 0.29443285 -0.95214391 0.0165592
-16.748755 -100.08357 230.06744 -0.084082425 0.28506199 -0.95481402 0.014603763
-15.542453 -100.16188 230.24919 -0.080132075 0.27714598 -0.95748055 0.014255749
-13.33897 -100.25499 229.97603 -0.077263042 0.25354809 -0.96423227 0.01103851
-11.902229 -99.991318 229.67455 -0.081591144 0.24491949 -0.96610415 0.0098632695
-10.376018 -99.936134 229.2099 -0.095424362 0.23607503 -0.96703809 0.010811931
-21.229769 -98.050674 229.71072 -0.075705081 0.39050284 -0.91748369 0.024681963
-20.187717 -98.423943 230.02988 -0.10413609 0.36554533 -0.92494988 0.025195295
-18.675833 -98.761147 230.27686 -0.11448497 0.34496102 -0.93160886 0.024003373
-17.159409 -98.939209 230.33716 -0.10398781 0.33164662 -0.93765509 0.02169992
-12.986567 -98.501472 230.20641 -0.084315948 0.29666382 -0.95125258 0.015560569
-11.874465 -98.423943 229.86195 -0.083074547 0.27732137 -0.95717901 0.013873203
-10.394884 -98.389755 229.24776 -0.10359621 0.24396624 -0.96423459 0.012841362
-9.5753231 -97.648521 228.86734 -0.1517137 0.21382415 -0.96501929 0.013317511
-21.336927 -97.212181 230.11902 -0.11832362 0.41952536 -0.8999989 0.024294309
-13.135254 -97.199905 230.29785 -0.10184331 0.33014041 -0.93842167 0.016905647
-11.927204 -96.881378 229.94908 -0.099235095 0.31393465 -0.94424438 0.015053795
-10.595401 -96.694908 229.29726 -0.12081224 0.27799323 -0.9529556 0.014099987
-9.5637026 -97.320122 228.82002 -0.15798594 0.21809305 -0.96305549 0.012473031
-11.939138 -95.284485 230.03398 -0.15903011 0.31911817 -0.9342767 0.016941998
-10.817406 -95.369072 229.38893 -0.16381447 0.29176685 -0.94235712 0.013417889
-12.015556 -93.665894 230.04428 -0.2503877 0.30412489 -0.91913766 0.014131631
-11.123291 -94.237457 229.66908 -0.22756884 0.29445946 -0.92817354 0.01514277
-13.029821 -92.734291 230.39441 -0.285079 0.30703858 -0.9079963 0.013014951
-12.699448 -92.551712 230.24213 -0.30056599 0.29943982 -0.90553623 0.011550101
42.598698 -89.69561 228.82768 0.098229028 0.5126729 -0.8529464 0.017993044
43.328632 -89.830505 228.9209 0.099955037 0.51324397 -0.85240221 0.017844858
47.72588 -89.765808 228.81563 0.042372771 0.53251588 -0.84535873 0.013241141
41.349686 -88.103279 229.05972 0.15681124 0.49666634 -0.8536585 0.022348749
42.352264 -88.657059 229.32048 0.12165613 0.51017147 -0.85142523 0.018223703
43.849213 -88.78595 229.22565 0.10448366 0.516945 -0.8496182 0.016644834
45.634159 -88.436348 228.94527 0.096907094 0.51920974 -0.84913498 0.014784161
47.008633 -88.59153 228.93791 0.079703465 0.52309698 -0.8485381 0.012780643
41.200806 -87.108536 229.13536 0.16906086 0.49792415 -0.85058218 0.02316045
42.367073 -87.221947 229.9214 0.16425066 0.50447094 -0.84766191 0.022109704
44.150845 -87.30529 229.786 0.14686108 0.5106163 -0.84717351 0.020331014
45.511944 -87.200073 229.25854 0.12445777 0.5160988 -0.84743863 0.018124592
47.164116 -87.148109 229.12386 0.09517768 0.52220839 -0.84749019 0.015136683
41.076042 -85.584663 229.46011 0.16551849 0.50544578 -0.84683424 0.02180641
41.788433 -85.757904 229.95232 0.16390267 0.50907707 -0.84497124 0.021187579
44.150558 -86.103287 230.28249 0.16151986 0.51164758 -0.84387684 0.020345952
45.594315 -85.952591 230.03369 0.15659495 0.51175916 -0.84473699 0.020315234
47.163273 -85.637451 229.82938 0.11549331 0.51676387 -0.84830207 0.019455057
40.943707 -83.945526 229.82346 0.17537551 0.50680071 -0.84403586 0.022316964
41.652302 -84.45472 230.2993 0.16568123 0.5123648 -0.84263396 0.020557985
47.43047 -84.51355 230.19339 0.058436573 0.50809032 -0.85931921 0.030774869
-2.0827923 -81.983391 230.24654 -0.27205625 0.049786583 -0.96099257 0.011141612
10.684384 -82.046585 229.177 0.0057487022 0.53320783 -0.84596479 0.023280302
12.082359 -82.098518 229.2021 0.0024545998 0.53059936 -0.84761924 0.022073926
13.493495 -82.000313 229.07739 -0.006072917 0.52674627 -0.85000086 0.021868708
14.412946 -81.872223 228.85034 -0.014384401 0.52417415 -0.8514896 0.019929174
40.587715 -82.461517 229.80818 0.19364922 0.50568265 -0.84070516 0.025090642
-1.9334505 -81.208786 230.23653 -0.2682021 0.05497073 -0.96179307 0.011350324
-1.2344217 -80.642265 230.07867 -0.26013002 0.11930934 -0.95817411 0.009914889
7.7085743 -80.354111 229.41527 -0.010593748 0.55982465 -0.82854337 0.022885477
8.8727694 -80.628532 229.56807 0.0039490815 0.54499376 -0.83843082 0.026969483
10.402186 -80.89608 229.68741 -6.1844446e-05 0.53863096 -0.84254181 0.027576549
12.164683 -80.868217 229.93735 -0.010605003 0.53252691 -0.84634668 0.025100803
13.636793 -80.736275 229.66145 -0.018155484 0.52916723 -0.84832329 0.026250694
14.984905 -80.629074 229.26123 -0.031114614 0.52397543 -0.85116488 0.025769586
16.023821 -80.039436 229.31531 -0.066649586 0.51463157 -0.85481709 0.024962068
40.564495 -81.108192 229.81274 0.20812824 0.51255167 -0.83305067 0.027232565
12.421556 -79.867249 230.34593 -0.017422205 0.53739989 -0.84314758 0.029571883
13.846533 -79.78167 230.14111 -0.028689839 0.53279704 -0.84575659 0.030033529
15.135987 -79.633827 229.67131 -0.048958119 0.52598631 -0.84908277 0.02995047
16.077904 -79.482773 228.9462 -0.076331131 0.51424259 -0.85424125 0.025500305
39.755783 -79.039581 229.241 0.28455779 0.50790489 -0.81305569 0.036321729
40.399319 -78.975395 229.47501 0.2556321 0.52305371 -0.81306028 0.033387288
39.850403 -77.983315 228.81827 0.34251645 0.50050032 -0.79509878 0.041813239
40.342869 -78.166557 229.30655 0.28929195 0.52260947 -0.80199099 0.037033431
54.064663 -75.822716 230.12547 -0.41689262 0.29074219 -0.86120236 0.012065985
57.040352 -75.297104 229.74701 -0.30193165 0.24695778 -0.92078727 0.0092791989
58.171692 -75.501579 229.22908 -0.30067652 0.25396338 -0.91929114 0.0085894596
57.089256 -74.875809 230.08133 -0.2981233 0.22859298 -0.92675126 0.0096526816
58.311882 -74.572014 229.98839 -0.29720372 0.21876056 -0.92941576 0.010209654
60.17551 -74.164108 229.58751 -0.29681239 0.21243148 -0.93100768 0.008611788
61.718468 -73.838364 229.08772 -0.29591915 0.20351225 -0.9332816 0.0067819757
62.872948 -73.744995 228.95663 -0.30033705 0.20203875 -0.93218988 0.0082928855
59.135647 -73.319054 230.31361 -0.29670975 0.21000412 -0.93159091 0.010383816
60.221344 -73.263596 229.97159 -0.29728794 0.20837605 -0.93177211 0.0081944494
61.624111 -72.841652 229.81416 -0.29684246 0.19746077 -0.93428785 0.0075015514
63.094612 -72.677536 229.39694 -0.29975325 0.18687832 -0.93553436 0.00765573
64.748016 -72.356712 229.24338 -0.3029696 0.1893082 -0.93400848 0.0052161883
61.798374 -71.60247 230.26332 -0.29852909 0.18785639 -0.93572986 0.0081645809
63.190773 -71.358627 229.97493 -0.30020887 0.18071362 -0.93659872 0.0073692342
64.814835 -71.181854 229.44322 -0.30092886 0.18031891 -0.93644375 0.0057724887
66.284561 -71.157104 229.16052 -0.30803692 0.19042781 -0.93212152 0.005476472
68.002411 -70.572342 229.11398 -0.30863157 0.1825646 -0.93349707 0.0032216969
63.561337 -69.653694 230.21045 -0.30136546 0.17655285 -0.93702078 0.0078924298
64.900116 -69.635666 229.94781 -0.30096275 0.17394863 -0.93763715 0.0070923716
66.456192 -69.6166 229.40474 -0.30673096 0.1732904 -0.93588811 0.0043574739
67.89344 -69.563942 229.07607 -0.3077096 0.17753041 -0.93477148 0.0034503604
30.396471 -68.711967 230.2515 -0.42829815 0.11264598 -0.89658892 0.031939641
31.283836 -67.903648 230.23213 -0.45417807 0.072323233 -0.88797045 0.039859604
63.750717 -67.959648 230.17696 -0.3011882 0.17000751 -0.93828738 0.0086982585
64.959167 -68.063492 230.04469 -0.30202881 0.16238827 -0.93936616 0.0071712816
66.517357 -68.091576 229.66031 -0.30513594 0.16148883 -0.93851668 0.0032171118
68.058617 -67.908119 229.19598 -0.30596623 0.16922839 -0.93688124 0.0018826405
69.443626 -67.893234 228.88852 -0.30618557 0.17170447 -0.93635887 0.0021520944
31.748404 -66.775887 230.27156 -0.46267864 0.05205274 -0.88499665 0.041139487
63.605278 -66.469772 230.2758 -0.30146116 0.15326859 -0.94107914 0.0088422587
64.864517 -66.493637 229.99023 -0.30174163 0.15094954 -0.94136399 0.0073622814
66.375496 -66.357262 229.54285 -0.30310509 0.15243255 -0.94068682 0.0033950638
68.006775 -66.344421 229.13036 -0.30562025 0.16292287 -0.93811107 0.0024269295
69.252144 -66.604385 228.86629 -0.30550942 0.16587098 -0.93763041 0.0020944921
32.976578 -64.623627 230.0611 -0.4863936 0.012827002 -0.87364566 0.045946021
61.975277 -65.383736 230.22127 -0.29877895 0.1453499 -0.94318861 0.0055821687
63.118752 -65.435539 230.19534 -0.30004701 0.14610003 -0.94266993 0.0079442672
64.937668 -65.280258 229.71535 -0.30074975 0.14360754 -0.94282895 0.0068974295
66.535263 -65.109619 229.28429 -0.30262578 0.14474948 -0.94205374 0.0033618896
68.137817 -64.954071 228.88431 -0.30488965 0.15652625 -0.93943703 0.0042856275
69.092499 -64.986488 228.98325 -0.30471766 0.15855487 -0.9391526 0.0042181062
33.187431 -63.009117 230.1427 -0.49545118 -0.011925331 -0.86855394 0.04781922
33.891937 -62.60601 229.7516 -0.50708413 -0.037700996 -0.86107159 0.05283168
33.42141 -61.653126 230.28909 -0.50257593 -0.05148853 -0.86299855 0.050892808
34.172413 -61.525982 229.53697 -0.51483065 -0.078070961 -0.85372961 0.057563551
26.431044 -59.751194 229.81741 -0.3636328 -0.10048845 -0.92610657 0.036318105
27.528305 -59.81464 230.04964 -0.39526361 -0.074043676 -0.9155786 0.037734792
29.658384 -59.457874 229.80537 -0.45407861 -0.092957251 -0.88609904 0.043786999
31.173254 -59.443508 230.15845 -0.47871971 -0.10466203 -0.87170708 0.047648218
32.936031 -59.901524 230.02817 -0.50095785 -0.11411005 -0.85791624 0.053150181
33.969006 -60.339096 229.36359 -0.51186085 -0.12402081 -0.85006899 0.05824621
29.919779 -58.973042 229.07744 -0.46722549 -0.13884218 -0.87316847 0.046846244
31.140802 -58.907928 229.2155 -0.48047194 -0.15614007 -0.86299884 0.050549313
32.630745 -59.049164 229.28311 -0.49550512 -0.16924141 -0.8519578 0.056088053
42.637455 -30.866449 229.60033 0.28338903 0.3429547 -0.89558512 0.025091382
43.952457 -31.151566 229.59108 0.273164 0.35132959 -0.89551604 0.023007637
45.507889 -31.166143 229.59637 0.25838357 0.36227551 -0.89554137 0.020685399
47.027733 -31.047562 229.51569 0.25098285 0.37154105 -0.8938483 0.019227082
48.31765 -30.653221 229.82652 0.24511448 0.37724355 -0.89308804 0.015865661
41.346878 -29.474697 229.69504 0.29505476 0.32894602 -0.89707148 0.024953116
42.288658 -29.732246 230.15872 0.28607053 0.33503401 -0.89772815 0.022895135
44.11105 -30.3449 230.39131 0.27177498 0.34794655 -0.8972578 0.021089647
47.374897 -30.19083 230.3286 0.2505815 0.37401783 -0.89292759 0.016998867
48.796082 -30.219637 230.11487 0.24200989 0.38136324 -0.89218456 0.014509614
49.794575 -30.200159 230.06694 0.22972181 0.39073223 -0.89137882 0.013029321
51.613575 -29.742048 230.38377 0.2082206 0.41168475 -0.88722026 0.012173449
39.737259 -27.5126 229.89859 0.3136574 0.30049175 -0.90073508 0.018959537
40.899113 -28.033682 229.72598 0.30192432 0.31679586 -0.89915633 0.02238851
41.722 -27.848324 230.16193 0.29282531 0.32398844 -0.89960259 0.022812054
39.814011 -26.438501 229.6178 0.31705993 0.29252663 -0.9021647 0.017943874
40.727108 -26.526749 229.87184 0.3088007 0.30439985 -0.90110087 0.019472942
41.689747 -26.135002 230.30896 0.3002581 0.31704548 -0.8996262 0.020909928
39.853897 -25.435129 229.61125 0.32428509 0.28468263 -0.90210587 0.018900553
41.063671 -25.022064 229.94946 0.31577554 0.29689744 -0.90118682 0.018941185
41.767677 -24.597157 230.1732 0.31057292 0.30302674 -0.90095466 0.01874386
-16.360785 -99.527412 230.47389 -0.091995969 0.30739585 -0.9471243 0.01835599
-14.843242 -99.843575 230.73534 -0.083109155 0.28826439 -0.95393729 0.016177805
-13.786308 -99.76725 230.60294 -0.079703644 0.27519587 -0.95807856 0.014504755
-19.648533 -97.971313 230.68317 -0.13248968 0.38151714 -0.91481757 0.022946836
-18.453121 -98.364243 230.6682 -0.12651277 0.3602899 -0.92422169 0.02308497
-16.6933 -98.278381 230.89821 -0.11568076 0.35081416 -0.92927253 0.021539953
-15.163265 -98.352295 231.02939 -0.10455165 0.3370074 -0.93567884 0.020922849
-13.788583 -98.527046 230.75592 -0.090780772 0.31491542 -0.94476837 0.018246839
-20.100716 -96.86132 230.77086 -0.15326761 0.40652847 -0.90069062 0.021114917
-18.394136 -96.81823 231.31134 -0.15597519 0.38762242 -0.9085266 0.017949501
-16.689404 -96.742264 231.44388 -0.15023543 0.37263662 -0.91573536 0.01764863
-15.051527 -96.731766 231.24617 -0.14046726 0.35825458 -0.92299658 0.019044161
-13.557281 -96.719452 230.71968 -0.12303235 0.34247398 -0.9314369 0.017719733
-19.776794 -95.94796 231.01021 -0.16933657 0.40835562 -0.89697868 0.016317522
-18.419477 -95.421318 231.55251 -0.18352166 0.38755593 -0.90339375 0.015023275
-16.918184 -95.24189 231.73631 -0.19082442 0.36946017 -0.90944231 0.015156206
-15.237138 -95.126427 231.43527 -0.19319727 0.35362393 -0.91521853 0.016746528
-13.622019 -95.143532 231.03256 -0.18654412 0.33928832 -0.92200041 0.01807615
-12.699337 -94.705147 230.64418 -0.19794616 0.32700071 -0.92406058 0.016841896
-16.412516 -94.009819 231.85193 -0.23201962 0.35184595 -0.90684688 0.015599709
-15.239334 -93.673004 231.53926 -0.24589323 0.33700374 -0.90882611 0.015161823
-13.69989 -93.582733 231.09792 -0.25147879 0.32248303 -0.91255856 0.014200814
-12.753512 -93.741478 230.63245 -0.24309233 0.31564704 -0.91720939 0.014698558
-13.702871 -92.536018 231.14104 -0.2946386 0.31164536 -0.90336335 0.01339255
42.992989 -86.443909 230.4617 0.16261069 0.50997084 -0.84468192 0.020306878
43.630863 -86.808266 230.88649 0.16092335 0.51032913 -0.84478867 0.020421643
-8.310482 -85.900024 231.88286 -0.37501469 0.1975949 -0.90571535 0.011646631
-7.3349328 -85.328224 231.61789 -0.332452 0.12034547 -0.93541044 0.0092013106
42.586765 -85.496696 230.84981 0.16095455 0.51395738 -0.84258026 0.019734619
44.063641 -85.551888 231.10201 0.15774578 0.51556456 -0.84220517 0.01908328
45.78812 -85.305275 230.59074 0.1560012 0.51399785 -0.84348667 0.020018438
47.788242 -85.154373 231.28459 0.04854323 0.52151477 -0.85186028 0.022464773
-7.1220846 -84.125755 231.59946 -0.289038 0.019853815 -0.95711178 0.0042877886
-5.6072149 -83.918259 231.13554 -0.27659914 0.0072980658 -0.96095765 0.0051841652
-4.1297903 -83.637466 230.95238 -0.26818535 0.0091276346 -0.96332407 0.0077144061
-3.0022836 -83.339249 230.99945 -0.26072615 0.010879574 -0.96535152 0.015483645
41.324135 -84.155319 230.45197 0.17126532 0.51053327 -0.84262913 0.02132282
42.40757 -83.958488 231.22983 0.16812377 0.5164445 -0.83965439 0.019952372
43.988163 -84.384392 231.61969 0.15943795 0.51989448 -0.83921939 0.018463962
45.633865 -84.022087 231.49388 0.11318305 0.52187246 -0.8454814 0.023874421
47.117897 -84.027924 231.29834 0.0053977459 0.51813662 -0.85528088 0.031976379
-8.1069269 -82.151085 231.88554 -0.28250018 0.0027606504 -0.95926327 0.0018714588
-7.1461163 -82.436981 231.62912 -0.27870703 0.0036736964 -0.96036917 0.0032780466
-5.5418162 -82.467041 231.5341 -0.27390492 0.0065760766 -0.96173429 0.0049696187
-3.9294891 -82.364899 231.02486 -0.26391125 0.0093157347 -0.96450192 0.0084759174
-2.56058 -82.285973 230.6349 -0.26483959 0.024059024 -0.9639923 0.012941488
-1.3345311 -81.664642 230.55402 -0.27017072 0.088596262 -0.95872754 0.010486329
41.258778 -82.362541 230.67537 0.18699826 0.51565272 -0.8361423 0.023315612
42.284782 -82.675766 231.30371 0.18108337 0.51995975 -0.83477581 0.021675978
46.301884 -83.187241 231.81931 -0.010879478 0.5244922 -0.85134578 0.033104993
47.048717 -82.778839 231.74464 -0.1458182 0.51912248 -0.84216917 0.0396019
-10.065574 -80.299599 231.88129 -0.28415254 0.002407416 -0.95877606 0.0017808821
-8.3200092 -80.48275 231.93335 -0.27713066 0.0023269705 -0.9608295 0.0020644958
-7.1269808 -80.90448 231.72975 -0.27549595 0.0048042731 -0.96129024 0.0032517829
-5.4723139 -80.836739 231.56923 -0.27020606 0.0081942044 -0.96276766 0.0067637982
-3.9017422 -80.792831 231.23273 -0.25990766 0.014272505 -0.96552801 0.010690944
-2.4165647 -80.656273 230.86159 -0.25580284 0.033609331 -0.96614462 0.012443767
10.512733 -80.195839 230.78185 -0.0069660516 0.54124904 -0.84083343 0.033396333
11.740242 -80.349434 230.65691 -0.013280438 0.53663433 -0.84371036 0.029313361
41.205944 -81.368095 230.55989 0.19812918 0.51929772 -0.83130908 0.02499404
-10.304017 -79.577225 231.77234 -0.28133681 0.0011938005 -0.95960838 0.0025477994
-9.2983656 -79.534332 231.76125 -0.27653965 0.0026404862 -0.96099889 0.0024551481
-7.4117608 -79.824631 231.88477 -0.27427405 0.0050924118 -0.96163809 0.0042085829
-5.3398561 -79.898186 231.70859 -0.26715577 0.011784666 -0.96358132 0.0092129037
-4.1383128 -79.949165 231.89143 -0.26035917 0.017271964 -0.96535736 0.011572485
10.94728 -79.928581 230.76358 -0.011685399 0.54229933 -0.8401041 0.034124523
11.994146 -79.918854 230.64212 -0.016037019 0.53966856 -0.84172481 0.031121396
13.671008 -79.704155 230.6723 -0.030799532 0.53299516 -0.84555751 0.030261781
52.031837 -76.032074 231.52121 -0.48296547 0.42432001 -0.76596141 0.0095489593
53.482182 -75.800491 230.98438 -0.45746946 0.34889269 -0.81792152 0.011409672
55.051765 -75.44355 230.69928 -0.38146314 0.24257757 -0.89198774 0.013827297
53.859417 -74.960678 231.63872 -0.4478589 0.30379003 -0.84091264 0.013601852
55.277966 -74.499001 231.30693 -0.37401825 0.2198489 -0.90098661 0.015204828
56.637188 -74.293526 231.02132 -0.30637258 0.21633551 -0.92700315 0.010189997
58.360439 -73.909363 230.77507 -0.29653805 0.21028492 -0.93158227 0.010453011
55.03949 -73.41893 231.86667 -0.38644317 0.21373616 -0.89720595 0.01765094
56.834488 -72.961853 231.62479 -0.30257741 0.20587242 -0.93062526 0.010576131
58.351154 -72.813416 231.21648 -0.29614386 0.20691276 -0.93246228 0.010874567
60.002197 -72.545052 230.69853 -0.29782248 0.20661546 -0.93199342 0.0082347672
61.072861 -72.25975 230.5972 -0.29759777 0.20065482 -0.9333666 0.0058130384
53.855824 -71.274559 231.79713 -0.40650317 0.22798571 -0.88474727 0.020640351
54.824326 -70.66629 231.94814 -0.34177563 0.2097813 -0.91606843 0.016739564
57.036716 -71.817688 231.87105 -0.2956396 0.20363255 -0.93334395 0.011445437
58.427021 -71.451599 231.68893 -0.29595008 0.20336087 -0.93330485 0.0097164474
60.072285 -71.213585 231.12366 -0.2984578 0.2005022 -0.93312478 0.0069328374
61.566628 -71.048584 230.69734 -0.29869705 0.18771009 -0.93570566 0.0081803994
62.615479 -70.878868 230.61142 -0.29899201 0.18012758 -0.93710071 0.0080711804
26.803371 -69.531715 231.66893 -0.34505665 0.13994077 -0.92809081 0.022136673
28.007158 -69.26619 231.36269 -0.37026191 0.13941564 -0.91840595 0.025442578
29.352713 -68.992538 230.87946 -0.39992958 0.13493752 -0.90655839 0.028665982
55.627644 -69.919334 231.43971 -0.29711899 0.19899537 -0.93387425 0.011817288
56.30711 -69.156212 231.49321 -0.29474038 0.19669284 -0.93511504 0.012267204
58.791485 -69.918839 231.87923 -0.29609966 0.19666804 -0.93469071 0.0085107014
60.187279 -69.710609 231.51051 -0.29966763 0.18875039 -0.93518585 0.0063147014
61.615589 -69.573952 230.9919 -0.29868904 0.17842518 -0.93752301 0.0077454806
62.843197 -69.57914 230.6292 -0.29985034 0.1759934 -0.93761188 0.0072127795
64.652306 -69.406464 230.52959 -0.30061531 0.17460671 -0.93762624 0.0074789338
28.299519 -68.414886 231.8799 -0.3728084 0.10735903 -0.9216767 0.028419273
29.737968 -68.053123 231.34201 -0.40787271 0.089916214 -0.90860051 0.031696595
30.96439 -67.59375 230.93327 -0.4406825 0.066818364 -0.89517266 0.036847733
56.616913 -67.983353 231.48405 -0.29574406 0.1938407 -0.93539357 0.011839375
59.126537 -68.304932 231.83562 -0.30006903 0.18599847 -0.93560845 0.0081227981
59.930267 -68.061729 231.74857 -0.29991481 0.17631255 -0.93753135 0.0071107582
61.493973 -67.982292 231.19652 -0.29890993 0.17151383 -0.93874168 0.0063596191
63.034981 -67.999817 230.8447 -0.30000308 0.16967233 -0.93872762 0.0074820742
64.166016 -68.051498 230.59164 -0.3014099 0.16871546 -0.93844932 0.0093586873
30.045401 -66.641159 231.79308 -0.41598147 0.053478856 -0.90779918 0.033227995
31.13426 -66.349518 231.37828 -0.44115639 0.049206395 -0.89608026 0.035931583
32.042797 -66.212257 230.67639 -0.46507016 0.045638617 -0.88409668 0.041035693
57.101685 -66.342384 231.53563 -0.30283907 0.17762664 -0.93634254 0.011251028
58.386219 -66.202393 231.84064 -0.30247912 0.16732606 -0.93835402 0.0084612593
59.91703 -66.379311 231.43282 -0.29905063 0.16001447 -0.94072533 0.007112144
61.595539 -66.466515 230.9769 -0.29836878 0.1581071 -0.94126415 0.0053240941
63.08057 -66.429001 230.53638 -0.3005088 0.15418103 -0.94123471 0.0071881483
64.578499 -66.555519 230.45422 -0.30151927 0.15042719 -0.94151884 0.0083596911
30.318291 -65.483742 231.95213 -0.41907805 0.038236912 -0.90714473 0.033396583
31.482323 -64.884171 231.62245 -0.44474918 0.031875428 -0.89508778 0.035693925
32.245422 -64.709999 231.01772 -0.46583146 0.024458868 -0.88453537 0.040726073
57.414848 -65.171638 231.2731 -0.30038607 0.14162897 -0.94324416 0.011428755
58.335491 -65.2444 231.56357 -0.30140081 0.14273116 -0.94275415 0.0099751679
59.873837 -65.299614 230.9691 -0.2976459 0.13858937 -0.94456339 0.0061520445
61.838032 -65.366501 230.55855 -0.29808527 0.14267536 -0.94381618 0.0048996136
63.032036 -65.216179 230.4008 -0.29954594 0.14559959 -0.94290668 0.0069206143
31.62291 -63.271294 231.90202 -0.45072553 0.0071937349 -0.89263356 0.037529912
32.628868 -63.18626 231.14841 -0.47671843 -0.0029420122 -0.87905109 0.043158591
26.484123 -60.937893 231.87697 -0.34137338 -0.05867973 -0.93809432 0.036824867
31.656778 -61.44751 231.81927 -0.46229556 -0.027865684 -0.88628787 0.040903643
32.537273 -61.568848 231.17204 -0.48320466 -0.035620369 -0.8747825 0.045156978
26.462362 -60.349316 230.80424 -0.35005531 -0.070743151 -0.9340539 0.036816664
28.161673 -60.250298 231.07237 -0.39716941 -0.051556136 -0.91629606 0.035375498
29.618221 -60.26165 231.3177 -0.43054998 -0.050188843 -0.90117031 0.039436381
31.274931 -60.176594 231.13319 -0.46861508 -0.066341616 -0.88090783 0.044744622
32.435444 -60.303291 230.82881 -0.49112287 -0.078018613 -0.86758941 0.048652731
46.033051 -30.409592 230.5771 0.25574368 0.36739546 -0.89421237 0.019545371
47.008732 -30.518579 230.53595 0.25228012 0.37150297 -0.8934989 0.017564509
42.808773 -29.274866 230.74747 0.28295884 0.33625564 -0.89825743 0.021971693
44.086628 -29.591831 230.81146 0.2730965 0.34837994 -0.89668816 0.020573139
45.616386 -29.65012 231.23222 0.25941637 0.36397424 -0.89455342 0.018769404
47.281815 -29.62001 231.29428 0.25155681 0.37027791 -0.89421111 0.015139027
48.838932 -29.547169 231.25719 0.24354511 0.37706709 -0.89359176 0.013742393
50.44075 -29.499462 231.2417 0.22762287 0.38974863 -0.89234734 0.012038791
51.875034 -29.277338 231.36957 0.21183643 0.40125751 -0.89113283 0.01024374
53.413692 -28.979843 231.4028 0.20125341 0.41818598 -0.88578641 0.011242868
54.468807 -28.960978 231.13495 0.18598677 0.44105241 -0.87799871 0.008872767
42.537556 -27.984999 230.8401 0.28639844 0.33242241 -0.89859402 0.020822089
44.083858 -27.927422 231.34662 0.27471185 0.34489772 -0.89754045 0.01772722
45.537746 -28.217762 231.7738 0.26253423 0.3556942 -0.89697123 0.017074004
46.964272 -28.468546 231.76654 0.25542086 0.35813567 -0.89805299 0.013400529
50.640316 -28.776682 231.83453 0.23046926 0.37725517 -0.89697409 0.010137112
53.84129 -28.688738 231.81792 0.20457473 0.41162044 -0.88809788 0.010045932
54.960999 -28.517761 231.46526 0.19327196 0.43364361 -0.88011318 0.010814058
41.324852 -26.362917 230.55322 0.30388793 0.31191182 -0.90020174 0.020723119
42.416687 -26.46945 230.87535 0.29244772 0.3251515 -0.89930582 0.019068373
44.080173 -26.311035 231.58575 0.27888754 0.33035427 -0.90171379 0.014549441
45.223625 -26.51943 231.93098 0.26733142 0.33847561 -0.90220177 0.014230506
42.40749 -24.820007 230.7662 0.29993194 0.31154102 -0.90165573 0.017586457
43.988243 -24.790413 231.51292 0.28558514 0.31507984 -0.90507776 0.013210837
44.978874 -24.23345 231.84955 0.27906501 0.31656712 -0.90659136 0.010201886
42.890602 -23.709311 230.57004 0.30002537 0.30048934 -0.90536785 0.014446673
44.044418 -23.688368 231.29248 0.29068428 0.30520093 -0.90683794 0.01291797
45.059978 -23.433514 231.72554 0.28339326 0.31092486 -0.90720117 0.010406381
-16.795095 -95.048607 232.22018 -0.19926287 0.36622402 -0.90894127 0.014848714
-16.719318 -94.030998 232.15027 -0.232627 0.3546901 -0.90558249 0.016089132
-14.414748 -93.042831 232.25667 -0.2774958 0.32198587 -0.90516365 0.01389051
-13.608284 -90.021942 233.19356 -0.40819702 0.28507349 -0.86724174 0.011218939
-13.271672 -88.924538 233.29346 -0.43386316 0.26995942 -0.85958403 0.010551182
-12.262728 -88.443077 233.21179 -0.43318868 0.25609747 -0.86415374 0.0080207298
-13.092608 -87.526085 233.51277 -0.44104984 0.25537282 -0.86038351 0.0094362264
-12.011063 -87.269463 233.3214 -0.43219399 0.24937852 -0.86661339 0.0097896066
-10.600469 -87.021362 232.82533 -0.42254344 0.24417248 -0.87283266 0.010747992
-9.3112307 -86.619392 232.37285 -0.40233353 0.23200622 -0.8856076 0.011020527
-11.920335 -85.633865 233.36189 -0.41494349 0.21823019 -0.88328791 0.011318322
-10.477042 -85.525345 232.90436 -0.39670324 0.20446983 -0.89488465 0.011362072
-8.9708576 -85.509567 232.3654 -0.37445027 0.1832013 -0.90896887 0.011454497
43.965633 -84.816658 232.0594 0.15689901 0.52032262 -0.8394326 0.018379239
47.803535 -84.864342 232.03476 0.021909444 0.52527183 -0.85065246 0.023729157
-13.621107 -83.65197 233.40678 -0.3586635 0.093416311 -0.92878085 0.0078958767
-11.885055 -83.925346 233.48651 -0.35789984 0.1066362 -0.92765105 0.0099429032
-10.432591 -83.911766 232.85667 -0.33856526 0.088663071 -0.93675631 0.0091632064
-8.8073883 -84.063438 232.33746 -0.31820694 0.062113352 -0.9459843 0.0073598255
-7.4274774 -83.863243 232.1012 -0.29011384 0.015879778 -0.95686036 0.0040704529
44.03458 -83.743408 232.4641 0.17133616 0.52290303 -0.83499485 0.020567996
45.494366 -83.258179 232.25037 0.067547418 0.52750647 -0.84686142 0.028806703
47.57148 -83.422974 232.28999 -0.11729578 0.52065712 -0.8456701 0.037841804
-12.951979 -82.808197 233.14252 -0.3192212 0.019656351 -0.94747639 0.0075065326
-11.775069 -82.537437 233.20676 -0.30521762 0.0072215986 -0.95225525 0.0066717155
-10.391919 -82.33181 232.85374 -0.2955291 0.002257837 -0.95533115 0.0048643108
-8.8354988 -82.482063 232.35254 -0.28940696 0.0045199785 -0.95719546 0.0028764235
-5.9019389 -81.91169 232.16611 -0.27472222 0.0052981158 -0.96150905 0.0042163529
42.776497 -82.034416 232.46428 0.18024957 0.52996039 -0.82864469 0.021034399
43.882698 -82.509819 232.82968 0.14755963 0.53223157 -0.83364004 0.022604374
45.576271 -82.375183 232.69804 -0.042918075 0.53716183 -0.8423866 0.034332525
47.196457 -82.280899 232.68318 -0.21596271 0.52521569 -0.82310909 0.042024091
-11.274794 -81.06575 232.31985 -0.29496238 0.002958098 -0.9555043 0.0052310377
-10.351075 -80.852692 232.26535 -0.28981781 0.0035447162 -0.95707536 0.0034426895
-8.8477039 -80.980843 232.36412 -0.28221351 0.0017618021 -0.95935005 0.0015037337
-6.8971424 -80.385391 232.25113 -0.27464896 0.0050075627 -0.96153152 0.0045290566
-6.0805321 -80.625977 232.19067 -0.27373081 0.0056319456 -0.96178991 0.0065599582
-3.9502225 -80.009331 232.19025 -0.25974318 0.017382385 -0.96552134 0.011154271
42.72842 -80.939621 232.9169 0.17157228 0.54117 -0.82322413 0.022246696
43.610657 -81.39782 233.35442 0.11210082 0.54588145 -0.8303293 0.026325703
45.84753 -81.221054 233.40053 -0.21318682 0.54293221 -0.81226593 0.041891478
47.157234 -81.059517 233.21735 -0.31446654 0.52833623 -0.78865182 0.042493872
-10.041328 -79.233109 232.33455 -0.28010938 0.0014723451 -0.95996696 0.0030245818
-8.7420588 -79.550591 232.32721 -0.27616224 0.0031052353 -0.961106 0.0021084901
-7.0804453 -79.612068 232.67847 -0.27382463 0.0052919202 -0.96176505 0.0045464821
-5.5474586 -79.719711 232.46652 -0.2685684 0.010063585 -0.96320802 0.0088827834
-4.6245599 -79.801117 232.82507 -0.26381308 0.014973008 -0.96445763 0.0095680524
42.50449 -79.665993 233.38557 0.15277886 0.55547369 -0.8173784 0.027356355
52.016747 -75.245499 232.25122 -0.48243251 0.40691429 -0.77568007 0.010066629
53.008343 -75.219177 232.05656 -0.47725362 0.3695159 -0.79729986 0.01085328
50.922718 -73.877846 233.58774 -0.48245046 0.39970586 -0.77940804 0.010803314
51.98777 -74.364388 232.71547 -0.48251066 0.37929741 -0.78950423 0.010848633
53.597813 -74.21273 232.39941 -0.45989516 0.30177265 -0.83512253 0.014050784
54.839588 -73.908951 232.21172 -0.41262206 0.22877122 -0.88170671 0.016517317
50.986431 -73.180199 233.34387 -0.48308203 0.37601668 -0.79072326 0.011385832
52.032333 -73.022568 233.24937 -0.48303723 0.33497608 -0.80899072 0.012322648
53.627201 -72.804092 232.92841 -0.45728824 0.26878431 -0.84772789 0.016057661
55.240891 -72.753876 232.58234 -0.38714278 0.21937104 -0.89554274 0.01719968
56.519154 -72.562271 232.16216 -0.30845049 0.20488892 -0.9289127 0.011475225
58.592079 -72.057274 232.1517 -0.29571652 0.2046399 -0.93309927 0.01116603
20.234779 -71.149414 233.21661 -0.2731984 0.14180689 -0.95144808 0.049364086
21.79517 -71.1408 233.23874 -0.2827543 0.14155433 -0.94868976 0.038862597
23.1556 -70.726677 232.877 -0.29270357 0.15004031 -0.94435823 0.03119272
24.645378 -70.556984 232.43628 -0.31119055 0.16404472 -0.93608212 0.023257097
52.305744 -71.920715 233.45619 -0.49031621 0.30186886 -0.81759727 0.013993508
53.973766 -71.680779 232.71297 -0.43390575 0.24169368 -0.86793435 0.018582793
55.187531 -71.371483 232.74841 -0.36810946 0.21604347 -0.90433437 0.018066818
56.71347 -71.009583 232.40175 -0.29812679 0.20105763 -0.93311107 0.011850184
58.173294 -70.85672 232.07878 -0.29595903 0.20194967 -0.93360841 0.0096368222
19.747936 -70.249611 233.59717 -0.26813415 0.1185272 -0.95606244 0.045440797
22.337936 -70.054337 233.28281 -0.28561103 0.13819407 -0.94832945 0.033583671
23.545683 -69.937775 233.14624 -0.29412022 0.13366607 -0.94637549 0.030795215
24.833105 -69.638046 232.7692 -0.30918846 0.12556444 -0.94267493 0.02680485
25.981134 -69.401352 232.47359 -0.32643256 0.12138394 -0.93739414 0.024970863
27.594444 -69.092209 232.24614 -0.35695392 0.12623085 -0.92555368 0.025584653
55.772663 -70.391739 232.13931 -0.30236506 0.20010322 -0.93195182 0.012316037
56.878555 -69.645355 232.48923 -0.29467204 0.19824393 -0.93480891 0.012006194
58.214153 -69.511703 232.30708 -0.29632273 0.19828321 -0.93427867 0.0098341918
59.421906 -69.549088 232.18056 -0.29694793 0.19159584 -0.93547475 0.0065864073
22.995996 -68.657646 233.54718 -0.29620445 0.10957516 -0.94881839 0.032226201
25.23033 -68.212807 233.35959 -0.3106617 0.075078845 -0.94755083 0.030787285
26.451765 -68.06678 232.91968 -0.33044517 0.078325868 -0.94056952 0.029265491
27.774879 -67.852547 232.52576 -0.35788301 0.082837932 -0.93008476 0.028170535
29.036936 -67.689507 232.1925 -0.38574821 0.081873223 -0.91896421 0.030271212
57.178715 -67.999466 232.36636 -0.29570788 0.1916465 -0.93585718 0.010999698
58.361233 -68.016174 232.27708 -0.29904076 0.1881687 -0.93550372 0.0088363364
59.723515 -68.014282 232.23074 -0.29998976 0.17677991 -0.93741935 0.0065543395
26.639914 -66.932617 233.47163 -0.33183885 0.048738752 -0.94207621 0.031528678
27.971729 -66.430222 233.07758 -0.35811067 0.045898944 -0.93255025 0.029615387
29.346401 -66.328117 232.40559 -0.3958571 0.048346441 -0.91703856 0.031695642
30.768269 -65.999359 232.05408 -0.4305816 0.045858257 -0.9013859 0.033847347
57.365685 -66.837296 232.1987 -0.30158579 0.18172278 -0.93596089 0.01052543
58.21431 -66.726898 232.20737 -0.30127162 0.1740516 -0.93751878 0.0085504763
17.093435 -64.032471 233.50935 -0.21652019 0.037684869 -0.97555059 0.057540037
28.227184 -65.333084 233.50322 -0.36343035 0.031380631 -0.93109268 0.029888373
29.650743 -64.851822 232.97235 -0.40095332 0.026554102 -0.91571355 0.031125875
30.844715 -64.694962 232.33798 -0.42767316 0.028736629 -0.9034766 0.032307558
16.947674 -63.312702 233.06891 -0.2079109 0.0024278802 -0.97814471 0.063162431
18.239227 -63.228302 233.48787 -0.2382822 0.017073795 -0.97104585 0.054457579
20.65782 -62.448551 233.5128 -0.26654816 0.025247706 -0.96349084 0.040638987
29.799223 -63.083023 233.22588 -0.40608919 0.0058538495 -0.91381466 0.032439813
30.983492 -63.177288 232.66769 -0.43269497 0.0085472278 -0.90149987 0.034865525
23.152306 -61.984707 233.24266 -0.30547783 0.0073196869 -0.95217103 0.034091029
24.938635 -61.647663 233.02443 -0.32380906 -0.017165791 -0.94596672 0.033336706
26.320852 -61.498993 232.88882 -0.33683369 -0.04043236 -0.9406957 0.034409467
28.02825 -61.446224 232.90561 -0.37477171 -0.02947166 -0.92664856 0.033919796
29.655607 -61.598652 232.97737 -0.41066691 -0.019162783 -0.91158402 0.03471797
31.07032 -61.677437 232.40714 -0.44474953 -0.019759187 -0.89543706 0.038489066
29.525366 -60.597492 232.02731 -0.42119947 -0.036784369 -0.90622181 0.036197234
47.834629 -28.835905 232.15498 0.24991795 0.36671498 -0.89613682 0.014237836
48.893723 -28.935781 232.29089 0.24582547 0.36805442 -0.8967194 0.012038675
50.069378 -28.918655 232.39966 0.23680283 0.37311143 -0.89705759 0.0106431
51.879284 -28.890549 232.23189 0.21642742 0.39127797 -0.8944611 0.010314047
45.799297 -27.828547 232.04604 0.26172253 0.35215273 -0.89860427 0.015635327
47.286366 -27.777588 232.45389 0.25590345 0.35197839 -0.90034688 0.012356509
48.771618 -27.983532 232.68382 0.248963 0.35956252 -0.89929539 0.010896275
50.361664 -27.984224 232.91788 0.23614442 0.36951092 -0.89871991 0.0094126351
51.975826 -27.98044 232.97726 0.22169152 0.38443786 -0.8961364 0.0094973547
53.56015 -28.007462 232.87473 0.21461813 0.3979691 -0.89194149 0.010117125
55.161575 -27.865618 232.80402 0.2059762 0.41373786 -0.88678902 0.011331856
56.789791 -27.572424 232.88985 0.19328225 0.43403965 -0.87991571 0.011905315
58.239594 -27.334938 233.08125 0.18244068 0.45501018 -0.87159693 0.0081773978
45.819706 -26.490005 232.30276 0.26409516 0.34032401 -0.90245968 0.012827273
47.197929 -26.343445 232.82678 0.25857782 0.34620824 -0.90181893 0.011267823
48.674442 -26.580378 233.39268 0.25141808 0.35360396 -0.9009735 0.0093072541
50.257332 -26.875847 233.48834 0.24017471 0.36159322 -0.90086979 0.0081311772
51.634491 -27.027039 233.38686 0.22799337 0.37472141 -0.89866722 0.0086974353
57.19976 -26.991776 233.07545 0.19943312 0.42358756 -0.8836289 0.012076576
58.317215 -27.032551 233.19565 0.19198094 0.43788427 -0.87829417 0.0075385687
60.063698 -26.649157 233.58235 0.18140101 0.47228545 -0.86257768 0.0092655048
44.786678 -24.442129 232.01311 0.28028131 0.31578186 -0.90649003 0.010869722
45.723759 -24.889528 232.3614 0.27005371 0.32968625 -0.90464252 0.011249218
47.227646 -24.749018 233.0938 0.26309288 0.33900499 -0.90324849 0.011374137
48.207954 -24.923313 233.46953 0.2565839 0.34322336 -0.9035278 0.0093010487
45.956898 -23.461731 232.41161 0.27621934 0.32060242 -0.90604472 0.011178083
47.265926 -23.209394 233.17017 0.26878607 0.32703483 -0.90598142 0.012021177
48.229012 -22.703007 233.51349 0.26581085 0.32535711 -0.907462 0.010828816
47.418186 -22.033773 232.90849 0.27680525 0.31011763 -0.90950865 0.011661232
48.769432 -21.915428 233.35905 0.26727927 0.32288703 -0.90791285 0.010504914
-17.713348 -92.827278 234.91399 -0.28977093 0.36478266 -0.8848539 0.01829752
-19.276123 -92.188812 235.03098 -0.30287412 0.38331586 -0.87254578 0.02010265
-18.089931 -92.273201 235.01457 -0.30425245 0.36683533 -0.87912595 0.018107153
-16.761808 -91.93499 234.48314 -0.31869996 0.34580112 -0.88252586 0.016549774
-15.595521 -91.456429 234.21547 -0.34306473 0.32745087 -0.88038772 0.015745044
-19.881369 -90.925598 235.14554 -0.34268609 0.38886502 -0.85519016 0.021653483
-16.584904 -90.250732 234.95547 -0.38671497 0.33213678 -0.86031199 0.016053453
-15.197239 -90.404533 234.28131 -0.38859764 0.31205919 -0.86695498 0.014352432
-13.992785 -90.061172 233.79507 -0.4055433 0.29141313 -0.8663792 0.01114809
-16.511477 -88.80378 234.99255 -0.42868221 0.31478909 -0.84684092 0.014224595
-15.064705 -88.801941 234.51271 -0.4337303 0.29347739 -0.8519091 0.01256146
-13.760306 -88.751366 233.96184 -0.43663657 0.27446991 -0.85674655 0.010635418
-18.84409 -86.797585 235.1904 -0.45220938 0.2931211 -0.84236974 0.019023117
-16.386936 -87.117668 235.01355 -0.45331016 0.27626026 -0.84746104 0.014084086
-15.257436 -87.13369 234.56516 -0.45309919 0.26354334 -0.85161376 0.012649702
-13.715129 -87.195839 234.00179 -0.44291449 0.2526789 -0.86022103 0.0094320253
-12.516992 -86.994415 233.77211 -0.43300599 0.24648364 -0.86703616 0.0094697811
-16.65827 -85.707924 234.84775 -0.44001752 0.21439287 -0.87202078 0.013484935
-15.27983 -85.654709 234.41539 -0.43784782 0.21487366 -0.87299401 0.010767621
-13.711859 -85.697823 234.06479 -0.42727762 0.21963593 -0.87703699 0.010132352
-12.364237 -85.592056 233.74402 -0.41472453 0.21304294 -0.88465601 0.010814497
-15.129309 -84.631332 234.09265 -0.40767881 0.16130254 -0.8987655 0.0092736678
-13.609884 -84.136757 233.96777 -0.37607118 0.12318429 -0.91836601 0.0088743949
-12.32723 -84.177338 233.72021 -0.37205881 0.12777387 -0.91937268 0.010231224
-13.320903 -83.104233 233.88354 -0.32678556 0.028521193 -0.94466805 0.006201257
-12.354143 -82.912048 233.64877 -0.31531534 0.016383657 -0.94884551 0.0072639026
43.955551 -81.919716 233.80603 0.12996352 0.54317087 -0.82950288 0.024623627
44.809303 -81.621628 233.87546 -0.026407713 0.55320197 -0.83262849 0.034815725
42.930801 -80.327675 233.99048 0.13939466 0.55463862 -0.82033235 0.027154693
43.969044 -80.716606 234.37999 0.013463601 0.56245238 -0.82672012 0.035239261
45.436874 -80.649429 234.10818 -0.22022587 0.55241257 -0.80395335 0.043974224
47.083752 -80.350533 233.96509 -0.35077348 0.53496438 -0.76861638 0.044774409
-5.9575028 -79.653168 233.81206 -0.27104127 0.0067719365 -0.96254385 0.0073759258
42.811859 -79.225372 234.41805 0.076457649 0.56890184 -0.81884372 0.036690846
43.700985 -79.534096 234.83781 -0.075585216 0.57475591 -0.81482673 0.045799851
45.824154 -79.379936 234.66856 -0.33565497 0.55325091 -0.76239699 0.051067516
47.102692 -79.244186 234.56235 -0.38867769 0.54255891 -0.7446875 0.04747045
42.880371 -78.110977 235.04259 -0.020083444 0.584153 -0.81139505 0.051478356
46.362579 -78.342842 235.17068 -0.39275423 0.55565166 -0.73279965 0.052820798
47.239361 -78.013496 235.0804 -0.42177886 0.54688311 -0.72320223 0.048046902
48.026657 -77.762291 234.84741 -0.44395128 0.52982408 -0.72262979 0.037648279
51.846348 -72.675858 234.00201 -0.48568386 0.33490834 -0.80743271 0.011834187
52.8829 -72.013702 233.87506 -0.48147771 0.28969058 -0.82719922 0.014580825
20.326488 -70.821884 233.98103 -0.27341455 0.12592176 -0.95361847 0.045513544
21.337877 -70.842125 233.82257 -0.27889231 0.13714625 -0.95047891 0.041236017
19.071543 -69.255066 234.30974 -0.26016057 0.11624512 -0.95854241 0.04485628
19.99967 -69.692123 234.7589 -0.26451051 0.12347669 -0.95644534 0.041979127
21.56901 -69.620934 234.45128 -0.27877301 0.13281114 -0.9511292 0.037279826
23.094057 -69.414223 233.96823 -0.29128659 0.12860252 -0.94795233 0.032497086
24.404312 -69.179413 233.63379 -0.30155027 0.11098987 -0.9469682 0.030481502
21.90233 -68.249542 234.9814 -0.28232273 0.11839692 -0.95198536 0.033851378
23.287767 -67.98365 234.48221 -0.29709959 0.096978024 -0.94990903 0.034118868
24.652576 -67.893501 233.96657 -0.30626419 0.076558381 -0.94886309 0.032625966
25.870132 -67.470284 233.90985 -0.3178755 0.062286448 -0.94608432 0.031404998
20.056414 -65.723701 235.18317 -0.26315194 0.080980524 -0.96134973 0.037994545
23.349665 -66.566978 234.8974 -0.30093876 0.074323475 -0.95074278 0.035225488
24.909176 -66.416405 234.48566 -0.31225452 0.056558046 -0.94831336 0.033330046
26.294659 -66.364418 234.08119 -0.32491466 0.041366342 -0.94483823 0.031985931
27.640474 -66.153107 233.72374 -0.34878284 0.039898995 -0.93635392 0.029419011
17.367931 -64.125626 233.92859 -0.22269614 0.040793106 -0.97403407 0.054122925
18.439251 -64.621567 234.49103 -0.24247934 0.058163606 -0.96841145 0.047511902
20.079428 -64.558792 234.75937 -0.26582795 0.054140337 -0.96249896 0.042478267
21.673157 -64.62233 235.07738 -0.28243309 0.060347691 -0.95738697 0.036656149
23.181561 -64.661392 235.04887 -0.30131197 0.058980878 -0.95169973 0.033516072
24.83116 -64.862968 234.91409 -0.31531596 0.039162152 -0.94817835 0.032580078
26.403315 -64.880035 234.48889 -0.32733491 0.019898945 -0.94469875 0.033343218
27.807833 -64.707863 234.04985 -0.35282627 0.020798696 -0.93545765 0.031389032
29.091089 -64.429115 233.68987 -0.38475221 0.017728858 -0.92284966 0.030507667
17.408585 -63.740528 233.64644 -0.22316575 0.027886327 -0.97438157 0.057857282
18.442085 -63.497555 233.83476 -0.24224021 0.025929365 -0.96986973 0.052438878
19.848608 -63.450333 234.29765 -0.25921646 0.033733893 -0.96522993 0.043989576
21.554825 -63.157429 234.45157 -0.27880868 0.042067319 -0.95942485 0.036428295
23.176352 -63.171501 234.63197 -0.30263278 0.034184068 -0.95249403 0.034008075
24.681908 -63.22998 234.7729 -0.31879607 0.02103526 -0.94758981 0.033358563
26.314861 -63.24535 234.56165 -0.32752353 0.0018067844 -0.94484133 0.032209795
27.924173 -63.262909 234.14026 -0.36143368 -0.0010610055 -0.93239725 0.031909563
29.234707 -63.349922 233.70741 -0.39212814 0.0044733873 -0.9198997 0.032059722
23.509628 -62.220722 233.81047 -0.31032154 0.013040192 -0.95054221 0.034184661
24.7577 -62.29063 234.06592 -0.32132035 0.0055455901 -0.94695431 0.033019695
26.416735 -62.242924 234.00755 -0.33191502 -0.020032702 -0.94309652 0.032665025
27.911549 -62.223927 233.89018 -0.36643127 -0.018345531 -0.93026423 0.033073958
52.225159 -27.28652 233.72278 0.22408281 0.38171193 -0.8967067 0.0093326885
53.679462 -27.30674 233.75346 0.21995023 0.39058647 -0.89390391 0.0097733866
54.987854 -27.29871 233.68121 0.21323417 0.39946619 -0.89160419 0.011264281
56.453121 -27.301865 233.64665 0.20314607 0.41678473 -0.88601476 0.011829222
57.741425 -27.637327 233.61601 0.18596743 0.44743931 -0.87476528 0.0083376942
49.162193 -25.881756 233.7906 0.24968526 0.3513414 -0.9023394 0.0083247116
50.37244 -26.192102 233.90584 0.24038844 0.3604604 -0.90126669 0.0090977596
52.015675 -26.334858 234.26498 0.22974005 0.37418073 -0.89844769 0.0096066147
53.677811 -26.399584 234.38873 0.22469309 0.38343808 -0.89581704 0.010191813
55.158981 -26.593801 234.36751 0.21683943 0.39578569 -0.89237565 0.011604059
56.682037 -26.455233 234.46701 0.21102552 0.40452242 -0.88984811 0.010774128
58.292667 -26.430353 234.43034 0.20905869 0.41381747 -0.8860302 0.0087356223
59.973259 -26.158932 234.43936 0.20374508 0.43601683 -0.87657136 0.0099432711
61.339802 -25.863464 234.50725 0.19488388 0.45940372 -0.86658436 0.010257113
48.883659 -24.817846 233.82997 0.25328878 0.34512818 -0.90373188 0.008998936
50.309605 -24.816923 234.2572 0.24435769 0.35498458 -0.902372 0.0097141434
51.888832 -24.9067 234.79671 0.23452444 0.36889991 -0.89939487 0.010037242
53.701244 -25.341806 234.87675 0.22954485 0.37886176 -0.89653379 0.010675842
55.366585 -25.327271 235.02153 0.22300182 0.3882266 -0.89417583 0.011451267
61.443859 -25.43923 234.83955 0.20762213 0.44015571 -0.87358803 0.010585074
64.297928 -25.071377 235.03894 0.17679387 0.4999029 -0.8478449 0.010275465
47.38261 -22.607796 233.80499 0.2729528 0.3156791 -0.90875936 0.011579957
48.830299 -23.324139 233.89154 0.25863889 0.33616281 -0.90559393 0.010124473
50.273609 -23.236607 234.62256 0.25042352 0.34854278 -0.90321982 0.010603248
51.725014 -23.35718 234.88316 0.24126491 0.36069116 -0.90094018 0.010982108
47.901314 -22.244431 233.6778 0.27134606 0.31693226 -0.9088043 0.010647682
48.942104 -22.223885 233.98372 0.26506245 0.32722437 -0.90700942 0.010419357
50.499344 -21.601986 234.60291 0.25765735 0.33917737 -0.90474939 0.011552788
51.631306 -21.642092 235.0432 0.25003806 0.34867221 -0.90327656 0.011726966
50.816811 -20.118298 234.36424 0.27582473 0.30825591 -0.9104389 0.01161837
51.578312 -20.0599 234.74109 0.26726669 0.31878343 -0.90936548 0.012195626
51.809963 -19.16613 234.51534 0.28610641 0.28313243 -0.91541201 0.010831333
-19.563421 -91.631149 235.50085 -0.32634518 0.38800171 -0.86194754 0.022237144
-18.459404 -91.809143 235.46744 -0.32371575 0.37166148 -0.87010109 0.01960592
-17.23708 -91.781403 235.27036 -0.32850569 0.35268641 -0.87618279 0.016231563
-20.926882 -89.822594 235.59288 -0.37575805 0.39292276 -0.83929586 0.022602836
-19.876019 -90.350883 235.80328 -0.36774558 0.38201785 -0.84783578 0.020993253
-18.330513 -90.415695 235.73813 -0.37748981 0.35924613 -0.8534891 0.018873772
-17.242315 -90.54808 235.328 -0.37526566 0.34409612 -0.86068195 0.017460749
-20.990932 -88.875206 236.2338 -0.41341633 0.36255431 -0.8352493 0.022823125
-19.888588 -88.878586 236.16998 -0.4190703 0.35305852 -0.83649856 0.020018587
-18.293053 -88.821991 235.7408 -0.42735332 0.33779305 -0.83860904 0.017922251
-17.048346 -88.572609 235.37459 -0.43490621 0.31877816 -0.84216207 0.015739249
-19.532427 -87.65242 235.91811 -0.44209239 0.3175911 -0.83886248 0.020471279
-18.326101 -87.339714 235.61754 -0.44969794 0.30212721 -0.84053016 0.018061114
-17.11035 -87.174377 235.37437 -0.45211709 0.28711385 -0.84448546 0.015052075
-16.857779 -85.79953 235.26761 -0.43840393 0.21292177 -0.87319314 0.013649644
44.113899 -78.985779 235.53032 -0.17968512 0.57967508 -0.79478943 0.055765022
45.332584 -78.862411 235.5558 -0.32252097 0.56659532 -0.75825459 0.057413876
43.036705 -77.602303 235.52158 -0.096573345 0.59467232 -0.7981469 0.060460627
43.898792 -77.784142 236.4066 -0.20533213 0.59507018 -0.77700073 0.066609554
45.73188 -77.631393 235.94449 -0.38758469 0.56739956 -0.72652316 0.059299454
47.214054 -77.555595 235.69209 -0.43888173 0.53838038 -0.71939522 0.043177929
42.803738 -75.923325 236.09882 -0.14506145 0.62112772 -0.77016723 0.075159602
43.372803 -76.191048 236.71849 -0.21252503 0.61693627 -0.75777489 0.077892639
45.932549 -76.586304 236.51447 -0.43223235 0.55600184 -0.70995581 0.054499473
47.371674 -76.25959 236.57552 -0.47720295 0.50212538 -0.72121245 0.025853781
48.388165 -75.689354 236.3116 -0.48611808 0.47811127 -0.73150438 0.015098999
42.520123 -74.968178 236.30782 -0.132815 0.63457161 -0.76136655 0.08228337
48.219425 -75.090523 236.55672 -0.48852181 0.47690931 -0.73068732 0.014958967
18.983046 -68.969589 235.27608 -0.25412562 0.1133613 -0.96050477 0.043139927
20.033651 -69.15168 235.31219 -0.26143822 0.12178606 -0.95750624 0.039885025
20.883999 -69.006187 235.3409 -0.26980925 0.12724485 -0.95446938 0.037234962
17.264971 -68.29451 236.78514 -0.23436345 0.076780684 -0.96911228 0.058941964
18.35367 -68.127876 236.34813 -0.24032924 0.09433084 -0.96609706 0.047747921
19.887844 -68.014938 236.07278 -0.2544117 0.11331169 -0.96043479 0.038286258
21.412264 -67.973114 235.52968 -0.27494526 0.11739342 -0.95426613 0.034640886
22.529049 -67.409126 235.35059 -0.28787589 0.1023236 -0.95218563 0.033186574
16.999483 -66.544083 236.38518 -0.2192037 0.062701032 -0.97366232 0.057554536
