# .PCD v0.7 - Point Cloud Data file format
VERSION 0.7
FIELDS x y z normal_x normal_y normal_z curvature
SIZE 4 4 4 4 4 4 4
TYPE F F F F F F F
COUNT 1 1 1 1 1 1 1
WIDTH 615
HEIGHT 1
VIEWPOINT 0 0 0 1 0 0 0
POINTS 615
DATA ascii
38.130825 53.42189 247.51213 -0.16176534 0.2527774 -0.95390534 0.0096162809
-31.320322 -101.05494 247.91136 0.33043417 0.31970829 -0.88803148 0.011010714
-30.150213 -101.2594 248.23155 0.31265238 0.32109097 -0.89395136 0.010522
-28.760422 -101.17597 248.67583 0.28952163 0.31256422 -0.90469927 0.0083834538
-32.793194 -99.634094 248.06953 0.34051603 0.30969405 -0.88777167 0.010449592
-31.50872 -99.979179 248.32236 0.32484797 0.31153628 -0.89298308 0.010779901
-30.135969 -100.2067 248.76736 0.29646641 0.30674669 -0.90444136 0.0086538596
-28.848722 -100.47692 249.02667 0.28512552 0.30164784 -0.90978682 0.0070302393
-33.694897 -98.528542 248.06955 0.3441093 0.30733898 -0.88720435 0.0098826159
-32.886703 -98.688362 248.32747 0.33931902 0.30513507 -0.88980627 0.010242112
-31.692509 -98.784454 248.78865 0.31505701 0.30165634 -0.89985698 0.010120703
-30.664715 -99.047859 249.02667 0.28836712 0.29630679 -0.91052008 0.010281609
-35.19775 -97.06073 247.83496 0.35873392 0.30469424 -0.88231033 0.0082118483
-34.063072 -97.093544 248.38118 0.34399641 0.30203283 -0.88906848 0.008359096
-32.929134 -97.369911 248.78882 0.33366045 0.2954773 -0.89518934 0.0074956482
-31.952213 -97.876648 249.12494 0.31085426 0.29315612 -0.90411788 0.010898667
-35.800808 -96.422821 247.81105 0.36747268 0.30409083 -0.87891561 0.0080604451
-34.157452 -95.887215 248.66797 0.34230086 0.29429245 -0.89231277 0.0070069134
-33.305901 -95.848503 248.97287 0.33186731 0.28236622 -0.90007412 0.0059939288
-34.297596 -94.585274 248.89816 0.34428421 0.28488946 -0.89459836 0.0084828688
-4.2084026 -81.474892 247.9725 0.50477642 0.40769574 -0.76091069 0.010130177
-3.4632282 -81.413795 248.41885 0.48512474 0.41486758 -0.7697655 0.012342642
-2.376533 -81.778961 248.80226 0.45317298 0.43042466 -0.78062075 0.010633103
-5.9755182 -80.010483 248.03418 0.54280144 0.36640632 -0.75572014 0.0095895734
-4.7781725 -80.439171 248.28723 0.51842195 0.37826076 -0.76691425 0.010319692
-3.6426873 -80.860649 248.94614 0.48732132 0.4020814 -0.77514416 0.012935472
-2.7303786 -81.086227 249.11671 0.46249694 0.41839534 -0.78169179 0.012722132
-6.1833057 -78.988098 248.39668 0.54254633 0.35047057 -0.76342255 0.0086455848
-5.2820973 -79.2798 248.84039 0.52460694 0.35821512 -0.77231443 0.0098063862
-7.4617267 -77.395424 248.1629 0.58485883 0.31169981 -0.7488547 0.0092071304
-6.6220074 -77.764168 248.65181 0.55422664 0.32680258 -0.76552784 0.008190671
-8.7299414 -75.757835 248.14557 0.62876242 0.28632194 -0.72296441 0.011770539
-7.6035857 -76.392761 248.47523 0.59364843 0.29858208 -0.74728191 0.010807467
-6.8078852 -76.779312 249.1658 0.56072664 0.31157592 -0.76714152 0.0085455393
-8.7313242 -74.735123 248.1797 0.63324529 0.2737318 -0.72392762 0.012045094
-7.9930058 -75.037056 248.80331 0.60950357 0.27978641 -0.74177146 0.011549191
-8.8782511 -73.556198 248.23592 0.64132732 0.25941271 -0.72208333 0.012064232
-7.9889011 -73.50666 248.92256 0.62084496 0.25797001 -0.74027222 0.011361616
-8.7450438 -72.47506 248.1125 0.64781177 0.24580729 -0.7210539 0.012043719
-8.1146297 -72.556053 248.56885 0.63357025 0.24567199 -0.73364431 0.011424789
78.098755 -13.290754 247.89026 0.39672732 0.31326208 -0.86282927 0.022518657
80.745201 -12.951259 248.18457 0.47672817 0.29349139 -0.82860911 0.021529682
79.560913 -11.862321 248.3214 0.46153936 0.29071704 -0.8381319 0.020192681
80.466797 -11.927609 248.39417 0.48262206 0.28285363 -0.8288967 0.018726494
81.527206 -11.491051 249.03009 0.50835615 0.26529706 -0.81926268 0.015806288
79.270775 -10.419916 248.27267 0.47022885 0.27456164 -0.83874953 0.017506748
80.355125 -10.540909 248.77174 0.49584493 0.26122069 -0.82819176 0.015695147
81.216805 -11.167198 249.06024 0.50512266 0.2632328 -0.82192439 0.015647065
79.312019 -9.0991287 248.49989 0.49496832 0.24157125 -0.8346554 0.014597039
80.116264 -9.0931368 249.06165 0.51545107 0.22530997 -0.82676822 0.013527846
78.359741 -8.1564732 247.8763 0.4892529 0.22632474 -0.84226406 0.014309867
79.165184 -7.7841005 248.25336 0.52135301 0.19615003 -0.83049154 0.012455629
79.904022 -7.4737711 248.90802 0.54295039 0.1708288 -0.82220578 0.0097599179
79.308006 -6.4509554 248.34163 0.54931784 0.15078475 -0.82189655 0.0085069295
79.932457 -6.2445211 249.0103 0.56038076 0.14027834 -0.81626916 0.0068170591
79.381363 -5.0192866 248.46829 0.56527168 0.12494934 -0.81538683 0.0055531831
75.540283 10.787592 249.14883 0.45816448 -0.06961672 -0.88613707 0.014740195
75.444519 11.912314 248.77234 0.46609047 -0.093846947 -0.87974572 0.013704222
75.747337 12.304943 248.84988 0.46485806 -0.098536916 -0.87988496 0.013817217
75.457664 13.040119 248.38928 0.46936607 -0.12718126 -0.87379652 0.013588629
76.343826 13.309275 248.84534 0.46139801 -0.12037946 -0.8789885 0.012837656
77.323967 13.823613 249.05792 0.44696271 -0.12701197 -0.88548988 0.010081917
76.728859 14.690115 248.2504 0.46021116 -0.16541818 -0.87226284 0.010894665
77.587761 14.754328 248.80887 0.45029959 -0.15781674 -0.87881976 0.0095799007
76.97818 15.724562 247.85275 0.44930768 -0.20998994 -0.86834717 0.0089829843
77.732079 15.778374 248.1965 0.44268647 -0.20182911 -0.87366676 0.0083486857
78.926979 16.070498 248.46584 0.43485028 -0.21022113 -0.87562114 0.0081781577
22.68317 44.745461 247.98509 -0.0050079101 0.25720009 -0.96634519 0.007530462
27.391041 44.790409 247.83092 -0.038507584 0.25651976 -0.96577156 0.0076666796
24.854277 46.168221 247.80173 -0.014892517 0.25800046 -0.96603006 0.0089571495
27.40362 45.435608 247.92877 -0.042627636 0.25302249 -0.96652085 0.0069648991
21.807028 46.908279 248.59128 -0.0081983358 0.25505888 -0.96689081 0.011024998
23.472748 47.347881 247.99939 -0.013706272 0.25883386 -0.9658246 0.010771369
24.443764 47.043316 247.89502 -0.01582901 0.25595534 -0.96655893 0.0084861862
25.518467 47.28157 248.01361 -0.027411327 0.25205579 -0.96732444 0.0062882104
30.611225 47.472084 248.86159 -0.085201398 0.23855126 -0.96738517 0.003875498
22.116343 48.256767 248.21262 -0.0046287309 0.25101796 -0.96797138 0.011342634
23.198107 48.317032 248.2692 -0.011308204 0.25526342 -0.9668054 0.0093329335
24.580547 48.326859 248.04898 -0.020574965 0.25474945 -0.96678817 0.0081933346
25.649046 48.33606 247.96739 -0.033494722 0.25280774 -0.96693659 0.007682113
27.37352 48.871117 247.85156 -0.057206862 0.24851775 -0.96693659 0.0060967593
28.699692 48.801281 247.84903 -0.068736382 0.24330726 -0.96751064 0.004183996
30.24333 48.370815 248.39439 -0.083306544 0.23964563 -0.96727973 0.0040071965
31.44285 48.606506 248.24142 -0.092366405 0.24208841 -0.96584755 0.0054915641
32.697231 48.386356 247.90584 -0.10082062 0.24425818 -0.96445483 0.0049723121
22.310379 49.497829 248.49176 -0.0014258308 0.24838471 -0.96866041 0.011490995
23.188845 49.752781 248.12601 -0.0083766095 0.24848559 -0.96859938 0.010154379
24.432379 49.699223 248.28769 -0.021660898 0.25015166 -0.96796441 0.0086074835
25.92535 49.662498 248.02605 -0.041543052 0.25028333 -0.96728098 0.0069460645
27.447809 49.768696 247.96144 -0.059451226 0.24976523 -0.9664796 0.0065626069
28.611048 49.705669 248.02756 -0.071561359 0.24624993 -0.9665609 0.0058461293
30.146431 49.721775 248.30696 -0.084784783 0.24397181 -0.96606904 0.0057972334
31.555918 49.677315 248.2784 -0.092566215 0.24736705 -0.96449006 0.0068151453
32.74472 49.461578 247.84288 -0.10104057 0.24850982 -0.96334505 0.0051632472
33.730324 50.028961 247.91977 -0.10783846 0.261868 -0.95905995 0.0059487564
23.419369 50.802826 248.2868 -0.0090353489 0.2386698 -0.97105873 0.0097236289
24.508209 51.111305 248.47203 -0.019656423 0.23747922 -0.97119373 0.0090478845
25.937672 51.057636 248.23001 -0.03969935 0.24266636 -0.96929717 0.0078456514
27.329548 51.050915 248.23276 -0.058857702 0.24600494 -0.96747988 0.0058539766
28.740469 51.102112 248.17532 -0.07716848 0.24654496 -0.96605414 0.0066224621
30.06682 51.16679 248.23712 -0.08504165 0.25087634 -0.96427637 0.0082027204
31.520384 51.172108 248.27998 -0.090520896 0.25443977 -0.96284282 0.0072287638
32.833176 51.1138 248.27628 -0.098896623 0.26067436 -0.96034801 0.007620695
34.221619 51.177868 248.12711 -0.10872846 0.26672748 -0.95761925 0.0084867124
39.289474 51.354042 248.0083 -0.17978106 0.25807837 -0.94924939 0.012626748
24.765392 52.285461 248.23038 -0.018429959 0.23086086 -0.97281224 0.0086079193
25.895559 52.464886 248.43852 -0.035534691 0.22753307 -0.97312176 0.0048643537
27.356092 52.44355 248.48921 -0.057465103 0.22929379 -0.97165948 0.0039514601
28.651041 52.532532 248.78745 -0.074791498 0.23479959 -0.96916217 0.0063733547
30.067471 52.517784 248.86714 -0.081445925 0.24557176 -0.96595091 0.0086362651
31.627066 52.415443 248.86064 -0.088497877 0.24825764 -0.96464312 0.0064041489
32.970776 52.488556 248.52412 -0.097173721 0.25663313 -0.96161145 0.0075461706
34.176792 52.448948 248.30159 -0.10619605 0.26300973 -0.95893079 0.0082899174
35.943615 52.682377 248.12694 -0.12644482 0.26475504 -0.95598984 0.0085574919
37.184132 52.692654 247.9417 -0.14410926 0.25944334 -0.95494592 0.0093355281
38.681702 52.232899 247.94614 -0.1703936 0.25826511 -0.95092857 0.011680581
39.667885 52.415012 247.91246 -0.17972121 0.26162702 -0.9482888 0.01285583
26.011618 53.424011 248.46971 -0.037449237 0.21521293 -0.97584885 0.0023359249
27.478064 53.701569 248.86357 -0.056085095 0.22143063 -0.97356206 0.0049561667
28.783062 53.693024 249.04416 -0.070909612 0.23156653 -0.97023129 0.0079059163
30.130533 53.619072 248.97571 -0.079342417 0.2405991 -0.96737623 0.0084520429
31.532549 53.716015 248.74678 -0.086205862 0.24397391 -0.96594274 0.0076132431
33.035309 53.799229 248.26947 -0.095891848 0.24989705 -0.96351242 0.0071305064
34.216084 53.551769 248.29848 -0.10404652 0.25584984 -0.96110106 0.0075298613
36.776329 53.272804 247.9165 -0.14076743 0.25619853 -0.95631945 0.0079976404
-28.251238 -100.8362 249.25699 0.2846956 0.30225137 -0.9097212 0.0079476284
-29.688654 -99.653046 249.29314 0.28495371 0.29417467 -0.91228431 0.0091235256
-28.664581 -100.03289 249.36133 0.28336826 0.29361305 -0.9129588 0.0070745498
-27.377598 -99.963562 249.86751 0.27985382 0.29089689 -0.91491026 0.0071489564
-25.99999 -99.823044 250.15663 0.27122214 0.29015687 -0.91774046 0.0099526439
-25.186573 -99.613434 250.05499 0.26425308 0.28845122 -0.9203077 0.011200088
-31.04891 -98.324326 249.38515 0.28824091 0.28833285 -0.91311628 0.010161406
-30.011175 -98.645882 249.59224 0.28381288 0.28527489 -0.91546082 0.0084464066
-28.697186 -98.76062 249.9146 0.28266743 0.28545371 -0.91575944 0.0069455383
-27.345718 -98.712677 250.28741 0.28176218 0.28652239 -0.91570467 0.0089944871
-26.120092 -99.134575 250.51842 0.27277625 0.28857714 -0.91777796 0.010806201
-25.198162 -99.218567 250.47833 0.2649591 0.28830343 -0.920151 0.013967008
-23.450811 -98.837914 250.53673 0.24420546 0.28302285 -0.92750299 0.017946646
-33.707615 -97.011597 249.22696 0.3379651 0.29833129 -0.89262426 0.0064958688
-32.707382 -96.879356 249.28375 0.322469 0.28548437 -0.90250349 0.0062494702
-31.527353 -97.275002 249.57886 0.29336938 0.2832557 -0.91307211 0.01073362
-30.084902 -97.282829 250.08595 0.28440428 0.2852436 -0.91528702 0.010866314
-28.772499 -97.580078 250.45345 0.28375494 0.28613171 -0.91521132 0.0091599701
-27.933775 -97.925697 250.43184 0.28446433 0.28612846 -0.91499215 0.010316999
-33.841255 -95.780518 249.33894 0.3348496 0.28804007 -0.89716709 0.0038130898
-32.722931 -95.863396 249.44884 0.31750757 0.27620929 -0.90713692 0.0066333939
-31.56106 -95.921341 249.95959 0.29003891 0.28247896 -0.91437572 0.009435568
-30.32745 -96.016098 250.4006 0.28485984 0.28538638 -0.91510081 0.012212072
-33.77486 -94.669128 249.52513 0.3329486 0.27733594 -0.90123808 0.0074333851
-32.914501 -94.561066 249.64346 0.32016489 0.2721957 -0.90741611 0.0085270684
-31.514715 -94.541977 250.27473 0.29103696 0.28190309 -0.91423637 0.010480253
-30.536797 -94.982414 250.45271 0.28434902 0.28464234 -0.91549134 0.010552119
-32.682552 -93.594284 249.95442 0.31592491 0.26987588 -0.90959245 0.0073435353
-31.656919 -93.133354 250.22762 0.29917729 0.27604437 -0.91339606 0.0077876826
-30.890039 -92.266716 250.42868 0.29113993 0.27713531 -0.9156602 0.00878671
-30.585377 -92.13942 250.56577 0.28573346 0.27830243 -0.91700828 0.0083375946
2.468822 -82.761902 250.24858 0.30160657 0.47140405 -0.82874107 0.0099371793
3.2550673 -82.811089 250.28709 0.27628043 0.47440118 -0.83583051 0.0095165307
5.1799927 -83.011604 250.37947 0.21771021 0.48827872 -0.84509534 0.014112141
6.2754402 -83.005486 250.27428 0.18243574 0.49399826 -0.85010761 0.012902679
7.1847801 -83.060928 250.49896 0.15246789 0.49488267 -0.85547924 0.012780063
-1.8524574 -81.547287 249.6407 0.4342978 0.42750478 -0.79285872 0.0093921255
-0.6600067 -81.879829 249.90634 0.40328383 0.43973568 -0.8024928 0.010984607
0.6601606 -82.261276 250.06322 0.36441469 0.45816287 -0.81073344 0.014927429
1.6366711 -82.475098 250.28745 0.32905754 0.46112716 -0.82406485 0.013067142
-4.4189224 -79.843147 249.32605 0.50508296 0.37285683 -0.77837592 0.011256158
-3.4479144 -80.323837 249.73038 0.47828731 0.3986299 -0.78251868 0.013539197
-2.31654 -80.651123 250.08624 0.44506389 0.41218588 -0.79499745 0.010917844
-4.6706934 -78.975655 249.64392 0.51068449 0.36109835 -0.78026235 0.011260567
-3.5594013 -79.11837 250.22266 0.48265836 0.38097265 -0.78860682 0.014130168
-2.7703791 -79.564362 250.20245 0.4608807 0.3950347 -0.7946927 0.013215335
-5.9050436 -77.579315 249.5069 0.5347892 0.33215901 -0.77696258 0.0078890799
-5.0159798 -77.795326 250.00296 0.51618737 0.347561 -0.7827847 0.0105172
-3.8887913 -78.084641 250.50055 0.49334437 0.36186406 -0.79099029 0.014532109
-7.3605905 -75.798424 249.30171 0.58088094 0.29399315 -0.75904238 0.0099814301
-6.3461256 -76.295403 249.79994 0.54897082 0.31228119 -0.77531379 0.0082270894
-5.3695898 -76.630516 250.37402 0.52527237 0.329492 -0.78455335 0.0094767902
-7.4366622 -74.853149 249.4547 0.5880785 0.28284454 -0.75773519 0.010135849
-6.4435649 -74.905975 250.11015 0.55949175 0.29279262 -0.77539766 0.0088761663
-7.347074 -73.54808 249.47398 0.59710026 0.26530984 -0.75702184 0.009776298
-6.3078022 -73.570625 250.17165 0.56743866 0.2777116 -0.77517074 0.0089576226
-5.4024072 -73.103432 250.44083 0.55516535 0.28006363 -0.7831704 0.010948439
81.832245 -11.408254 249.59497 0.51978248 0.2569612 -0.81473738 0.014933595
80.903259 -10.358999 249.44769 0.51267314 0.24749543 -0.82213885 0.014494848
81.731987 -10.523771 250.08777 0.5328272 0.23552194 -0.81278813 0.014309662
80.737 -9.0528183 249.70081 0.53430355 0.20771578 -0.81937414 0.012710277
81.421585 -9.2078657 250.27693 0.55019897 0.19750582 -0.81133991 0.012943817
80.625725 -7.6907182 249.85686 0.55847174 0.1623683 -0.81347769 0.0099337501
81.54216 -7.9682603 250.55791 0.57216948 0.15677781 -0.80501103 0.0094458647
80.479004 -6.4489207 249.91518 0.57097536 0.13566655 -0.80967999 0.0070819384
81.506989 -6.9439316 250.45009 0.58100271 0.13679716 -0.80232316 0.0078375926
80.385963 -4.6317215 249.82295 0.57735026 0.11334828 -0.80859071 0.0052821632
80.32283 -3.5765574 250.18735 0.57895249 0.10585815 -0.80846035 0.0054463134
80.283028 -2.1110065 250.45773 0.57617503 0.10731279 -0.81025082 0.0057862005
80.037163 -0.82728726 250.52878 0.56446773 0.11211647 -0.81780565 0.0062198802
79.334938 1.3233348 250.56842 0.54088944 0.11284823 -0.83348906 0.007859352
79.993713 0.12225337 250.13712 0.5569995 0.11516786 -0.82248884 0.0073881843
78.164803 2.7405908 250.30354 0.50671083 0.099794216 -0.85632086 0.0083131259
78.80619 2.2862363 250.4187 0.52089351 0.10506325 -0.84713143 0.008183863
78.080627 3.629873 250.11909 0.48013276 0.077686675 -0.87374896 0.0077587129
78.847534 3.3187857 250.45599 0.48829225 0.0832064 -0.86870438 0.0083406828
76.798218 5.5934677 249.71617 0.41476148 0.0047980417 -0.90991753 0.0099903736
77.759407 4.9912052 250.12514 0.43858302 0.031388175 -0.89814246 0.0095563857
78.563011 4.8481007 250.47894 0.4379164 0.035780478 -0.89830345 0.0079201255
76.832413 6.4144483 249.75647 0.40555152 -0.014378236 -0.91395909 0.011097438
77.672104 6.2073345 250.22919 0.41258919 -0.0046177851 -0.91090554 0.010978232
76.451797 7.7485142 250.04999 0.40647143 -0.033233587 -0.91305894 0.014162625
77.469627 7.5309629 250.29742 0.40287071 -0.028545922 -0.91481161 0.013257175
76.346542 9.0829315 249.98128 0.41996786 -0.042246949 -0.90655512 0.014244018
77.29377 9.0407219 250.41852 0.4017542 -0.039100129 -0.9149124 0.014486874
75.534294 11.083432 249.27069 0.46269768 -0.073178016 -0.88349074 0.016034842
76.348854 10.449775 249.76778 0.43689376 -0.057031717 -0.89770329 0.014848173
77.477402 10.653307 250.27327 0.41321734 -0.053251568 -0.90907407 0.015413461
76.363968 11.79729 249.53984 0.44676763 -0.079494335 -0.89111131 0.013905047
77.702652 11.940762 250.16696 0.42602879 -0.071711898 -0.90186304 0.014089267
78.604553 12.024558 250.47411 0.40880349 -0.068761118 -0.91002834 0.014420164
76.936531 13.102682 249.22026 0.45312929 -0.1055572 -0.8851732 0.013613678
77.774155 13.237159 249.75972 0.43467495 -0.1023129 -0.89475679 0.01203076
78.978386 13.3809 250.20517 0.42112762 -0.098278195 -0.90166122 0.013263736
80.143898 13.783775 250.1875 0.4133265 -0.10655943 -0.90432644 0.013799514
78.190727 14.542392 249.24464 0.44470191 -0.14245655 -0.88427728 0.010777942
79.037834 14.625554 249.66919 0.43348363 -0.13926192 -0.89033592 0.011800894
80.205864 14.317113 250.16513 0.42016351 -0.12355331 -0.8989979 0.014171855
78.333862 15.419472 249.29663 0.44134668 -0.17755841 -0.87959433 0.0095974961
78.979752 15.414795 249.3035 0.43825421 -0.17511876 -0.88162732 0.0098743998
21.468836 46.904049 249.53566 -0.0063527394 0.24884932 -0.96852142 0.011929471
31.701366 51.769878 249.21884 -0.08883708 0.25027078 -0.96409154 0.0073424513
26.244511 53.139881 249.22905 -0.039865263 0.21602277 -0.9755742 0.0022224986
27.196356 53.002525 249.3643 -0.052869912 0.22091088 -0.97385997 0.0043327725
30.514627 52.614651 249.24673 -0.082349934 0.24530156 -0.96594292 0.0086502461
31.396982 52.942883 249.43086 -0.085664481 0.24449022 -0.96586031 0.0075777858
26.529865 53.475582 249.6993 -0.043505654 0.21425617 -0.9758082 0.002733849
27.025267 53.353676 249.56693 -0.048383027 0.21626715 -0.97513467 0.0034260449
28.681477 53.465446 249.26151 -0.071408577 0.22999388 -0.97056866 0.0081056096
29.834726 53.826233 249.20561 -0.077504642 0.23713644 -0.9683798 0.0076730037
-27.029896 -98.145111 250.72539 0.28110924 0.28863218 -0.91524261 0.011309125
-25.784479 -98.512413 250.85672 0.2705943 0.28782347 -0.91866004 0.014046227
-24.47946 -98.636826 251.05916 0.25613552 0.28443259 -0.92384672 0.015006348
-23.213352 -98.43679 251.36372 0.23556353 0.27705249 -0.93153197 0.018838568
-29.458683 -96.858139 250.68781 0.28329244 0.28521681 -0.91564012 0.0078906827
-28.579638 -96.921227 250.75577 0.28417325 0.28591043 -0.9151507 0.0097084641
-27.318638 -97.353836 250.98856 0.28208089 0.28734297 -0.9153493 0.010993902
-25.82406 -97.250549 251.30534 0.26985794 0.28775454 -0.91889828 0.015837472
-24.624718 -97.276825 251.50844 0.25509986 0.2811105 -0.92514914 0.016106127
-22.89892 -97.27903 251.3051 0.23063396 0.27102733 -0.93453306 0.01923159
-21.972372 -97.122833 251.10826 0.21369648 0.26608291 -0.93996471 0.020987302
-29.668287 -95.771729 250.73175 0.28416923 0.28528127 -0.91534829 0.0097086197
-28.685715 -95.84465 251.06807 0.28381392 0.28521553 -0.915479 0.0086402595
-27.322773 -95.932716 251.45987 0.27894098 0.28796056 -0.91611719 0.0097063594
-25.98164 -95.973595 251.58604 0.26660442 0.28503531 -0.9206937 0.01439529
-25.039061 -96.029518 251.82915 0.25499183 0.27572525 -0.92679811 0.014260649
-22.756056 -96.014648 251.56453 0.22434935 0.26268348 -0.9384374 0.01739127
-21.824768 -95.867142 251.19955 0.20764732 0.25725222 -0.94377112 0.019966254
-31.44899 -94.0718 250.66728 0.29050216 0.28200212 -0.91437584 0.0099225231
-29.963207 -94.480438 250.90892 0.28353268 0.28460982 -0.91575462 0.0080638127
-28.67025 -94.495087 251.36848 0.28272492 0.28345731 -0.91636163 0.0055320128
-27.328075 -94.468163 251.68375 0.27232146 0.28355688 -0.91947621 0.008775644
-26.284689 -94.696259 251.72974 0.2613928 0.27934211 -0.92392731 0.011222349
-22.803314 -94.423981 251.60985 0.21754207 0.25361061 -0.942527 0.013776051
-22.156973 -94.78582 251.37112 0.20873253 0.25159773 -0.94505519 0.016455125
-31.127035 -93.253235 250.72038 0.28761986 0.28245854 -0.91514581 0.0079119159
-30.002275 -93.124222 251.17978 0.28215083 0.28200886 -0.91698521 0.0062307133
-28.679981 -93.095436 251.56551 0.27754843 0.27702257 -0.91990507 0.0039916178
-27.630749 -93.277771 251.89186 0.26499781 0.27558193 -0.92402965 0.0059214174
-24.309774 -92.843842 251.97292 0.22839384 0.25159287 -0.94049835 0.011460646
-23.274603 -93.061394 251.65996 0.2162656 0.24599072 -0.94483745 0.013597327
-29.996376 -92.060249 251.23303 0.28000447 0.27668896 -0.91926098 0.0074376999
-28.693487 -91.731041 251.57021 0.26523939 0.264705 -0.92713499 0.00498279
-27.800247 -91.511948 251.88863 0.25060195 0.25708225 -0.93333131 0.0070227357
-24.172153 -91.667969 251.78996 0.2172983 0.2397655 -0.94619972 0.012372851
-28.146624 -90.676346 251.78395 0.24740271 0.24965909 -0.93619567 0.010770301
-27.534857 -90.69516 251.84155 0.24344851 0.24712706 -0.93790245 0.0098360516
3.5922074 -82.776817 250.89868 0.26126999 0.46475044 -0.84601718 0.01247835
4.9227939 -82.736641 251.2099 0.22062525 0.46030259 -0.85991049 0.013570474
6.3321986 -82.767143 251.47466 0.17701672 0.45611835 -0.872136 0.013390522
7.6599073 -82.805649 251.46817 0.13621026 0.45315948 -0.88096154 0.012858836
8.9746742 -82.764748 251.63231 0.098912954 0.44771031 -0.88869095 0.014158087
10.509762 -82.68531 251.58374 0.062706374 0.44117722 -0.8952266 0.01462486
-0.4007113 -81.471214 250.92717 0.38718513 0.42758563 -0.81685871 0.012008758
0.72812849 -81.587479 251.0752 0.35360551 0.43156627 -0.82988775 0.014152328
2.0443807 -81.875519 251.36855 0.30923086 0.43462569 -0.84585851 0.012993277
3.5001812 -82.19825 251.54567 0.26254013 0.44276574 -0.85733956 0.013077838
4.6534967 -82.316689 251.69693 0.22546536 0.44498339 -0.86669207 0.012429788
6.3011703 -82.38913 251.95883 0.17459996 0.44205466 -0.87983096 0.012774253
8.4676714 -82.419472 251.97032 0.11222587 0.43286842 -0.89444411 0.01400913
10.967492 -82.409874 251.75494 0.055259086 0.42494747 -0.90352982 0.012954555
-1.9681923 -80.173515 250.83842 0.43040264 0.40448406 -0.80693638 0.010815953
-0.72692961 -80.53875 251.14471 0.39556164 0.41224945 -0.82072002 0.011460458
0.60676342 -80.570763 251.65742 0.35332042 0.41003269 -0.84085542 0.013042783
1.6028014 -80.948997 251.87665 0.3210687 0.4158189 -0.85088748 0.013983443
-2.9580262 -78.613235 250.9816 0.46386948 0.37898874 -0.80074501 0.015516009
-2.1687493 -79.092384 251.25357 0.43656975 0.38763791 -0.81187671 0.012629852
-0.89128095 -79.332993 251.75014 0.39632428 0.39312202 -0.82968801 0.011060742
-4.4674516 -77.467506 250.86787 0.50405717 0.35053518 -0.78933609 0.013073139
-3.3698993 -77.664001 251.21608 0.47609904 0.36032072 -0.80218369 0.015345126
-2.1800013 -78.047821 251.65079 0.43830261 0.37123621 -0.81858081 0.014214072
-4.8101935 -76.250504 250.99026 0.5137313 0.33111238 -0.79148263 0.010974731
-3.4759088 -76.324776 251.70796 0.47964278 0.33691865 -0.8102029 0.014496471
-5.7787828 -74.887657 250.68304 0.54324859 0.30056831 -0.78392583 0.0091678193
-4.8379393 -74.914764 251.10947 0.52226788 0.31244895 -0.79348087 0.011358086
-3.8795607 -74.889748 251.73529 0.49576598 0.31141841 -0.81070012 0.012022719
-5.7697988 -74.130676 250.84358 0.55073845 0.29058534 -0.78246242 0.011169725
-4.8604321 -73.682747 251.05199 0.53330469 0.29048094 -0.79448533 0.011645413
-3.5333254 -73.421638 251.51654 0.49897063 0.28596756 -0.8180775 0.011228175
-2.2229958 -73.049713 251.52086 0.46663707 0.27457342 -0.84074932 0.010456963
-0.8570745 -73.139458 251.87335 0.4242999 0.28098127 -0.8608247 0.011237726
40.616344 -56.096966 251.75906 0.017797459 -0.34983894 -0.9366408 0.015740948
40.95882 -55.530113 251.71558 0.012481529 -0.359029 -0.93324292 0.014744124
43.176746 -55.14793 251.69319 -0.021477628 -0.35341483 -0.93522018 0.0075268247
43.624386 -55.190834 251.85793 -0.03052957 -0.35374057 -0.93484521 0.01041627
83.113029 -10.27405 251.63298 0.58301872 0.19037896 -0.78983855 0.013390209
82.216148 -8.5521879 251.40715 0.58497888 0.15494752 -0.79610997 0.010510344
83.014664 -9.2710428 251.71593 0.59125376 0.16385791 -0.78966415 0.011880343
82.042854 -7.7079587 251.22366 0.58730549 0.1412556 -0.79694366 0.0094095683
82.893982 -7.7087259 251.89496 0.60027319 0.13182554 -0.78885621 0.0095664253
81.169312 -6.6619091 250.62228 0.58087492 0.13144873 -0.80330908 0.0074963802
81.999924 -6.2860737 251.47412 0.59299582 0.11988769 -0.79623049 0.0072588543
82.778381 -6.4833655 251.8501 0.59894419 0.11772724 -0.79208976 0.0075544999
80.94455 -4.5297594 250.69347 0.58256239 0.107503 -0.80564517 0.0049237399
81.768433 -4.9021635 251.3716 0.589064 0.10605876 -0.8010962 0.0056220484
82.638824 -4.8971219 251.89293 0.59442943 0.10173598 -0.79768634 0.0059541985
80.827072 -3.5171914 250.87105 0.58206391 0.10357136 -0.80652004 0.0053724339
81.650131 -3.5726633 251.41786 0.58581007 0.10127714 -0.80409539 0.0053836121
80.749016 -2.1449184 251.12447 0.57834256 0.10582072 -0.80890167 0.0060098507
81.729332 -2.1353047 251.60168 0.58237463 0.10320881 -0.80634218 0.0068485811
82.785858 -1.7771914 251.97444 0.5803954 0.099080205 -0.80828482 0.0082380706
79.571503 -0.035003573 250.66093 0.55836421 0.11518756 -0.82156032 0.0072096945
80.579948 -0.68356872 251.13933 0.56391561 0.11004453 -0.81846774 0.0068752556
81.569954 -0.66895622 251.7764 0.56166631 0.104771 -0.82070333 0.0069751861
82.870148 -0.12265378 251.983 0.54353327 0.096435376 -0.83382964 0.0072303908
79.355011 0.80001378 250.71004 0.54555178 0.11417732 -0.83026308 0.0072029498
80.513657 0.67444545 251.17082 0.54071641 0.10828055 -0.83420688 0.0067931521
81.767929 0.75301629 251.84982 0.52728081 0.098926336 -0.8439126 0.0066585718
85.178841 0.86993194 251.95432 0.48728088 0.070187882 -0.87042004 0.0059242067
78.051399 2.2516234 250.81378 0.5176844 0.10724059 -0.84882414 0.0080786794
79.377464 2.1029747 250.73543 0.52336717 0.10387186 -0.8457526 0.0082683153
80.477112 2.0702491 251.26193 0.51596522 0.097431414 -0.85105056 0.0081480127
81.653481 2.0719209 251.67336 0.50212044 0.089446194 -0.86015964 0.007282841
79.365799 3.6838994 250.79404 0.47843704 0.072693646 -0.87510777 0.0083891442
80.545395 3.4756823 251.30794 0.4796474 0.073627695 -0.87436676 0.0087494934
81.602562 3.5622196 251.68208 0.46213356 0.063662075 -0.88452232 0.0083786929
84.746948 3.5811603 251.57275 0.42549551 0.04805753 -0.90368354 0.006935752
79.282806 4.9093256 250.93275 0.43161881 0.031983413 -0.9014889 0.0078614848
80.50444 4.870769 251.30646 0.42849493 0.033040017 -0.90293992 0.0079718707
81.513924 4.81566 251.69861 0.41700083 0.031208953 -0.90837008 0.0075166021
83.792259 4.7843881 251.85432 0.41124156 0.036381483 -0.9108001 0.0077274074
84.711769 4.6717324 251.48956 0.40555498 0.037659209 -0.91329455 0.0064359251
77.695297 6.4663835 250.75058 0.41053802 -0.0078676604 -0.91180956 0.011178046
79.121361 6.2751532 251.09453 0.41183934 0.00016789367 -0.91125643 0.0099093746
80.478752 6.3285418 251.5173 0.40769559 0.0029962186 -0.913113 0.008928271
81.458725 5.9424553 251.73196 0.41053444 0.014102997 -0.91173601 0.0092460383
78.067055 7.799376 250.85269 0.39995572 -0.029195737 -0.91606933 0.012856903
79.134857 7.6733193 251.20277 0.39811733 -0.025757244 -0.91697288 0.011169493
80.336014 7.6385412 251.59039 0.39872694 -0.020323714 -0.91684455 0.010527904
77.915688 9.0084438 250.776 0.39995649 -0.037056025 -0.91578466 0.014450885
79.069275 9.1174145 251.15106 0.39720851 -0.036278781 -0.91701102 0.013710941
80.161385 9.026866 251.76498 0.39549085 -0.034981519 -0.91780347 0.013274296
78.133965 10.300008 250.82323 0.39891195 -0.047016185 -0.91578311 0.01519293
79.074844 10.536726 251.04636 0.39631206 -0.046830632 -0.91692072 0.015651513
80.452095 10.45449 251.7057 0.39599741 -0.044309467 -0.91718197 0.016110228
81.216911 10.764914 251.76883 0.39560273 -0.046267062 -0.91725564 0.016907834
77.912735 11.643372 250.62933 0.41938192 -0.065722942 -0.90542775 0.014866023
79.291344 11.887855 250.8925 0.39740041 -0.064059898 -0.91540664 0.016044656
80.486649 11.934429 251.44952 0.39060444 -0.062385738 -0.91844231 0.017481335
81.453568 11.701645 251.74509 0.39000082 -0.058484871 -0.91895533 0.018018175
78.911842 12.608893 250.73383 0.41388911 -0.078073427 -0.90697318 0.013935803
80.489975 13.172263 250.96307 0.39791179 -0.087868862 -0.91320598 0.016691823
81.388519 12.728774 251.37094 0.3880105 -0.076484345 -0.91847587 0.01945281
-24.025309 -97.252457 252.50813 0.24346472 0.27313656 -0.93065637 0.018203044
-23.64872 -97.258652 252.33521 0.23863222 0.27169001 -0.93232995 0.017971355
-25.803589 -95.43351 252.04146 0.25863132 0.27745548 -0.92527205 0.012088087
-24.421642 -95.788094 252.56763 0.2424532 0.26719213 -0.93264395 0.012918092
-23.488594 -95.848747 252.44696 0.23115633 0.26235792 -0.93687522 0.015167533
-26.688467 -93.856026 252.00139 0.2564621 0.2757208 -0.92639369 0.0096207969
-25.78989 -94.419731 252.22134 0.25274462 0.27126035 -0.92872924 0.011590232
-24.610689 -94.494568 252.5907 0.23828329 0.2626316 -0.93501109 0.011056493
-23.398493 -94.478699 252.26714 0.22417992 0.25656012 -0.94017035 0.012637952
-28.826729 -93.213875 252.06049 0.27796552 0.27601838 -0.92008102 0.0014592658
-27.055063 -92.963272 252.38057 0.25257713 0.26698563 -0.93001264 0.0075029284
-25.930014 -93.035751 252.58199 0.24456717 0.2595844 -0.93423915 0.0086607439
-24.605034 -93.156128 252.28537 0.23218428 0.25507826 -0.93862963 0.010594102
-23.46067 -93.311279 252.19438 0.21864718 0.24788718 -0.94379306 0.013211014
-27.171715 -91.702423 252.39198 0.2454541 0.25428897 -0.93546218 0.0070874458
-25.901672 -91.641228 252.62706 0.23475836 0.2454685 -0.94054973 0.0085928384
-24.789753 -91.818428 252.26619 0.22399069 0.24346438 -0.94369131 0.01118583
-27.058649 -90.529282 252.26347 0.23888384 0.2401527 -0.94088322 0.010226947
-25.894295 -90.38295 252.4015 0.22425091 0.23117597 -0.94671494 0.010134979
-25.087145 -90.766747 252.05185 0.21869372 0.23280011 -0.94761658 0.011109869
8.1446133 -82.737137 252.00771 0.12094401 0.4399949 -0.88981855 0.014063701
2.6021247 -81.425766 252.10239 0.287873 0.42059043 -0.86036783 0.012129745
3.600167 -81.518478 252.3486 0.255283 0.42257422 -0.86963308 0.012791532
4.9408736 -81.707794 252.48372 0.21358258 0.42798319 -0.87818724 0.013086786
6.2583876 -81.837593 252.63617 0.17244412 0.429113 -0.88663691 0.012213329
7.7058125 -81.898613 252.79164 0.12818161 0.42218813 -0.89740002 0.01160736
9.1100149 -82.064209 252.73438 0.094782092 0.4191353 -0.90296292 0.015251834
10.477505 -81.96991 252.83418 0.066710241 0.41222829 -0.90863502 0.014929013
11.864174 -81.94313 252.77914 0.040312842 0.41288111 -0.90989238 0.015032966
13.266475 -81.82412 252.82924 0.014133529 0.415521 -0.90947378 0.016291577
14.667173 -81.489632 252.91626 -0.010112305 0.41396579 -0.9102363 0.019392492
15.572222 -81.372414 252.5813 -0.030425411 0.41595677 -0.90887529 0.020095361
0.987284 -80.143539 252.24629 0.33762875 0.40259612 -0.85083675 0.013476515
2.178092 -80.515022 252.56239 0.29895642 0.40521258 -0.86396056 0.012515268
3.4598274 -80.620842 252.89404 0.25796503 0.40524641 -0.87705725 0.012349927
4.7884479 -80.756973 253.19327 0.21589045 0.40778199 -0.88718951 0.012503715
6.1228499 -80.974068 253.30418 0.1730693 0.4116511 -0.89475715 0.01148891
7.1469469 -81.099014 253.33989 0.13997047 0.40900522 -0.90173334 0.01002089
10.547493 -81.146347 253.35841 0.069331951 0.4016811 -0.91315138 0.016441161
13.492362 -81.174973 253.31161 0.015581404 0.40722367 -0.91319555 0.017519768
14.850224 -81.063774 253.19087 -0.011349787 0.4093942 -0.912287 0.020965898
15.98215 -80.541718 252.9846 -0.034479298 0.40290952 -0.91459006 0.021420714
-1.650141 -78.690445 252.07324 0.41526115 0.38232723 -0.8254599 0.011942726
-0.52006918 -78.933548 252.2868 0.38182315 0.38618645 -0.83968514 0.010351997
0.75778431 -79.076096 252.78851 0.34149301 0.38614038 -0.85690033 0.012382584
2.0590489 -79.225166 253.1358 0.29980609 0.38374734 -0.87341529 0.012040326
3.4842334 -79.627472 253.28856 0.2567476 0.38918695 -0.88465482 0.011594525
16.502729 -79.462502 253.20895 -0.042238049 0.38675767 -0.92121357 0.023042789
16.97204 -78.97097 252.82146 -0.05411179 0.3837015 -0.92187041 0.024658566
-2.8449969 -77.250122 252.03505 0.45849618 0.35313073 -0.81552434 0.015838834
-2.0003889 -77.461121 252.24741 0.43029755 0.36087784 -0.82741231 0.013815923
-0.74815977 -77.737076 252.75699 0.38773665 0.36802709 -0.84511316 0.010939286
0.4796381 -77.883972 253.14954 0.34765217 0.36884117 -0.86202914 0.010933559
16.964214 -78.001297 252.96245 -0.053031895 0.37397608 -0.9259209 0.024686448
-2.9820852 -76.031235 252.25009 0.46379986 0.33314666 -0.82091594 0.014663902
-2.0934787 -76.360641 252.65286 0.43426391 0.33951384 -0.83435315 0.013410632
-0.84135509 -76.315475 253.14755 0.39293155 0.34124362 -0.85390723 0.010699622
0.17352535 -76.883179 253.14876 0.35921714 0.35422066 -0.86341804 0.0099773621
-3.1555979 -74.896347 252.28624 0.47381642 0.31077263 -0.82396501 0.013097597
-2.1214976 -74.895752 252.81265 0.4403502 0.31177193 -0.84195602 0.012373922
-1.1444199 -74.898499 253.20615 0.40699476 0.31324834 -0.8580389 0.010442851
50.28513 -74.699806 253.32686 -0.14175408 0.10003207 -0.98483467 0.025851065
50.625694 -74.666 253.14282 -0.14761238 0.10611894 -0.98333585 0.027727999
-3.2771578 -74.003487 252.12231 0.48228845 0.29407865 -0.82517612 0.01128786
-2.1015327 -73.704826 252.38979 0.44967431 0.28712246 -0.8457858 0.011358193
-0.67312807 -73.727905 252.90277 0.40179607 0.28991333 -0.86862552 0.010415215
0.28670648 -73.532608 252.94156 0.37013742 0.28460717 -0.88430595 0.0085031604
50.562298 -62.221149 252.92116 -0.10526767 -0.24601245 -0.9635334 0.0093276426
41.044655 -61.090919 253.18819 -0.0080229659 -0.2810888 -0.95964825 0.011353649
50.233269 -61.342831 253.28917 -0.095282555 -0.26434192 -0.95971072 0.0073977681
41.088211 -59.44928 253.11926 -0.01085603 -0.3020553 -0.95322865 0.011372778
47.501823 -59.235012 253.27342 -0.063815981 -0.29665017 -0.95285165 0.010813835
48.262852 -59.726116 253.29086 -0.068391919 -0.28863764 -0.95499265 0.007120165
40.442528 -58.02462 252.50151 0.010503054 -0.32706484 -0.94494355 0.013032932
41.215923 -58.032898 253.02618 -0.0057082968 -0.32163706 -0.94684583 0.013072673
42.974934 -57.884998 253.3092 -0.030218942 -0.31579497 -0.94834608 0.011327851
44.184307 -57.773785 253.32448 -0.039215803 -0.3157562 -0.94802964 0.011657243
45.55949 -58.051922 253.31218 -0.049347736 -0.31175146 -0.94888133 0.011832424
46.923969 -58.046921 253.10065 -0.059610389 -0.31478262 -0.94729006 0.012134099
48.018913 -58.314411 252.99313 -0.067474522 -0.31417271 -0.94696498 0.011665734
40.475773 -57.223675 252.49164 0.010734746 -0.33613601 -0.94175231 0.012135481
41.349312 -56.763653 252.61418 -0.0020100041 -0.33682996 -0.94156337 0.011748315
42.736973 -56.569218 252.89436 -0.02564897 -0.33293626 -0.94260049 0.010007579
43.976189 -56.782532 253.03752 -0.037784256 -0.32932407 -0.94346058 0.010884482
45.578014 -56.987732 252.735 -0.048987739 -0.32866406 -0.94317549 0.012633986
46.772308 -56.957603 252.43217 -0.059830774 -0.33271393 -0.94112784 0.013388338
41.400753 -55.793137 252.25594 0.0026892275 -0.34901059 -0.93711495 0.012677908
42.527866 -55.662472 252.36438 -0.01663647 -0.34723765 -0.93762958 0.010108952
43.531326 -55.638947 252.41434 -0.033065178 -0.34762099 -0.93705195 0.010820922
83.761635 -10.091808 252.35196 0.60130757 0.16620974 -0.78153914 0.012966447
84.559212 -10.274473 252.94116 0.60757744 0.15654576 -0.77868038 0.012967372
83.537552 -8.9049482 252.32335 0.6056304 0.14247747 -0.78288698 0.011321047
84.738235 -9.1776133 252.95595 0.61316574 0.13413803 -0.77848226 0.011709237
85.487152 -8.6911688 253.2193 0.61521703 0.12286741 -0.77872437 0.010873226
83.475906 -7.7075858 252.4066 0.60619795 0.12506834 -0.78541833 0.0086351177
84.637718 -7.7409515 252.95743 0.61343998 0.11846089 -0.78080624 0.0091059813
85.588493 -7.5730143 253.29967 0.61285019 0.11307078 -0.78206748 0.0097191846
83.423615 -6.3893123 252.44923 0.60400945 0.11255135 -0.78898972 0.0070114667
84.497276 -6.0900779 252.93057 0.60720593 0.10460555 -0.78762847 0.007500405
82.091057 -4.5581851 252.06029 0.59227216 0.10060243 -0.79943275 0.0059488541
83.364883 -4.9868355 252.48769 0.59888357 0.098553866 -0.79474884 0.0068349792
84.486618 -4.9046316 253.02769 0.59853894 0.091004632 -0.7959078 0.0077008591
87.023544 -5.17237 253.28755 0.57593071 0.078197151 -0.81374997 0.0087463818
82.296432 -3.2757821 252.12027 0.58781451 0.098592535 -0.80296558 0.0057996614
83.228287 -3.4927747 252.35635 0.58964491 0.095017411 -0.80205393 0.0067439615
84.43679 -3.6036074 252.97095 0.58893484 0.087174535 -0.80346519 0.008796229
86.075592 -3.3516858 253.29509 0.56447524 0.070621736 -0.82242346 0.0086382749
82.212852 -1.8830408 252.15193 0.57981402 0.10080338 -0.80848897 0.0072744265
83.354111 -2.1148725 252.6429 0.57708633 0.093250215 -0.81134194 0.0078379493
84.559486 -2.0682907 253.17934 0.56449288 0.082614645 -0.82129323 0.0084041869
85.796959 -2.2522202 252.94521 0.55824387 0.072557747 -0.82649809 0.0093721719
82.303619 -0.70839041 252.28302 0.56070215 0.099891394 -0.82197005 0.0076775118
83.341515 -0.70103419 252.67101 0.55698216 0.092585884 -0.8253476 0.0087342747
84.748772 -0.68467665 252.98073 0.54438573 0.07987529 -0.8350234 0.0093576303
85.635201 -1.095323 252.40945 0.54284734 0.074494496 -0.83652097 0.008484656
82.381493 0.63195401 252.23566 0.52378106 0.094319992 -0.84661502 0.0065779868
83.232719 0.61909449 252.80547 0.51466912 0.085824259 -0.8530826 0.0066790055
84.559158 0.6920113 252.65417 0.50184143 0.075009741 -0.86170107 0.0075870687
82.34304 2.2389066 252.3161 0.48268348 0.07896737 -0.87222749 0.0065237172
83.32473 2.1185987 252.78128 0.46258098 0.067274824 -0.88402086 0.0056279814
84.368759 1.8520267 252.44458 0.45800921 0.06280876 -0.88672578 0.0050096223
82.280899 3.4384964 252.38361 0.44502598 0.056325871 -0.89374453 0.0074159284
83.257492 3.4886587 252.52173 0.42928031 0.049283575 -0.90182561 0.0066600265
84.247337 3.4067364 252.14388 0.42886251 0.049019344 -0.90203881 0.0068081217
82.145844 4.9461412 252.4628 0.41062889 0.030757224 -0.91128367 0.0075473776
83.11541 4.8993826 252.34398 0.4110328 0.033689748 -0.91099793 0.0080364831
84.535416 4.6329565 252.15167 0.40482754 0.037588477 -0.91362017 0.005950924
81.913635 6.3768492 252.61519 0.40094477 0.0095486939 -0.91605252 0.0089071561
83.261917 6.3391705 252.56465 0.39572734 0.014894925 -0.91824722 0.0095414128
84.148415 6.1597981 252.06244 0.3958768 0.020183573 -0.91808182 0.010360401
80.911789 7.9598322 252.31284 0.39749676 -0.020763259 -0.91736865 0.011216652
81.842514 7.7033968 252.79634 0.39386544 -0.011202424 -0.91909975 0.010092244
83.02578 7.6716628 252.696 0.38904151 -0.0063718692 -0.92119819 0.0098938309
80.734428 9.2515125 252.23398 0.39383772 -0.03603036 -0.9184736 0.013199253
81.930809 9.0942736 252.51483 0.39448553 -0.031837564 -0.91835052 0.013481699
82.893364 8.660202 252.59894 0.39239222 -0.020650946 -0.91956615 0.012539796
80.417534 10.740991 252.02846 0.39445439 -0.047682814 -0.91767758 0.01667889
81.720222 10.370879 252.28477 0.39201328 -0.044788502 -0.91886866 0.015346951
81.798073 11.421741 252.3168 0.38714492 -0.056526504 -0.92028451 0.01677404
9.2075529 -81.400642 253.54001 0.091119848 0.40445265 -0.91000837 0.015115475
10.683104 -81.4804 253.44974 0.065015458 0.40230212 -0.91319555 0.013921375
12.075254 -81.203613 253.54912 0.041541737 0.40024206 -0.91546738 0.013916254
13.208724 -81.318581 253.52681 0.019503111 0.40752015 -0.91298795 0.017471898
3.5867133 -79.881012 253.4502 0.25194278 0.39215687 -0.88472468 0.012263897
4.9587808 -80.207222 253.59474 0.20897456 0.39754409 -0.89346981 0.01192384
6.2851114 -80.326317 253.63756 0.16666111 0.40164715 -0.90050185 0.012078938
7.7699742 -80.537735 253.77148 0.12193542 0.39752242 -0.90945464 0.013147555
9.0967808 -80.576981 253.91869 0.094674483 0.39563674 -0.9135142 0.013881238
10.515368 -80.596085 253.88863 0.070939966 0.39689317 -0.91511935 0.015385863
11.92364 -80.562752 253.89377 0.046856519 0.3950468 -0.91746521 0.015991066
13.28899 -80.501259 253.89195 0.022904923 0.39941338 -0.91648477 0.019623119
14.657208 -80.385483 253.80128 -0.0036056847 0.40112036 -0.91601825 0.022608288
15.588504 -80.231094 253.57133 -0.024386337 0.39853406 -0.91682929 0.023028083
1.3415034 -78.525063 253.41548 0.31932107 0.37461948 -0.8704564 0.012032988
2.3309045 -78.718674 253.53456 0.29011199 0.37550241 -0.88024592 0.012473727
3.4912574 -79.033974 253.77954 0.25407246 0.37996367 -0.88942385 0.012196091
4.9073515 -79.059494 254.06448 0.20890363 0.38223544 -0.90014178 0.012093963
6.2496443 -79.097832 254.32375 0.16445233 0.38219225 -0.90933186 0.012567561
7.7118073 -79.14399 254.46802 0.12158573 0.37996763 -0.91697407 0.012495284
9.0754404 -79.278336 254.56442 0.097039089 0.3828699 -0.91869152 0.013237813
10.499182 -79.405838 254.46475 0.072950661 0.38794425 -0.91879135 0.015825288
11.924645 -79.359993 254.50064 0.04959223 0.38552329 -0.92136443 0.018086845
13.338634 -79.288254 254.46202 0.026342014 0.38616186 -0.92205483 0.020722814
14.713017 -79.191795 254.32927 -5.3091906e-05 0.3830182 -0.92374068 0.020343952
15.933984 -79.060944 253.86049 -0.028515119 0.38227683 -0.92360783 0.021460094
1.0745715 -77.527344 253.63237 0.32677758 0.36044306 -0.87366885 0.01093447
2.0944753 -77.699074 253.95198 0.2954576 0.36075878 -0.88462305 0.011131636
3.4349422 -77.745903 254.23033 0.25435576 0.36275655 -0.89649922 0.012369339
4.922946 -77.750465 254.4404 0.2077588 0.36562693 -0.90727788 0.012368076
5.8156824 -77.739388 254.69907 0.17752033 0.36328906 -0.91460788 0.012732021
7.5755157 -78.237167 254.7202 0.12404476 0.37214085 -0.91985005 0.012474688
13.60103 -78.316803 254.73911 0.022679092 0.37751871 -0.92572427 0.022604315
15.168056 -77.904526 254.67607 -0.0089291176 0.36771634 -0.9298951 0.018123077
16.028618 -77.701309 254.39526 -0.029821713 0.36625385 -0.93003702 0.021432674
16.844379 -77.487541 253.5477 -0.048439037 0.3647075 -0.92986137 0.022189625
-0.2197641 -75.941086 253.5719 0.36993435 0.3351227 -0.86651105 0.0099048121
0.76073664 -76.32608 253.73903 0.33764353 0.34095398 -0.87735242 0.0098018302
2.1449175 -76.261147 254.26831 0.29466227 0.34072241 -0.89279473 0.01187994
3.2558796 -76.394035 254.617 0.25963905 0.34354731 -0.90253133 0.013310505
4.7887416 -76.637001 254.75145 0.21137036 0.34906662 -0.91294855 0.011784624
16.524298 -76.49762 254.58618 -0.043118905 0.35136369 -0.93524563 0.019617682
16.827333 -76.780975 253.94836 -0.048351515 0.35656258 -0.93301946 0.021400578
-0.49690625 -74.88813 253.62222 0.38183466 0.31163487 -0.87010688 0.0096715884
0.74772006 -75.034126 253.96034 0.34022143 0.31494549 -0.88603532 0.0093676634
2.0781734 -74.850288 254.27657 0.29993996 0.31272218 -0.90124404 0.010842921
3.2581797 -74.856346 254.59735 0.26343456 0.31499693 -0.91179997 0.012514994
43.239578 -74.572449 254.66022 -0.053461172 0.082686134 -0.99514067 0.01932599
43.976173 -75.032143 254.5473 -0.062014632 0.095526248 -0.99349332 0.021531058
45.574986 -75.098007 254.51575 -0.084615663 0.089003734 -0.99243057 0.022585651
46.877625 -75.1007 254.21825 -0.097107157 0.089710586 -0.99122262 0.022834331
48.257168 -74.688049 254.41136 -0.11127328 0.076762177 -0.99082083 0.025206832
49.673439 -74.503693 254.08458 -0.13109414 0.082763873 -0.98790914 0.027751537
50.745762 -74.364883 254.12857 -0.14332047 0.0903681 -0.98554188 0.0289864
-0.39866811 -74.125153 253.5598 0.3826122 0.29643705 -0.87506169 0.0099127181
0.78221339 -74.053566 253.65181 0.34567794 0.29511017 -0.8907395 0.0094490619
1.4495137 -74.019806 253.70306 0.3264181 0.29819557 -0.89695638 0.011780068
4.0232296 -74.032501 254.37393 0.24410041 0.29660034 -0.92327857 0.011417612
4.9642444 -73.867233 254.28123 0.21452551 0.29237768 -0.93193036 0.012320157
6.3867068 -73.852295 254.45105 0.16446221 0.29831734 -0.94019097 0.0093194274
7.28263 -73.75322 254.3544 0.13635194 0.30250451 -0.94334471 0.0079256026
9.3546028 -73.593994 254.60431 0.078228563 0.31491098 -0.94589192 0.0085161543
11.611771 -73.226532 254.59958 0.03270293 0.31833065 -0.94741553 0.016579611
42.709797 -72.943268 254.45775 -0.049049485 0.03426452 -0.99820846 0.019356281
49.803581 -73.67041 254.49702 -0.12712708 0.051890876 -0.99052823 0.028377486
50.889885 -73.624329 254.59157 -0.14211476 0.063407369 -0.98781729 0.028251221
42.864502 -72.500412 254.59969 -0.0521084 0.017734623 -0.99848396 0.01902133
49.842693 -72.784409 254.79703 -0.12420946 0.02291481 -0.99199146 0.02224599
50.752815 -66.135529 254.78482 -0.13567701 -0.12811667 -0.98243469 0.016730431
41.774971 -65.020004 254.51086 -0.0094572278 -0.20325227 -0.97908074 0.017150179
42.075485 -64.445953 254.7733 -0.014903021 -0.2187613 -0.97566468 0.017821429
48.941177 -64.681244 254.76666 -0.098093174 -0.17043789 -0.9804737 0.012188176
49.558743 -64.848335 254.77202 -0.11171183 -0.16397192 -0.98011929 0.011346683
50.854042 -65.225388 254.3542 -0.14159369 -0.15501124 -0.97771305 0.012308592
41.779945 -63.485523 254.4687 -0.012243525 -0.23760293 -0.97128522 0.013290154
42.095318 -63.968788 254.76921 -0.015718725 -0.2276191 -0.97362345 0.016696753
48.624592 -63.525188 254.58682 -0.086270228 -0.21033472 -0.97381562 0.0094409939
49.766243 -63.638344 254.50125 -0.10466891 -0.20444739 -0.97326547 0.010465665
50.615726 -64.092201 254.1723 -0.13130943 -0.19285867 -0.97240084 0.01167415
41.649017 -62.166477 254.23291 -0.013977179 -0.2591278 -0.96574187 0.010399668
42.173809 -62.20919 254.7141 -0.020499453 -0.25476435 -0.96678591 0.0097907884
44.691391 -61.613129 254.76859 -0.04476238 -0.25483939 -0.96594685 0.0096369479
45.927208 -61.946926 254.77715 -0.055084411 -0.24726434 -0.96738106 0.010653912
47.094341 -61.95084 254.7368 -0.063603744 -0.24661243 -0.9670248 0.011502354
48.359528 -62.230133 254.39796 -0.075999573 -0.24279237 -0.96709663 0.012403073
49.594025 -62.331341 254.17859 -0.091823675 -0.24064502 -0.96626002 0.011520424
50.588043 -62.306561 253.58911 -0.10861433 -0.24069671 -0.964504 0.010430763
41.468319 -60.889839 254.09872 -0.013726474 -0.27929425 -0.96010745 0.010613482
42.681583 -60.721081 254.54013 -0.027245326 -0.27509797 -0.96103013 0.0093691302
44.011066 -60.702518 254.5273 -0.038191553 -0.27132735 -0.96172911 0.0094788643
45.550434 -60.803982 254.52579 -0.051082801 -0.26720062 -0.962286 0.011299098
46.945248 -60.896786 254.38698 -0.061960977 -0.26606572 -0.96196145 0.010916851
48.425934 -60.913944 253.86465 -0.072184674 -0.2691707 -0.96038353 0.010276996
49.450806 -60.975819 253.88818 -0.082128689 -0.26929775 -0.95954865 0.0095678382
50.497261 -61.418194 253.61232 -0.1020375 -0.26161167 -0.95976436 0.0069148932
41.361225 -59.588478 253.7205 -0.0158916 -0.29858252 -0.95425147 0.010929498
42.643608 -59.421223 254.16019 -0.028188637 -0.29591298 -0.95479894 0.01153922
44.136593 -59.39621 254.10414 -0.040195882 -0.29188228 -0.95560926 0.010636845
45.536095 -59.400299 253.97217 -0.049007714 -0.29012337 -0.9557336 0.011140112
46.799927 -59.523228 253.87468 -0.057538562 -0.28804001 -0.95588821 0.010767367
48.37579 -59.588802 253.64352 -0.069608442 -0.29042947 -0.95436126 0.0079837553
41.64819 -58.333939 253.56725 -0.016957248 -0.31446141 -0.94911879 0.013352555
42.582634 -58.053406 253.69214 -0.02680211 -0.31403351 -0.94903356 0.012115654
44.069805 -58.022007 253.67085 -0.038154967 -0.31072566 -0.9497335 0.010892136
45.376217 -58.219231 253.64572 -0.047898833 -0.3073163 -0.95040119 0.01115422
46.604084 -58.458439 253.76149 -0.056570582 -0.30538696 -0.9505465 0.011620263
85.100777 -10.499453 253.49574 0.61183834 0.14941187 -0.77674317 0.012976352
85.869385 -10.116026 253.77751 0.61111307 0.13347276 -0.78020883 0.012542933
