# .PCD v0.7 - Point Cloud Data file format
VERSION 0.7
FIELDS x y z normal_x normal_y normal_z curvature
SIZE 4 4 4 4 4 4 4
TYPE F F F F F F F
COUNT 1 1 1 1 1 1 1
WIDTH 608
HEIGHT 1
VIEWPOINT 0 0 0 1 0 0 0
POINTS 608
DATA ascii
-8.8367882 -29.289377 229.86301 -0.035447124 0.21278182 -0.97645652 0.0043190429
-6.6030841 -29.157166 229.69987 -0.03733385 0.20933831 -0.97713029 0.005373131
-5.2212753 -29.304575 229.75008 -0.043246154 0.20826988 -0.97711486 0.0045374371
-3.0273414 -29.018681 229.8331 -0.036563132 0.20315771 -0.97846311 0.0031765664
-0.82444537 -29.026506 229.78569 -0.026121924 0.19879583 -0.97969276 0.005295916
0.4282667 -28.980278 229.89674 -0.019680699 0.19476895 -0.98065168 0.0067056939
27.253036 -28.771786 228.26126 -0.021422645 0.23913586 -0.9707498 0.0032848471
28.836473 -28.787476 228.45053 -0.023516405 0.23737912 -0.97113234 0.0039014653
30.919172 -28.924162 228.31883 -0.0063918671 0.23595797 -0.97174227 0.0049657533
33.38913 -28.880774 228.34575 0.073115878 0.22842517 -0.97081202 0.0062826476
34.942326 -28.636879 228.2037 0.1218688 0.22211365 -0.9673745 0.006332756
36.432957 -28.626947 228.38852 0.15916052 0.21813829 -0.96285182 0.0067051863
41.107475 -29.024122 229.32532 0.25423887 0.2612175 -0.93119705 0.0080509894
49.385429 -29.94775 229.96381 0.23726319 0.38397956 -0.89233732 0.013720746
-15.480782 -27.691776 229.91136 0.011012935 0.2051484 -0.97866893 0.0054562702
-5.8798885 -27.253799 229.80846 -0.041295812 0.20498297 -0.97789401 0.0034612194
-2.9837372 -27.248123 229.89876 -0.038487285 0.20453028 -0.97810334 0.0047128741
-0.65412951 -27.460136 229.94089 -0.029786687 0.19776905 -0.97979599 0.0089105042
0.66157043 -27.268749 229.89478 -0.025322301 0.19228069 -0.98101324 0.0095151756
25.269384 -26.674646 228.58008 -0.025299713 0.23586765 -0.97145575 0.0033764862
27.089851 -26.934662 228.72186 -0.02682648 0.23311535 -0.97207904 0.0035511111
29.043644 -26.935204 228.66069 -0.028423784 0.23107465 -0.97252071 0.004729202
30.974953 -26.992315 228.59785 -0.0090587661 0.23254013 -0.97254461 0.0068594427
32.916817 -26.951788 228.49283 0.052584913 0.23355141 -0.97092146 0.0074805245
34.94949 -27.020441 228.56953 0.1205404 0.22922772 -0.96588022 0.0080560893
36.393009 -26.970638 228.33093 0.15779822 0.22455612 -0.96159983 0.0072502624
39.793983 -26.862951 229.646 0.24059254 0.25640818 -0.93614638 0.0071974751
40.693947 -27.138041 229.71068 0.25574276 0.26502481 -0.92970824 0.0067720888
-0.75481176 -24.489775 229.8775 -0.036421068 0.19889922 -0.979343 0.004174883
1.3040587 -24.51442 229.69258 -0.032405712 0.19007181 -0.98123527 0.010555674
2.7470715 -24.610224 229.79759 -0.027762547 0.17310548 -0.98451185 0.011308727
4.1987295 -24.375818 229.91299 -0.02304217 0.13444103 -0.99065369 0.011131555
17.824574 -24.390139 229.52274 -0.037030976 0.21218804 -0.97652704 0.013743265
19.024815 -24.404846 229.59694 -0.037271604 0.22274807 -0.97416335 0.010970154
21.134359 -24.390469 229.2063 -0.029594429 0.23292421 -0.97204447 0.0059876018
22.979784 -24.836763 228.93216 -0.02411497 0.23588701 -0.97148126 0.0054758899
25.054327 -25.063602 229.22514 -0.026479324 0.22978728 -0.9728806 0.0046740887
27.07926 -25.033819 229.2524 -0.029170282 0.22675711 -0.97351444 0.0040787007
29.035072 -25.052029 229.13875 -0.029161157 0.2273131 -0.97338504 0.0050297389
31.002567 -25.028601 228.98608 -0.012371763 0.23134834 -0.97279227 0.006803317
32.969009 -25.010057 228.8526 0.043889686 0.23594628 -0.97077447 0.0071557867
34.872684 -24.981663 229.12747 0.1092618 0.23525272 -0.96577322 0.010286613
36.523342 -25.078547 228.53702 0.16031718 0.23360573 -0.95902389 0.0094200205
39.83564 -25.624964 229.69855 0.24513601 0.2655541 -0.93241048 0.0071657063
40.857681 -24.997126 229.76166 0.26560897 0.27863553 -0.92293775 0.0059529548
-2.2095947 -23.398083 229.57704 -0.043369085 0.20458762 -0.97788703 0.0037646655
-1.9072767 -23.7717 229.71939 -0.041809957 0.20262781 -0.97836286 0.0032040793
1.7228217 -23.866327 228.69852 -0.030796574 0.18877316 -0.9815377 0.012113491
2.97296 -23.858036 229.25586 -0.029519198 0.16469528 -0.98590267 0.011577609
15.26285 -22.303486 229.91585 -0.045343511 0.15372664 -0.98707253 0.01375555
17.266735 -23.04701 229.78966 -0.036017738 0.18821052 -0.98146808 0.013777036
18.869474 -23.305422 229.69916 -0.036516853 0.21056831 -0.97689694 0.01058165
21.01915 -23.168703 229.55202 -0.032860499 0.22113211 -0.97469014 0.0064687543
22.703148 -22.96213 229.70412 -0.029368935 0.22290525 -0.9743976 0.0039166021
25.282194 -23.033319 229.73311 -0.029192802 0.22300909 -0.97437912 0.0019268113
27.014832 -23.123173 229.63684 -0.029602328 0.22375077 -0.97419679 0.0031050143
29.05595 -23.021484 229.38846 -0.029824866 0.22502676 -0.97389597 0.0054686093
30.986481 -23.061607 229.50398 -0.020607326 0.22626205 -0.97384846 0.005741653
33.010296 -23.000132 229.27913 0.024844421 0.23074153 -0.97269785 0.0062534348
34.974804 -22.915394 229.39366 0.093705319 0.23524727 -0.96740788 0.0089888843
36.265392 -23.281874 228.69589 0.14673151 0.24126922 -0.95930129 0.010524021
11.739348 -21.254337 229.84894 -0.0328895 0.012386222 -0.99938226 0.0083769634
12.982965 -20.862732 229.84488 -0.042353779 0.067480892 -0.99682111 0.010146044
15.2455 -21.138248 229.87334 -0.040286329 0.14065911 -0.98923808 0.011303299
16.56908 -21.828133 229.97021 -0.035484154 0.17158917 -0.98452932 0.012994503
18.521191 -21.671089 229.94664 -0.0331253 0.191606 -0.9809128 0.010242585
20.9377 -21.670511 229.86963 -0.033889107 0.21022908 -0.97706455 0.0068535474
23.704599 -21.724327 229.98499 -0.030679299 0.21538503 -0.97604716 0.0022672932
25.345047 -21.38809 229.9272 -0.030758942 0.21526638 -0.97607082 0.00055166025
26.795115 -21.134583 229.81058 -0.031404711 0.2153309 -0.97603601 0.0015424527
29.006676 -21.310806 229.63116 -0.032722201 0.21860184 -0.97526532 0.0048951129
30.865374 -21.07732 229.7957 -0.032265797 0.21651538 -0.97574592 0.0051473612
32.87278 -21.196342 229.60678 -0.0053033032 0.21640866 -0.97628844 0.0050048912
34.658871 -21.061016 229.56856 0.055584546 0.22742298 -0.97220838 0.0085761091
13.636904 -19.734747 229.11287 -0.038978323 0.087721631 -0.99538219 0.010765295
15.081691 -19.445648 229.37508 -0.027772581 0.11994665 -0.99239182 0.0093930429
17.020016 -18.903063 229.64658 -0.025769867 0.15041713 -0.98828667 0.007630744
18.404446 -18.439636 229.74686 -0.024833929 0.1579534 -0.98713422 0.0064501381
25.109318 -19.335457 229.76537 -0.031572003 0.2062155 -0.97799718 0.0022625071
27.683624 -19.718975 229.86905 -0.034024172 0.20907557 -0.97730744 0.0024943308
28.984957 -19.725201 229.85336 -0.034672897 0.21102375 -0.97686577 0.0049791648
31.159494 -19.622292 229.821 -0.040187009 0.20713811 -0.97748595 0.0057797357
33.277954 -19.089369 229.74004 -0.032799575 0.19637808 -0.97997946 0.004724049
34.195469 -19.74659 229.77817 0.010380757 0.21119472 -0.97738886 0.0061417809
19.293423 -17.995436 229.93311 -0.02607628 0.16076529 -0.9866482 0.0062583736
20.634399 -17.132057 229.79813 -0.019271677 0.16452758 -0.98618424 0.0053807888
30.939468 -17.026499 229.72929 -0.056836415 0.17819084 -0.98235309 0.0042431043
32.368431 -17.766563 229.3288 -0.056711257 0.18375523 -0.98133475 0.0044652293
23.454243 -15.934795 229.62961 -0.020709796 0.17304827 -0.98469561 0.0073814448
75.046097 -170.16061 231.51942 0.52537501 0.36571351 -0.76826733 0.018397534
74.85936 -169.86533 231.7648 0.52910852 0.34953737 -0.77321917 0.019509288
-16.531849 -100.41634 230.12233 -0.079719737 0.27425307 -0.9583475 0.012841105
-14.888595 -100.66347 230.35693 -0.076267041 0.26174709 -0.96211839 0.011919191
-13.3109 -100.96442 230.16043 -0.075623646 0.24766886 -0.96588874 0.0088195307
-20.352465 -98.165367 230.18954 -0.11384258 0.37920552 -0.91828263 0.025680011
-18.931316 -98.685448 230.40111 -0.11813806 0.35051879 -0.92907482 0.023866665
-17.000963 -98.991676 230.47975 -0.10327593 0.32835162 -0.9388926 0.020593058
-14.948125 -99.018738 230.81036 -0.092687607 0.31474519 -0.94463986 0.019192351
-13.419625 -98.943268 230.54729 -0.084401399 0.294994 -0.95176411 0.016177399
-11.824667 -98.722038 230.20358 -0.081670746 0.27356949 -0.95837861 0.014070733
-20.645546 -97.084274 230.47385 -0.13925403 0.40986106 -0.90145558 0.022845253
-18.983841 -96.976273 231.07004 -0.15346368 0.39134505 -0.90735763 0.019364057
-16.984335 -97.012718 231.39719 -0.14582472 0.37289375 -0.91634345 0.018215006
-14.92061 -97.004753 231.17845 -0.13211001 0.35458606 -0.92564338 0.019441321
-13.203612 -96.966812 230.50984 -0.11213301 0.33392775 -0.93590516 0.01723581
-11.74961 -97.077812 230.09093 -0.096359156 0.30924696 -0.94608742 0.014853753
-20.082895 -95.91581 230.84846 -0.16843793 0.41313106 -0.89495891 0.017121293
-18.793848 -95.561859 231.47133 -0.17969283 0.39314476 -0.90174705 0.015335678
-17.026022 -95.172623 231.71677 -0.19285208 0.36991122 -0.908831 0.015101253
-14.992117 -94.928146 231.37854 -0.20006697 0.34912607 -0.91546941 0.016755996
-13.031588 -95.036591 230.73654 -0.18453614 0.3321507 -0.92499858 0.017600587
-11.804832 -94.951866 230.14781 -0.1792427 0.31511575 -0.93197328 0.016177649
-16.303022 -93.601624 231.94705 -0.24717201 0.34666699 -0.90483594 0.015529622
-14.825686 -93.411369 231.5045 -0.25691628 0.33078378 -0.90806168 0.01454666
-12.962966 -93.217255 230.63766 -0.26811352 0.31068489 -0.91191554 0.013407179
-11.608068 -93.506927 230.11603 -0.27229291 0.29425731 -0.91611636 0.012953068
43.126305 -88.165131 230.14627 0.13055748 0.51339281 -0.84816426 0.018741548
-8.5323362 -86.024895 231.99498 -0.38245845 0.20777228 -0.90030897 0.011915813
-7.8931751 -86.017242 231.90709 -0.36846143 0.19274202 -0.90944308 0.010778659
41.909489 -86.533752 230.15479 0.16592208 0.50666136 -0.84602845 0.021681892
43.020897 -86.711555 230.5087 0.16202298 0.50933146 -0.84518039 0.020818394
44.563663 -86.418304 230.36517 0.16057535 0.51062268 -0.84467745 0.020716978
47.709366 -86.104248 230.02362 0.092903718 0.52447337 -0.84634304 0.014264971
-8.1995564 -85.837585 231.8268 -0.37126619 0.19249201 -0.9083547 0.011512038
-7.1241093 -84.835854 231.58115 -0.31013507 0.068836078 -0.94819713 0.0068683685
-5.3737593 -84.326775 231.06708 -0.27642688 0.0081909737 -0.96100003 0.0055820374
41.654289 -84.723793 230.3784 0.16584562 0.51171541 -0.84299618 0.020643666
42.95797 -85.005981 231.16023 0.16026874 0.51607245 -0.84141737 0.019100409
44.99387 -84.987045 231.08521 0.15380003 0.51717889 -0.84194511 0.019568672
46.961258 -84.824257 230.73264 0.086287558 0.5162155 -0.85210091 0.024888085
-8.1129055 -82.316589 231.90976 -0.28311804 0.0031340711 -0.95907998 0.0017203141
-6.9589043 -82.902672 231.57469 -0.27911025 0.0037532179 -0.96025181 0.003506864
-5.0696912 -83.012764 231.24712 -0.27250022 0.0078011444 -0.96212405 0.005539719
-3.2944727 -82.818459 230.85402 -0.26380017 0.013426848 -0.96448392 0.011157664
-1.9944282 -82.316986 230.63722 -0.27694249 0.041240945 -0.96000111 0.012335
41.413826 -82.937164 230.62152 0.18147127 0.5133211 -0.83879054 0.022414979
42.670628 -83.220871 231.57291 0.1761032 0.52000964 -0.83580959 0.020949362
45.473801 -83.598579 231.77396 0.09897355 0.52425116 -0.84579247 0.025887307
46.903702 -83.386971 231.62564 -0.053395573 0.52079397 -0.85201085 0.035731304
-10.896228 -80.14991 231.71797 -0.28721741 0.0035860261 -0.95785868 0.0026983884
-8.6244383 -80.622841 231.92873 -0.27902031 0.0021606141 -0.9602828 0.0018925604
-6.9802094 -81.09317 231.74913 -0.27564007 0.0048814276 -0.96124852 0.0035908539
-4.9840217 -80.939659 231.42967 -0.26737446 0.0094611645 -0.96354622 0.0070042103
-3.058274 -81.01564 230.90659 -0.25847942 0.021678822 -0.96577346 0.012594166
-1.6034176 -80.980652 230.37119 -0.26373556 0.077959709 -0.96143943 0.010235725
7.9764266 -80.083443 230.0923 -0.0054977424 0.55569303 -0.8313694 0.026451301
9.3942976 -80.208961 230.22745 0.00076245068 0.54317361 -0.83961999 0.031272829
10.990179 -80.417519 230.43575 -0.0084620975 0.53865308 -0.84248513 0.030368118
12.740441 -80.413277 230.16032 -0.016727449 0.53337198 -0.84571534 0.027044978
41.072357 -81.501869 230.47847 0.1972281 0.51808792 -0.83227754 0.025090287
-10.65506 -79.555672 231.72417 -0.28254589 0.0011283517 -0.95925307 0.0026571674
-9.6656466 -79.586525 231.81735 -0.27875692 0.0016725882 -0.96036023 0.0024119592
-7.4117608 -79.824631 231.88477 -0.27427405 0.0050924118 -0.96163809 0.0042085829
-5.0263333 -79.911324 231.75548 -0.26558003 0.012676767 -0.96400547 0.0099461181
-3.6163628 -79.972275 231.97586 -0.25621626 0.022893576 -0.96634835 0.011892367
11.267846 -79.928535 230.74158 -0.012742298 0.54180157 -0.84040987 0.032768354
13.1501 -79.804459 230.5294 -0.024571557 0.53509086 -0.844437 0.030163016
14.435223 -79.700066 230.18121 -0.037913188 0.52930611 -0.84758341 0.030305581
51.616898 -76.359566 231.34828 -0.47916704 0.44085601 -0.75897628 0.0093358131
52.703125 -76.279633 231.02437 -0.47765154 0.403644 -0.78033364 0.009820329
51.573109 -75.650055 231.86664 -0.47844571 0.42598248 -0.76787275 0.0097330427
53.137592 -75.52169 231.42252 -0.46753487 0.36198187 -0.80646157 0.011282165
54.976627 -74.991386 231.05467 -0.388192 0.23951858 -0.88990891 0.014485048
56.850063 -74.550499 230.68277 -0.30368838 0.22037049 -0.92693585 0.010098067
58.366562 -74.323402 230.4939 -0.2967585 0.21233913 -0.93104595 0.010267679
55.367348 -73.629349 231.7607 -0.36941907 0.21147883 -0.90487909 0.016195497
57.039429 -73.091072 231.48093 -0.3010591 0.20709729 -0.93084592 0.010522591
58.850552 -72.938957 230.8923 -0.29669052 0.20756301 -0.93214393 0.010160788
60.859188 -72.558861 230.44283 -0.29772484 0.20260845 -0.93290389 0.0077281645
62.770714 -72.019241 230.11356 -0.29929563 0.1846924 -0.93611479 0.0072894022
53.855824 -71.274559 231.79713 -0.40650317 0.22798571 -0.88474727 0.020640351
55.341515 -70.318733 231.81163 -0.3102442 0.20210004 -0.92892629 0.013031399
57.318371 -71.615669 231.88986 -0.29554695 0.20338891 -0.9334265 0.011303334
59.067909 -71.100563 231.48112 -0.29690647 0.20182659 -0.93333411 0.0081414646
60.899513 -70.987968 230.96223 -0.29900196 0.19271033 -0.93459105 0.0075720395
62.805706 -70.85997 230.37207 -0.29951048 0.18047635 -0.93686807 0.0076115122
64.318184 -70.356079 230.1908 -0.30071428 0.17652868 -0.93723446 0.0075514624
27.277912 -69.289131 231.64711 -0.3546952 0.13388607 -0.92534643 0.024155326
29.018913 -68.719994 231.31046 -0.39077216 0.12101687 -0.9124977 0.028603284
30.556742 -68.370544 230.51562 -0.43122524 0.094393432 -0.89729297 0.034452472
55.741375 -69.63578 231.11328 -0.29458615 0.19850442 -0.93478078 0.011839231
56.389282 -68.764572 231.48775 -0.29492807 0.1963699 -0.93512368 0.01245643
59.452953 -68.876175 231.81758 -0.29893455 0.18673731 -0.93582445 0.0070446897
60.958584 -68.958534 231.33179 -0.29957229 0.17866018 -0.93719637 0.0068772398
62.979637 -68.999565 230.65317 -0.29997995 0.17402551 -0.93793774 0.0076637575
64.668976 -68.929192 230.27426 -0.30122805 0.17149369 -0.93800408 0.0077663776
67.132942 -68.474411 230.09491 -0.30785674 0.16948055 -0.93621612 0.0027670942
29.578321 -67.412079 231.74365 -0.40378273 0.069811635 -0.91218734 0.031996448
30.992289 -67.001411 231.10452 -0.44111973 0.057789534 -0.89558572 0.036787711
32.041256 -66.367813 230.64064 -0.46517593 0.047242623 -0.88395679 0.041122481
57.114113 -66.683937 231.57765 -0.30107325 0.18177514 -0.9361158 0.010703354
59.267551 -66.77317 231.72011 -0.30105647 0.16936032 -0.93844658 0.0075992597
61.025547 -66.954613 231.27217 -0.29836881 0.16354883 -0.9403339 0.0063131517
63.09906 -67.018242 230.5168 -0.30037013 0.16113016 -0.94011432 0.0073564928
64.868713 -67.088089 230.18591 -0.3020345 0.15467699 -0.94066471 0.0074144797
31.289677 -65.220818 231.5808 -0.44127381 0.035457164 -0.89667177 0.035451572
32.381413 -64.768616 230.81975 -0.46978572 0.023118423 -0.88247776 0.04172986
57.450615 -65.445656 231.57143 -0.30219385 0.15140502 -0.94114578 0.011634169
58.866272 -65.433472 231.4624 -0.30064404 0.14636722 -0.94243824 0.0083557479
61.154709 -65.54953 230.67407 -0.29762036 0.14401068 -0.9437601 0.0053881113
62.89489 -65.582375 230.39819 -0.2999979 0.14676474 -0.94258237 0.007065916
64.625 -65.880112 230.35385 -0.30106527 0.14666061 -0.94225818 0.0070702787
31.639875 -63.097652 231.90291 -0.45206243 0.0044314191 -0.89197528 0.037880171
32.735603 -62.93346 230.99413 -0.48094046 -0.0093504563 -0.87670338 0.044380173
25.859594 -60.218575 230.48709 -0.33417106 -0.08757636 -0.9384349 0.038045973
26.723627 -60.578678 231.27379 -0.35381332 -0.061209705 -0.9333111 0.036192294
29.070684 -60.396343 231.50531 -0.41356367 -0.045844112 -0.90932035 0.036769465
31.188782 -60.624275 231.5029 -0.4607355 -0.048996881 -0.88618398 0.042482976
32.866673 -61.104961 230.73749 -0.49361849 -0.057549216 -0.8677724 0.048547577
26.976965 -59.837769 230.18398 -0.37727451 -0.078514889 -0.92276728 0.036279052
28.740793 -59.960999 230.65421 -0.42028528 -0.058356918 -0.90551353 0.038743328
31.122816 -59.587006 230.31749 -0.4760339 -0.094768398 -0.87430578 0.047105275
32.71875 -59.855064 230.33658 -0.49854341 -0.10671415 -0.86027122 0.052019309
-13.1969 -36.022346 230.0195 0.0020693531 0.22663574 -0.97397739 0.0030259176
3.1542654 -37.376907 230.17389 -0.0018320826 0.24687625 -0.96904534 0.0041286824
-14.76239 -34.203819 230.08022 0.0090073263 0.22676626 -0.97390759 0.0072932318
-12.508613 -34.056252 230.06499 -0.0088529093 0.22073524 -0.97529358 0.0027584285
1.6382111 -34.513344 230.0289 -0.0026810251 0.21503942 -0.97660172 0.0044302959
-14.695167 -32.413643 230.35857 0.0030462521 0.22401258 -0.97458154 0.0054488946
-12.762333 -32.712177 230.1586 -0.01127749 0.22125328 -0.97515112 0.0036321159
-11.186739 -32.582394 230.07732 -0.019799767 0.21939082 -0.97543615 0.0021800515
-9.5831461 -32.311508 230.25513 -0.027693508 0.21873109 -0.97539216 0.0027965931
-7.6407304 -32.284935 230.07852 -0.02583503 0.21521968 -0.97622389 0.0032150999
1.6512122 -33.013664 230.41045 -0.0078622093 0.20144348 -0.97946858 0.0029303876
-14.545569 -30.989569 230.44945 -0.0010344257 0.22205004 -0.97503477 0.0052477885
-12.920484 -30.856117 230.38625 -0.013231945 0.22046117 -0.97530597 0.00437241
-11.378869 -30.6768 230.3567 -0.02153736 0.21878953 -0.97553438 0.0031590948
-9.2870836 -30.490223 230.37798 -0.03173957 0.2154626 -0.9759962 0.0035398535
-7.3737726 -30.763081 230.20949 -0.031438679 0.21270062 -0.9766115 0.0060177739
-5.2713103 -30.864538 230.27051 -0.042182121 0.21001914 -0.97678685 0.0038927735
-3.0753469 -30.168402 230.06334 -0.0342758 0.20419121 -0.97833079 0.0013398096
1.3203228 -30.939791 230.38231 -0.011231979 0.19436161 -0.9808656 0.0036582912
2.0242448 -30.233143 230.77841 -0.0072435169 0.18925861 -0.98190057 0.0058049364
43.226711 -30.404722 230.25563 0.27395558 0.30834037 -0.9109745 0.010115473
45.032303 -30.423523 230.54732 0.27236816 0.35164487 -0.89563471 0.014587719
46.931808 -30.368828 230.5497 0.25322169 0.37141147 -0.89327055 0.017237809
48.808525 -30.273764 230.38617 0.24084663 0.38296574 -0.8918128 0.014692368
50.449585 -30.085918 230.4639 0.22274816 0.40030909 -0.88889593 0.013675623
-14.566514 -29.029165 230.55882 -0.0035928041 0.21494609 -0.9766193 0.0052695745
-12.932622 -28.984503 230.77632 -0.013467122 0.21531393 -0.97645193 0.0054376209
-10.967241 -28.936565 230.38371 -0.027101824 0.21475346 -0.97629219 0.0051074596
-9.034771 -28.868898 230.51613 -0.036081493 0.21241222 -0.9765138 0.0044993516
-7.1933188 -28.991095 230.4809 -0.03591796 0.20979936 -0.97708452 0.0059219594
-4.7970991 -28.729643 230.19753 -0.043611754 0.20675707 -0.97741979 0.004191088
-2.7929409 -29.010002 230.24199 -0.035084575 0.20285149 -0.97858083 0.0037939402
-1.3114289 -28.795462 230.14783 -0.027500201 0.19999643 -0.97941059 0.0051714447
1.1960436 -29.074602 230.28316 -0.015785119 0.19073541 -0.98151451 0.0078671826
2.5733624 -28.757462 230.89127 -0.0044350117 0.1779854 -0.98402309 0.0078557245
41.704067 -28.928732 230.24159 0.26447448 0.27833065 -0.92335546 0.0082021523
42.951839 -29.036921 230.71814 0.27760115 0.30369845 -0.91143012 0.0086943759
45.006187 -29.019562 231.34579 0.27690852 0.34880421 -0.8953532 0.013932484
47.015472 -29.160172 231.52603 0.25389469 0.36557227 -0.89548558 0.014813915
49.064198 -29.503302 231.26384 0.24175064 0.37844211 -0.89349782 0.01342706
50.911427 -29.357552 231.34235 0.22229755 0.39203703 -0.89268744 0.011096773
52.938137 -29.018171 231.50449 0.20550102 0.41070157 -0.88830936 0.010949899
54.65477 -28.636723 231.44846 0.19436327 0.43047404 -0.88142782 0.010292048
-14.72777 -26.954561 230.51402 0.0025446424 0.2044155 -0.97888094 0.0056490372
-12.991256 -27.000084 231.33151 -0.01108891 0.20821217 -0.97802085 0.0058923783
-10.918674 -26.986694 230.86797 -0.028720157 0.21018182 -0.97724044 0.0057565877
-9.073122 -27.008905 230.78647 -0.039852828 0.20882373 -0.9771409 0.0043999418
-7.0612941 -27.068062 230.73697 -0.041495714 0.20543094 -0.97779155 0.0034204435
-4.8698659 -27.017694 230.55518 -0.04489094 0.20485778 -0.97776175 0.0031012949
-2.8406928 -27.043566 230.3586 -0.038921416 0.2039005 -0.97821754 0.0038142856
-0.97815174 -26.96352 230.30128 -0.031880803 0.19974871 -0.97932839 0.0084793288
1.1721179 -27.015799 230.31949 -0.024180958 0.18910323 -0.98165947 0.0094179269
2.8956635 -26.948967 230.7123 -0.011965405 0.17178884 -0.98506123 0.009561873
4.2456365 -26.445831 231.24449 -0.0079733487 0.14687544 -0.98912287 0.0090859598
41.40411 -26.922165 230.3934 0.26802278 0.27948156 -0.92198366 0.0064903824
43.014755 -27.022099 231.1053 0.28549641 0.30915639 -0.90714616 0.007265667
44.714104 -26.96612 231.71097 0.2881752 0.32684979 -0.90006906 0.011245644
-14.554266 -25.131437 230.81828 0.0064106844 0.20465633 -0.97881293 0.00778293
-13.009921 -24.968451 231.4306 -0.0095887063 0.20643689 -0.97841293 0.0076110032
-10.911241 -25.030197 231.42351 -0.030708276 0.20538419 -0.9781996 0.0041550891
-8.9373312 -25.020897 231.19266 -0.045688849 0.20361637 -0.97798407 0.0040189158
-7.0499344 -25.028677 231.05722 -0.04927114 0.20059712 -0.97843403 0.0042923829
-5.025496 -25.050858 231.08961 -0.044936202 0.20015642 -0.97873294 0.003978733
-2.9750652 -24.985832 230.63438 -0.043645259 0.20335056 -0.97813272 0.0030579614
-1.0765842 -25.309736 230.38333 -0.036225565 0.20005068 -0.97911566 0.0055796853
1.0062838 -25.423029 230.25508 -0.031449303 0.19146341 -0.98099577 0.0098640099
3.1791358 -25.282288 230.42673 -0.021165399 0.16598603 -0.98590094 0.010774817
4.9166408 -24.985453 230.86746 -0.015364456 0.1111609 -0.99368358 0.0085284812
6.6758771 -24.403975 231.1964 0.0102764 -0.00050617167 -0.99994707 0.005459107
17.035738 -24.228312 230.19711 -0.038397279 0.19283892 -0.98047888 0.014775401
18.081909 -24.710863 230.09685 -0.03634385 0.21626428 -0.97565824 0.013830372
20.671484 -24.530905 230.17348 -0.03256147 0.22874197 -0.97294235 0.0073286407
24.998655 -24.653551 230.07793 -0.027597222 0.22845618 -0.97316301 0.0043529309
41.41766 -25.395075 230.28099 0.27395475 0.28532135 -0.91844457 0.005783604
42.989693 -25.00371 231.04117 0.29224995 0.30170435 -0.9075045 0.0065651075
44.496735 -24.870819 231.75227 0.29836205 0.30483297 -0.90446496 0.0090459296
-14.339527 -23.389063 230.98645 0.0041715484 0.19971249 -0.9798457 0.0076934271
-13.287565 -22.932365 231.52531 -0.0078918729 0.19636665 -0.98049873 0.0066856486
-10.893278 -23.214567 231.72215 -0.034904052 0.1999786 -0.97917831 0.0058850986
-8.9055996 -23.021057 231.65344 -0.04816176 0.19888444 -0.97883886 0.0033075372
-7.1068106 -23.12681 231.47922 -0.056098424 0.19773109 -0.97864974 0.0039634285
-5.0175443 -23.064167 231.52277 -0.050472334 0.19449618 -0.97960389 0.0049420712
-3.5098753 -23.182278 231.034 -0.046804626 0.19738516 -0.97920805 0.0052274545
4.6176181 -23.958704 230.21114 -0.024716247 0.11672336 -0.99285692 0.009544299
6.7225852 -23.813599 230.85112 0.013321209 -0.020185035 -0.99970752 0.0050373361
11.185996 -22.549582 230.75784 -0.020526676 -0.021901613 -0.99954939 0.0066928812
13.121466 -22.65119 230.8316 -0.048163563 0.066947117 -0.99659336 0.008704531
15.113173 -22.829378 230.40065 -0.046873558 0.14069085 -0.98894334 0.012382737
16.869495 -22.87595 230.1973 -0.037880193 0.18119587 -0.98271722 0.013403188
19.089212 -22.612741 230.25931 -0.036491212 0.20534949 -0.97800809 0.0095974114
20.533987 -22.836588 230.49695 -0.034749206 0.21465743 -0.97607106 0.0068166903
23.037281 -22.63632 230.34145 -0.02996319 0.21873829 -0.97532344 0.0037731677
25.078594 -22.657574 230.18452 -0.029871359 0.22051397 -0.97492629 0.0014108397
27.194122 -22.240341 230.55638 -0.030860694 0.22013599 -0.97498083 0.002637432
31.779713 -22.338528 230.15833 -0.014750429 0.22388427 -0.97450417 0.0059652664
43.348194 -23.77035 230.78545 0.29784212 0.29380447 -0.90827805 0.0061712549
44.825832 -23.48308 231.69942 0.30409166 0.29515445 -0.90576607 0.0086283581
-12.969946 -21.122744 231.6046 -0.01116269 0.188481 -0.9820134 0.0072146193
-11.064002 -21.241171 231.936 -0.031323485 0.19430782 -0.98044044 0.0057583326
-8.9206095 -21.40519 231.79468 -0.046574604 0.19753592 -0.97918862 0.0029821298
-7.282784 -21.286108 231.80585 -0.057151187 0.19619033 -0.978899 0.0031752083
-4.9347653 -21.222237 231.73207 -0.062927924 0.19256683 -0.97926408 0.004730321
-3.9051347 -21.695232 231.36322 -0.049139109 0.19441971 -0.97968686 0.005283419
11.200908 -21.700071 230.28294 -0.02195533 -0.017540287 -0.99960512 0.0071325763
13.219523 -21.36791 230.22604 -0.044441808 0.076405726 -0.99608588 0.010382683
15.093929 -20.826206 230.17747 -0.037311204 0.13195451 -0.99055332 0.010631973
17.058739 -20.918081 230.38605 -0.030727575 0.16860832 -0.98520404 0.010378889
18.989468 -20.96633 230.50624 -0.033342727 0.18811433 -0.98158097 0.0087692132
21.097115 -20.80802 230.28618 -0.032667316 0.20254521 -0.97872794 0.0061720121
22.856552 -21.016401 230.4252 -0.030564604 0.20921834 -0.97739118 0.0046671336
25.008703 -20.936329 230.26566 -0.031017626 0.21221566 -0.97673047 0.0019174876
27.238991 -20.846373 230.24254 -0.032145191 0.21379234 -0.97635013 0.0023432479
29.144232 -20.607195 230.32677 -0.034016442 0.21381746 -0.97628123 0.0050373492
31.342787 -20.743053 230.12077 -0.033358749 0.21330343 -0.97641635 0.0056011784
33.206219 -20.510622 230.15742 -0.011702067 0.2075005 -0.97816491 0.0046871272
-12.538752 -19.088968 231.66586 -0.0056515769 0.17948307 -0.98374492 0.0087771881
-11.79777 -19.162754 231.84929 -0.01323212 0.18290892 -0.98304081 0.0083806925
-8.3845387 -19.222942 231.84229 -0.047246307 0.19202946 -0.98025125 0.0064198985
-4.8374457 -19.303112 231.78271 -0.072237454 0.18811758 -0.97948635 0.0027396209
15.983677 -19.67215 230.04681 -0.027778465 0.1450237 -0.98903817 0.0084734354
17.262449 -19.561111 230.27171 -0.027076354 0.15855144 -0.98697942 0.0079710195
19.149979 -19.123508 230.43764 -0.029648563 0.17329001 -0.98442447 0.0075248047
20.972418 -19.036404 230.63542 -0.028840289 0.18456106 -0.98239785 0.0053027892
22.891026 -19.127663 230.8264 -0.027932001 0.19438164 -0.98052812 0.0047322419
25.002018 -18.942381 230.64452 -0.031468254 0.20203337 -0.9788729 0.0031390479
27.023434 -19.057907 230.48813 -0.034138754 0.2056126 -0.97803777 0.00352296
29.112886 -19.023081 230.43417 -0.036224693 0.20597996 -0.97788554 0.0051550181
31.07279 -18.954727 230.28004 -0.046754565 0.19736674 -0.97921419 0.0053190095
32.668907 -19.328199 230.17392 -0.045480043 0.19354224 -0.98003721 0.0038244289
-5.4286084 -17.297411 231.77896 -0.061375748 0.18512866 -0.98079586 0.0031181697
19.943148 -17.692064 230.02908 -0.023787703 0.16510324 -0.98598945 0.005530009
21.203054 -17.555342 230.45447 -0.022733442 0.17319848 -0.98462451 0.0055845161
23.047239 -17.253452 230.73799 -0.023392659 0.18004946 -0.98337936 0.0062469598
24.940117 -17.123095 230.77687 -0.029358229 0.18639751 -0.98203564 0.0049908031
26.980942 -17.12088 230.73347 -0.036954947 0.18989651 -0.98110837 0.0051962151
28.846203 -17.252186 230.50626 -0.04237235 0.18792002 -0.98126996 0.0040428163
30.744795 -17.468678 230.21281 -0.053641561 0.1815255 -0.98192215 0.003531439
79.760712 -172.2838 233.59047 0.47767949 0.39307854 -0.7856918 0.013385653
80.202599 -172.60852 233.66409 0.47570795 0.40873963 -0.77886707 0.013888298
75.746582 -170.2674 232.6851 0.52079421 0.33553484 -0.78497767 0.018966928
76.261253 -170.34102 233.48027 0.51383442 0.31933093 -0.79624236 0.018552342
75.196045 -169.11067 233.02675 0.52883923 0.2945435 -0.79597312 0.021075401
76.080254 -169.58899 233.81653 0.51593322 0.28842995 -0.80661094 0.02078893
74.823997 -167.125 233.29817 0.5336414 0.22045004 -0.81647331 0.023286829
-16.822199 -94.916603 232.19824 -0.20312035 0.36521789 -0.90849215 0.014989554
-16.575094 -93.624466 232.55234 -0.2497526 0.35049835 -0.90264863 0.016104752
-14.414748 -93.042831 232.25667 -0.2774958 0.32198587 -0.90516365 0.01389051
-14.603071 -90.591835 233.77092 -0.3835806 0.30485624 -0.87173885 0.013850144
-13.787464 -90.227783 233.46158 -0.40132833 0.29004347 -0.8687982 0.011259288
-14.215591 -89.598442 233.84662 -0.41540182 0.29002571 -0.86216378 0.010658312
-13.027233 -88.793343 233.43446 -0.43280667 0.26640472 -0.86122406 0.0095148934
-11.657148 -88.249313 232.98218 -0.43092793 0.25185636 -0.86652732 0.0074794758
-14.361489 -86.636391 233.99155 -0.44531843 0.24667187 -0.86072326 0.009431446
-12.797221 -87.120018 233.66316 -0.43550599 0.24873476 -0.86513901 0.0094744647
-11.040077 -86.942017 233.00494 -0.4246082 0.24351488 -0.87201393 0.01056821
-9.3839092 -86.476395 232.39017 -0.40066648 0.22815548 -0.887362 0.010943285
-15.096344 -84.537384 233.95551 -0.40465224 0.15620309 -0.90103114 0.0087048654
-12.770107 -85.012001 233.70917 -0.4033854 0.18630986 -0.8958621 0.010486282
-10.952099 -85.074043 233.09988 -0.39045739 0.18458799 -0.90192592 0.011407362
-9.0297203 -84.949425 232.41737 -0.35684782 0.14395161 -0.92300463 0.010537222
-7.8599014 -84.283676 232.08755 -0.30242515 0.039334621 -0.95236117 0.005198359
43.845852 -84.425407 232.27692 0.16493092 0.52121353 -0.83733767 0.019318884
44.291874 -84.200584 232.19449 0.16688861 0.52103192 -0.83706272 0.019218734
47.803535 -84.864342 232.03476 0.021909444 0.52527183 -0.85065246 0.023729157
-12.820215 -83.27774 233.60966 -0.33463919 0.050390393 -0.94099808 0.0078942887
-10.932602 -83.126816 233.10287 -0.31496319 0.03425185 -0.94848567 0.0070868302
-9.0029011 -83.076294 232.38574 -0.29620177 0.013798208 -0.95502573 0.0044418299
-7.2112651 -83.653038 232.10803 -0.28388056 0.0041497936 -0.95885068 0.0035064998
43.460808 -82.784798 232.58401 0.17376967 0.5273782 -0.83167076 0.020937426
45.002743 -82.800552 232.65883 0.060879793 0.53394312 -0.84332579 0.028168265
47.122959 -82.655327 232.5052 -0.16695833 0.52526307 -0.83440012 0.040312193
-10.708715 -81.279678 232.49185 -0.29302669 0.0025784592 -0.95610082 0.0044483077
-9.0730238 -81.15818 232.354 -0.28443426 0.0025912055 -0.95869207 0.0018439122
-6.6579628 -80.309517 232.25916 -0.27423632 0.005396618 -0.96164721 0.0054574832
-5.8921642 -81.737045 232.09384 -0.27454636 0.0049222508 -0.96156132 0.0046337759
-3.9502225 -80.009331 232.19025 -0.25974318 0.017382385 -0.96552134 0.011154271
42.971962 -81.182228 233.12828 0.16125661 0.54177433 -0.82491022 0.022976311
45.103962 -81.454208 233.54417 -0.089814872 0.55086792 -0.82974565 0.037178475
46.981663 -81.044502 233.33727 -0.30376273 0.5312888 -0.79086053 0.042812109
-10.270678 -79.432037 232.12979 -0.28165391 0.00041832935 -0.95951599 0.00322827
-8.8609371 -79.49321 232.35077 -0.27642909 0.0030409161 -0.96102953 0.002187646
-6.9386196 -79.624306 232.75984 -0.2735073 0.0054271868 -0.96185464 0.0048523503
-5.3964815 -79.712593 232.89439 -0.26799205 0.01048571 -0.96336401 0.0090494817
42.534058 -79.597771 233.58653 0.14398573 0.5573265 -0.81771344 0.028556043
46.810474 -79.699776 233.82208 -0.36500192 0.53849268 -0.75947303 0.045272637
51.570469 -74.611046 232.75743 -0.47887275 0.39841813 -0.78226835 0.010605368
52.955948 -74.593285 232.35799 -0.47515574 0.34786797 -0.80821705 0.01202022
54.4851 -74.274506 232.11282 -0.42940629 0.25126687 -0.86745334 0.015232235
51.43343 -73.190063 233.45331 -0.48169339 0.35931292 -0.79929066 0.011253795
53.114552 -72.981972 233.0356 -0.47100416 0.29429683 -0.83159155 0.014650795
55.001511 -72.94754 232.53207 -0.40028006 0.22512046 -0.88831115 0.017070765
56.51915 -72.562271 232.16217 -0.30845046 0.20488892 -0.9289127 0.011475226
58.592079 -72.057274 232.1517 -0.29571652 0.2046399 -0.93309927 0.01116603
19.762161 -70.374664 233.41696 -0.27038836 0.11857558 -0.95542139 0.046204064
20.979553 -70.988571 233.65031 -0.27795947 0.13581714 -0.95094281 0.043731965
22.957058 -70.609856 233.00888 -0.29034552 0.14583454 -0.94574398 0.032268766
24.928808 -70.276039 232.36897 -0.3137565 0.15392515 -0.93694389 0.023864096
53.095932 -71.873894 233.17961 -0.469019 0.27380711 -0.83967304 0.015996223
55.037327 -71.36776 232.68442 -0.37502089 0.21843289 -0.90091419 0.018043343
56.804752 -70.85495 232.38812 -0.29731998 0.20079044 -0.93342602 0.011749269
58.344734 -70.524902 232.10487 -0.29624456 0.20124805 -0.93366933 0.0092259534
23.281879 -69.466194 233.59692 -0.2929728 0.12595174 -0.94778854 0.031881474
25.12855 -68.93898 233.10071 -0.31180876 0.10081849 -0.94478083 0.028726572
26.915615 -68.693741 232.45354 -0.34160861 0.10306071 -0.93417448 0.026752319
28.485437 -68.223145 232.18398 -0.37527162 0.10183981 -0.92130339 0.02852104
57.212963 -69.118576 232.47935 -0.29466137 0.19705337 -0.93506396 0.011373688
58.722755 -68.977531 232.18256 -0.29802158 0.19336738 -0.93476856 0.0086691966
25.515245 -67.39856 233.72934 -0.31398034 0.061290588 -0.94744915 0.031393934
27.096239 -67.079201 233.16801 -0.34144554 0.055970419 -0.93823355 0.030116649
28.873989 -66.788704 232.55881 -0.38212767 0.058126278 -0.9222796 0.030442419
30.601391 -66.161674 232.06097 -0.42720425 0.046813857 -0.90294248 0.033562593
57.482769 -67.358025 232.34081 -0.29846722 0.1854101 -0.93623734 0.010172021
58.565201 -67.287529 232.2422 -0.30085126 0.17931587 -0.93666124 0.0081140036
17.458723 -64.180023 233.79854 -0.22683129 0.043850023 -0.97294647 0.054300569
18.024103 -64.096207 233.75548 -0.23984851 0.04384888 -0.96981955 0.052042864
27.594921 -65.4319 233.66901 -0.34776756 0.028440164 -0.93714941 0.030832144
29.150137 -65.06868 233.16647 -0.38844642 0.028702775 -0.9210242 0.030716933
30.694159 -64.750679 232.43413 -0.42410228 0.02882939 -0.9051553 0.03217167
57.883301 -65.87468 232.24808 -0.30145097 0.15969932 -0.94001251 0.0095775379
17.12738 -63.354065 233.18832 -0.21296386 0.0069588777 -0.97703528 0.061627645
18.637125 -63.237206 233.71324 -0.24393277 0.021333149 -0.96955752 0.051574871
21.266703 -62.513489 233.77994 -0.27468207 0.030505529 -0.96105105 0.038087331
23.203955 -62.190907 233.68936 -0.30569866 0.012874627 -0.95204127 0.034298975
25.261623 -62.249966 233.85162 -0.32398501 -0.0051517878 -0.94604826 0.033125579
27.469793 -62.416439 233.85793 -0.35446426 -0.017912613 -0.93489802 0.032914575
29.278645 -62.990898 233.53288 -0.39493072 0.001089804 -0.91871023 0.032510426
30.827814 -62.954678 232.7328 -0.430455 0.0045685265 -0.90260047 0.034938194
23.966021 -61.661789 232.71257 -0.31886068 -0.0032939834 -0.94779593 0.033332199
25.232647 -61.534756 232.87946 -0.32559627 -0.026461501 -0.94513851 0.033750918
27.147171 -61.493206 232.94698 -0.35344157 -0.036647163 -0.93473852 0.03403445
28.990726 -61.427864 232.94487 -0.39704368 -0.02395693 -0.91748703 0.0341268
30.769976 -61.414299 232.49901 -0.43886572 -0.023767423 -0.8982383 0.037933912
45.605213 -28.28027 232.01163 0.27155939 0.35269716 -0.89546645 0.01572632
47.415707 -28.395279 232.30241 0.2539171 0.3586801 -0.89826208 0.013615904
48.974472 -28.52578 232.43687 0.24653043 0.36417872 -0.89810729 0.011559642
50.983856 -28.485435 232.5891 0.22801326 0.37786475 -0.89734513 0.0096627148
52.898193 -28.401659 232.6082 0.21429127 0.3965852 -0.89263618 0.010259824
54.753017 -28.28793 232.38054 0.20470324 0.4157753 -0.88613063 0.011007983
56.257114 -28.011345 232.54832 0.19203751 0.43701494 -0.87871474 0.011852282
-12.474173 -27.630323 232.11749 -0.015456938 0.20915775 -0.97775978 0.0055745542
45.661785 -27.00198 232.16542 0.27386147 0.33946934 -0.89986688 0.013436705
47.07552 -27.025513 232.59999 0.25798157 0.34783718 -0.90136272 0.011818209
48.946205 -27.054691 233.25296 0.24929576 0.35643065 -0.90044928 0.0094026076
50.962475 -27.165232 233.39554 0.23292582 0.37003052 -0.89934587 0.0088999923
53.028938 -27.388346 233.49602 0.22100866 0.38776112 -0.89487231 0.0096934335
55.037868 -27.401876 233.38918 0.21146302 0.40374184 -0.89009881 0.011295757
56.949844 -27.366684 233.18999 0.19648981 0.4287 -0.88182086 0.011450823
58.581627 -26.957199 233.40698 0.19115442 0.44240475 -0.8762067 0.0079006581
60.528336 -26.380798 233.81305 0.18540388 0.46855468 -0.86376035 0.0097798686
-12.845647 -24.656937 232.16949 -0.012428935 0.20478061 -0.97872895 0.0077240211
-11.423847 -24.30769 232.05605 -0.028740693 0.20324479 -0.97870606 0.0059897858
-9.8234749 -24.047976 232.27516 -0.042740528 0.19981572 -0.97890085 0.0045522149
45.455452 -25.054148 232.26488 0.28602096 0.31855762 -0.90372175 0.011019931
46.977383 -24.982485 232.94017 0.26341861 0.33885857 -0.90320849 0.011368286
48.847984 -25.084078 233.6992 0.25293526 0.34639627 -0.9033457 0.0089311143
50.162529 -25.959343 233.80112 0.24328969 0.35703796 -0.90185034 0.0093284668
-12.422796 -23.068624 232.42258 -0.019672971 0.19730318 -0.98014516 0.006507156
-10.910346 -22.667215 232.21736 -0.035008501 0.19811824 -0.97955275 0.0057126023
-9.7966814 -23.647043 232.01492 -0.042744298 0.19922385 -0.97902137 0.0047451956
-6.6102433 -22.685448 232.31888 -0.059792694 0.19646347 -0.97868633 0.0039496957
-5.6637669 -22.725929 232.16382 -0.057090271 0.19492197 -0.97915584 0.0045192763
11.628319 -23.519867 232.092 -0.025613593 -0.019036068 -0.99949068 0.0071920543
12.266706 -23.544174 232.1629 -0.044011246 0.019882608 -0.99883318 0.0071568992
45.662853 -23.533609 232.33266 0.2876431 0.31110868 -0.90579957 0.010341814
47.086578 -23.068703 233.04604 0.27109733 0.32356998 -0.9065367 0.011963187
48.694485 -23.204605 233.77654 0.2604686 0.3335973 -0.90601826 0.010226534
-12.16179 -21.350925 232.5555 -0.019893432 0.19002244 -0.98157817 0.0068581277
-10.835819 -20.936462 232.26714 -0.03165134 0.19378549 -0.9805333 0.0056001004
-8.9267826 -20.538807 232.2325 -0.044935293 0.19605336 -0.97956318 0.0037871257
-6.8026743 -20.715366 232.37737 -0.061041471 0.19407989 -0.97908473 0.0033417661
-5.6562524 -20.539124 232.27452 -0.070230596 0.19157448 -0.97896212 0.0043121525
47.83287 -21.762564 233.12863 0.2763162 0.30770335 -0.9104768 0.010375423
48.617535 -21.818178 233.31206 0.26901323 0.31987724 -0.90846598 0.010736152
50.39476 -20.305698 233.83746 0.27290177 0.31417468 -0.9092958 0.010951539
-10.761895 -18.927515 232.51367 -0.021105601 0.18410085 -0.98268068 0.0081444895
-8.9791708 -18.892252 232.4926 -0.039478723 0.18898833 -0.98118538 0.0080774156
-6.9734116 -18.996164 232.85347 -0.055451855 0.18987578 -0.98024094 0.0049529881
-5.4702535 -19.031992 232.23434 -0.069018073 0.18934597 -0.97948182 0.0035209125
-10.613911 -17.184805 232.47539 -0.012694957 0.17510702 -0.98446757 0.010626598
-8.9353886 -17.025181 232.84149 -0.025217254 0.18013446 -0.98331863 0.011461667
-6.9270926 -17.039143 232.7914 -0.043086272 0.18390636 -0.98199892 0.0080301808
-5.7219868 -17.362732 232.26933 -0.057881285 0.1859055 -0.98086125 0.0034736774
-10.283603 -15.834579 232.66492 -0.0027510237 0.16143978 -0.98687875 0.013206848
-8.8500357 -15.474415 232.69833 -0.011538097 0.16455534 -0.98630035 0.01431754
-7.3499236 -15.501499 232.68065 -0.024290834 0.16973986 -0.9851895 0.012033753
79.958214 -172.1837 234.25143 0.47071317 0.37849689 -0.79697502 0.014002738
80.243675 -172.20139 234.40163 0.46951708 0.38009468 -0.79692018 0.013957506
79.348495 -170.82974 235.11328 0.47110507 0.30762365 -0.82669681 0.016382961
80.614105 -171.35556 235.22763 0.45707595 0.33281285 -0.82481349 0.015007098
75.663963 -168.50864 234.4599 0.51488626 0.24404261 -0.82178789 0.021857707
76.978661 -168.97339 235.13519 0.49302399 0.23834266 -0.83673191 0.021833703
78.731377 -169.66948 235.70264 0.46895096 0.25184709 -0.84655654 0.020264737
82.304329 -169.42262 235.87874 0.42604429 0.24565518 -0.87071228 0.022391167
75.446571 -167.00883 234.76953 0.51114845 0.18349326 -0.83967698 0.026078848
76.580803 -167.40578 235.7506 0.48591313 0.17326705 -0.85666037 0.026962733
75.366585 -165.32738 235.446 0.49550381 0.11580846 -0.86085099 0.030400418
76.330208 -165.37636 235.89362 0.4731828 0.096263364 -0.87568909 0.032482903
75.712395 -162.93735 235.91278 0.45380315 0.03192687 -0.89052981 0.035852049
76.067818 -162.16718 235.88852 0.45499948 -0.0047319536 -0.89047915 0.039992087
75.755219 -161.85728 235.96463 0.46205872 -0.014929007 -0.88672376 0.039038267
76.113205 -161.84293 235.72238 0.45441923 -0.017755505 -0.89061099 0.041129176
77.208992 -158.15117 235.86577 0.39152077 -0.17780907 -0.90282637 0.032717232
77.572426 -156.94826 235.57016 0.35806203 -0.23993625 -0.90234262 0.029172421
78.74897 -156.49611 235.79671 0.32375753 -0.25614443 -0.91080791 0.025158232
78.643555 -155.96518 235.48085 0.31453541 -0.28107592 -0.90667731 0.023664162
81.146233 -154.95883 235.59636 0.25182897 -0.32515433 -0.91151345 0.015703147
83.174225 -154.7599 235.52014 0.20640491 -0.35728687 -0.91090232 0.012228326
84.687798 -155.20952 235.60605 0.17882454 -0.37161562 -0.91100144 0.013774297
-18.604149 -92.427132 235.17816 -0.29869524 0.37545556 -0.87739062 0.018953476
-17.094698 -92.416939 234.4774 -0.30126122 0.35303861 -0.88577956 0.016993107
-20.336744 -90.433174 235.48172 -0.35913941 0.39101994 -0.84742099 0.022439068
-18.933802 -91.162926 235.57936 -0.34561881 0.37465841 -0.86033642 0.020431284
-16.938297 -91.038635 234.98798 -0.35508761 0.34335166 -0.86949551 0.017013622
-15.256211 -90.665848 234.28552 -0.3792955 0.31551793 -0.86981803 0.014927085
-20.82428 -89.805984 235.64021 -0.37744579 0.3910808 -0.83939892 0.022341337
-18.628443 -88.818115 235.74455 -0.42600259 0.34182253 -0.83766294 0.018530134
-16.977156 -89.023003 235.21725 -0.42269099 0.32384688 -0.84643692 0.015463479
-14.999643 -88.944344 234.45992 -0.43037808 0.29401615 -0.85342205 0.01250552
-13.793527 -88.531563 234.24998 -0.44130281 0.27176648 -0.85521626 0.010497427
-18.899939 -87.371803 235.66443 -0.44747421 0.3070595 -0.8399294 0.019221522
-17.043663 -87.054306 235.28056 -0.45185256 0.28065118 -0.84679645 0.015163818
-14.96496 -86.902435 234.46204 -0.44992816 0.25492132 -0.85590869 0.011656333
-13.635979 -86.624886 234.16548 -0.43838301 0.24212132 -0.86556202 0.0095938239
-16.593452 -85.495483 234.90468 -0.43388298 0.19740838 -0.87907648 0.012879454
-14.882708 -85.148155 234.3046 -0.42166305 0.19018589 -0.88658309 0.010107715
-13.63589 -84.688789 234.08992 -0.39765739 0.16380477 -0.90279382 0.0097271549
-13.345046 -83.76889 234.00746 -0.3547335 0.086723417 -0.93093675 0.0081000924
43.545132 -80.692741 234.40503 0.089937635 0.55875719 -0.82444018 0.030843167
44.85162 -80.549423 234.44882 -0.14991751 0.56125987 -0.81394839 0.043230217
46.898869 -80.203865 234.19286 -0.35107887 0.53832656 -0.76612538 0.046014458
43.32119 -79.001175 235.05707 -0.039129894 0.57933432 -0.81415021 0.047560688
44.901764 -79.196739 235.31276 -0.26561922 0.56926954 -0.77806073 0.055049751
46.898159 -78.879761 234.83954 -0.39277336 0.5467307 -0.73946911 0.049116772
48.033943 -78.261246 234.64601 -0.43262967 0.53545141 -0.72534364 0.041290626
42.991863 -77.176468 235.57826 -0.12704995 0.60129601 -0.7888608 0.064246386
45.711716 -77.56218 235.89178 -0.39213449 0.56842351 -0.72327399 0.059762251
47.019611 -77.431015 235.67323 -0.43562785 0.54333991 -0.71764195 0.045716211
48.02301 -77.512802 234.94812 -0.44958445 0.526977 -0.72122741 0.035827108
42.232224 -75.529114 235.90363 -0.0091862045 0.61940855 -0.78501505 0.070797689
48.267132 -75.940147 235.95923 -0.48326874 0.48025882 -0.73198551 0.015133947
51.684925 -72.867973 234.15858 -0.48336402 0.34677681 -0.80380666 0.011568037
52.507233 -72.083633 234.23926 -0.49246815 0.30648875 -0.81457949 0.013266526
19.871479 -70.216652 234.4752 -0.26589227 0.12091137 -0.95638996 0.044456974
20.977734 -70.291718 234.29808 -0.27415472 0.13307489 -0.95243382 0.04068568
19.450687 -69.056274 235.21068 -0.25723782 0.11650156 -0.9592998 0.04234378
21.122492 -69.022026 235.08376 -0.27297202 0.12660971 -0.95365417 0.036998145
22.920303 -68.72628 234.37489 -0.29169905 0.11743149 -0.94927412 0.033277579
24.225393 -68.149025 234.14645 -0.30211046 0.083568029 -0.94960296 0.033306815
17.265984 -66.163666 235.88445 -0.22342759 0.070289604 -0.97218281 0.054272123
19.907396 -67.826309 235.94406 -0.25468087 0.11176832 -0.96054441 0.036860593
21.429913 -67.11245 235.7038 -0.27554321 0.10549857 -0.95548213 0.034280811
23.062313 -67.008995 234.95943 -0.29647192 0.084070235 -0.95133412 0.034932703
24.834694 -66.755768 234.45438 -0.31074625 0.061937068 -0.94847274 0.033459827
26.665018 -66.268478 234.32278 -0.3311713 0.044288326 -0.94253069 0.031792473
17.891039 -64.967278 234.79884 -0.2326863 0.066357478 -0.97028542 0.049383733
19.01289 -64.967575 234.95583 -0.24909277 0.065492578 -0.96626264 0.044354193
20.999649 -64.939934 235.2162 -0.27433458 0.063790664 -0.95951611 0.03851749
23.028236 -64.912186 235.15247 -0.29843003 0.062450595 -0.95238626 0.034023941
25.091129 -64.961815 234.85393 -0.31654707 0.03631489 -0.94788146 0.032812048
26.816729 -64.895866 234.33749 -0.33358601 0.020371709 -0.94249958 0.032916624
28.1826 -64.31601 234.22343 -0.36270002 0.014676684 -0.93179035 0.031269636
19.402325 -63.616241 234.21935 -0.25502345 0.033223078 -0.96636397 0.046184327
20.998171 -63.380417 234.54646 -0.27242795 0.043356281 -0.96119887 0.038635746
22.945784 -63.238766 234.69859 -0.29866651 0.037585076 -0.95361716 0.034061462
24.968674 -63.122829 234.70116 -0.32005444 0.015864842 -0.94726628 0.033089712
26.998579 -63.248169 234.36217 -0.33924261 -0.0018025936 -0.94069719 0.031974796
28.333948 -63.273849 234.15759 -0.37201357 0.0010840133 -0.92822659 0.031746686
51.348972 -26.245424 234.21758 0.23331095 0.36918941 -0.89959168 0.0098574711
53.018761 -26.448725 234.38406 0.22648364 0.37988302 -0.89688015 0.0097665414
54.914238 -26.405643 234.62247 0.21917215 0.39270693 -0.89316559 0.011336619
56.947144 -26.462891 234.53604 0.21133189 0.40515649 -0.88948697 0.010473806
58.930553 -26.353449 234.62166 0.20873047 0.41908601 -0.88362801 0.0087278066
60.562782 -26.22555 234.16995 0.19313589 0.45754251 -0.86795932 0.010346951
49.525871 -25.144547 234.09508 0.24902314 0.34936085 -0.90329099 0.0089556314
50.992313 -24.950548 234.50792 0.23923729 0.3618969 -0.90099728 0.0099467058
52.966351 -25.051121 235.11919 0.23181047 0.37420595 -0.89790523 0.010188902
54.842587 -25.131952 235.52063 0.22560528 0.38351333 -0.89555556 0.010444826
57.045036 -25.468002 235.40703 0.21891581 0.39529014 -0.89208829 0.010205613
59.050941 -25.482819 235.49448 0.22191523 0.40337208 -0.88771868 0.010681788
60.936619 -25.399187 235.29424 0.21455804 0.42678425 -0.87853289 0.0112207
62.900932 -25.050875 235.55107 0.20685226 0.44958094 -0.86895865 0.010703543
64.662323 -24.667269 235.62531 0.19202848 0.477272 -0.85751766 0.0094452137
66.020882 -24.257843 235.68159 0.18351977 0.49625763 -0.848557 0.0089808879
49.455917 -22.788015 234.16669 0.2577022 0.33768225 -0.90529567 0.010024478
50.973667 -23.054329 234.84264 0.24701959 0.35332799 -0.90229744 0.011117163
52.83432 -23.088072 235.5415 0.23869912 0.36352661 -0.90048391 0.010362035
54.027142 -23.698816 235.81372 0.23381567 0.37063825 -0.89886463 0.010054436
51.097763 -21.100714 234.82153 0.25820675 0.33695111 -0.90542436 0.011841143
52.956104 -21.042372 235.6734 0.24777146 0.34738088 -0.90439802 0.011433677
51.4291 -19.606749 234.55106 0.27997306 0.2965858 -0.91304547 0.011389777
53.147289 -19.334091 235.62679 0.26728815 0.31186441 -0.91175526 0.011975878
79.714989 -170.31023 236.07384 0.45714924 0.27316016 -0.84640306 0.017757205
80.656639 -170.48582 236.30235 0.44552621 0.28302491 -0.84935474 0.01710224
77.820816 -168.21393 236.13757 0.46676514 0.1905067 -0.86361885 0.024820818
79.133415 -168.84996 236.64423 0.44727013 0.20974845 -0.86945671 0.022942485
