# .PCD v0.7 - Point Cloud Data file format
VERSION 0.7
FIELDS x y z normal_x normal_y normal_z curvature
SIZE 4 4 4 4 4 4 4
TYPE F F F F F F F
COUNT 1 1 1 1 1 1 1
WIDTH 615
HEIGHT 1
VIEWPOINT 0 0 0 1 0 0 0
POINTS 615
DATA ascii
28.708136 42.116451 246.74367 -0.038116474 0.25481141 -0.96623927 0.0063948832
21.008188 43.865864 246.66357 -0.0077287704 0.25775731 -0.96617883 0.0052183885
22.746975 43.732388 247.02208 -0.0068058758 0.25710392 -0.96635979 0.0050479318
23.241991 43.761303 246.93842 -0.0076358342 0.25646672 -0.96652293 0.0058955005
25.927725 43.669285 247.0183 -0.015940107 0.25803337 -0.96600449 0.0070066322
29.110666 43.866283 246.60799 -0.049363133 0.2534481 -0.96608865 0.00539474
30.049482 43.462872 246.77654 -0.06309782 0.25009865 -0.96616215 0.0045720031
20.211756 44.665974 246.81001 -0.015727248 0.26452461 -0.96425068 0.0077223848
21.483807 44.846878 246.77197 -0.0081386389 0.25722912 -0.96631628 0.0075056874
22.483387 44.325153 247.16241 -0.0054093534 0.25587958 -0.96669352 0.0059010051
23.494331 44.639545 247.22771 -0.0085305143 0.25780466 -0.9661594 0.0061646146
24.570047 45.075874 247.06018 -0.010374397 0.2575486 -0.96620965 0.0068879896
25.807566 44.568443 247.09525 -0.018427163 0.25871319 -0.96577835 0.0073430231
28.482191 44.382141 246.59857 -0.046807554 0.25462836 -0.96590549 0.0052791238
29.181864 44.310905 246.69707 -0.053468488 0.25142616 -0.96639848 0.0048239864
20.482243 45.643562 246.7733 -0.019186702 0.26384452 -0.96437442 0.009548801
21.139414 45.709538 247.0565 -0.013344995 0.26330826 -0.96461946 0.010004788
22.392384 45.559189 247.14992 -0.0064842869 0.25888398 -0.96588671 0.0091132279
23.60516 45.704914 247.21011 -0.0094216214 0.25872833 -0.96590418 0.0078759585
24.627285 45.638344 247.01172 -0.011896726 0.25961033 -0.96564019 0.0089590382
25.847549 45.664795 247.11887 -0.024381332 0.25814086 -0.96579957 0.0087478887
26.759125 46.085258 246.61212 -0.038955431 0.25394565 -0.9664337 0.0074602305
27.901588 45.801632 246.44717 -0.050572965 0.25105807 -0.96665001 0.0063711284
29.305483 45.78828 246.94543 -0.063626617 0.24438831 -0.96758771 0.0040738615
29.843554 45.786102 246.4783 -0.070511602 0.24307036 -0.96744251 0.0037748648
32.697674 46.051243 247.14041 -0.10558196 0.24444829 -0.96389705 0.0064554671
33.387661 45.726242 246.98817 -0.11167917 0.24702932 -0.96255094 0.0057074907
34.351265 45.984291 246.84601 -0.12033385 0.24985471 -0.96077698 0.0053010378
20.531393 46.393936 246.8958 -0.017222324 0.2639572 -0.96438056 0.011381219
21.42058 46.730896 247.21284 -0.0114135 0.26056761 -0.96538812 0.010048595
22.815023 46.677246 247.35164 -0.010142704 0.25991911 -0.96557719 0.010073189
23.565998 46.756256 247.31729 -0.012434347 0.25986272 -0.96556556 0.010652132
24.36573 46.638271 247.21526 -0.013810902 0.25839746 -0.96594 0.0097119827
26.049232 46.65921 247.38162 -0.032966118 0.2536087 -0.96674496 0.0074598081
26.915409 46.577984 247.13142 -0.043582622 0.25139004 -0.96690416 0.0074907965
28.169561 46.734695 246.97449 -0.057539649 0.24628621 -0.96748757 0.0058968035
29.188082 46.751949 247.22575 -0.065908022 0.24235839 -0.96794552 0.0043385639
29.828688 46.656567 246.89864 -0.073990934 0.24131839 -0.96762121 0.0041205399
32.415668 46.934265 247.05843 -0.10108943 0.24279989 -0.96479487 0.0067301183
33.677223 46.67757 247.28806 -0.11223292 0.24681684 -0.96254098 0.0059029507
34.708694 46.776764 246.82266 -0.12160456 0.25052619 -0.96044207 0.0054208483
35.733925 47.053955 246.47792 -0.13006257 0.25715557 -0.95757759 0.0070461091
36.933998 47.040581 246.62537 -0.14806707 0.27081162 -0.95117676 0.0087261526
37.886871 47.040466 246.58174 -0.15931998 0.28274539 -0.94587111 0.0090290187
40.939503 47.289833 246.50696 -0.18388599 0.27834842 -0.9427132 0.013338628
21.328976 47.831375 247.23337 -0.0068546436 0.25037992 -0.96812344 0.011735741
22.830126 47.677391 247.22603 -0.013250162 0.25905952 -0.96577054 0.010194388
23.999924 48.051453 247.31512 -0.016898045 0.25731787 -0.96617907 0.0086326022
26.238617 47.654266 247.45607 -0.0399055 0.2518625 -0.96693987 0.0077358298
26.898363 47.688797 247.35783 -0.048250597 0.24987505 -0.96707511 0.007520888
28.146336 47.68055 247.37357 -0.061059475 0.24605404 -0.96733093 0.0064902413
29.297567 47.565086 247.30978 -0.070225015 0.2415147 -0.96785283 0.0044875704
30.015038 47.793118 247.05531 -0.080087483 0.2394931 -0.96758932 0.0035472866
32.329742 47.454075 247.2704 -0.099422351 0.24262284 -0.96501267 0.0063722632
33.756714 47.778156 247.30988 -0.11015085 0.24695569 -0.96274596 0.0055650151
34.770611 47.774689 246.96388 -0.12022699 0.25213552 -0.96019429 0.0057920357
35.737206 47.941269 246.73691 -0.12688912 0.26097292 -0.95697039 0.0071585965
36.86639 47.930805 246.79872 -0.14218622 0.2768687 -0.9503299 0.0087479604
37.92041 47.949497 246.82034 -0.15697779 0.28554872 -0.9454205 0.010111874
39.826065 47.662537 246.42743 -0.18505897 0.27141678 -0.94450313 0.012024515
45.837482 47.635025 246.47429 -0.1606361 0.35104457 -0.92247695 0.021736816
21.302511 48.69046 246.98315 -0.0038869015 0.24584112 -0.96930242 0.011254504
24.023512 49.036575 247.41916 -0.019229101 0.25854546 -0.96580774 0.0098219831
29.538809 49.34679 247.4747 -0.079074733 0.24189804 -0.96707428 0.0046826913
33.829193 48.935646 247.41096 -0.10950294 0.24935798 -0.9622004 0.0051382203
34.800209 48.849495 247.05949 -0.11767949 0.25754592 -0.95907336 0.0059440676
35.740566 48.82843 246.99603 -0.12370341 0.26818925 -0.95539105 0.0063938228
36.8223 48.976772 247.05205 -0.13750613 0.28019086 -0.95004487 0.0083927149
37.985348 48.933739 246.78291 -0.15719299 0.28261077 -0.94626713 0.011761198
38.94389 48.998001 246.89128 -0.17092706 0.27524182 -0.94605809 0.013240725
39.680023 49.083622 246.74768 -0.18404894 0.26590735 -0.946266 0.014186963
22.658411 50.073154 247.39189 -0.0032398875 0.24641603 -0.96915871 0.010942099
23.424168 49.950863 247.25655 -0.0086574256 0.24909529 -0.96844029 0.010105405
32.810658 49.726604 247.35452 -0.10281207 0.25020614 -0.96271831 0.004945254
33.456738 49.920193 247.44417 -0.10582689 0.25792736 -0.96035099 0.0057087578
34.7794 49.935265 247.24243 -0.11442291 0.26949137 -0.95618087 0.007799563
35.801315 49.982628 247.16072 -0.12184506 0.27828568 -0.95273858 0.0091920709
36.697773 50.098557 246.9455 -0.13439929 0.27642116 -0.9515925 0.010225798
37.922665 50.023804 246.98802 -0.15613708 0.27595249 -0.94840467 0.011666943
39.032471 50.009369 247.0224 -0.17320211 0.26831907 -0.94763172 0.012970719
40.189865 49.967762 246.85176 -0.18394741 0.26700419 -0.94597679 0.014526906
41.016281 50.093826 246.78479 -0.18279324 0.2733708 -0.94438082 0.015192165
22.792393 51.067039 247.47363 -0.00048719256 0.23362942 -0.97232562 0.0097512165
33.814011 50.8769 247.47354 -0.10692636 0.26758394 -0.95758325 0.0078859953
34.962273 50.755714 247.33398 -0.11445317 0.2724537 -0.95533735 0.0094286855
35.737846 51.322998 247.27615 -0.12276602 0.27196229 -0.95444489 0.0091759963
36.783615 51.116299 247.16011 -0.13506861 0.27254692 -0.95261467 0.010718429
37.900356 51.15163 247.03336 -0.15568145 0.27023569 -0.95012414 0.011674325
38.967251 50.970264 247.19907 -0.17372447 0.26290423 -0.94905281 0.01269847
40.174934 50.871449 246.99857 -0.18253733 0.2666651 -0.94634557 0.013854967
40.850929 50.699131 246.99921 -0.18189864 0.27073759 -0.94531161 0.014851231
35.009125 52.10902 247.37334 -0.11374116 0.27010778 -0.95608824 0.0091472343
35.687122 51.973869 247.36597 -0.12196275 0.26977697 -0.95516783 0.0087417867
37.004333 51.980366 247.4046 -0.13796973 0.26615185 -0.95400614 0.010164776
38.039642 52.146904 247.25909 -0.15832312 0.26381591 -0.95149088 0.01178893
38.858555 52.113346 247.34637 -0.17441726 0.2600376 -0.94971526 0.012846115
34.872086 53.097202 247.47693 -0.11238603 0.26737821 -0.95701528 0.0093910508
38.137695 53.440788 247.46146 -0.1618863 0.25293082 -0.95384425 0.0096713426
-32.502079 -101.42616 247.56876 0.34337512 0.32741755 -0.88027912 0.0097818831
-31.218054 -101.59451 247.71858 0.33286989 0.32474953 -0.88528836 0.010337399
-30.304291 -101.50048 248.00912 0.31867787 0.3246938 -0.8905158 0.010922674
-29.142071 -101.28465 248.29633 0.29545322 0.31815663 -0.90082395 0.0090277977
-28.520832 -101.27314 248.17545 0.28886625 0.31469721 -0.90416926 0.0075654588
-33.245224 -100.16022 247.5296 0.34520274 0.315736 -0.88382459 0.0079495739
-32.331802 -100.50216 247.62817 0.33973822 0.31772125 -0.88522941 0.010729228
-31.426676 -100.73161 247.98526 0.32995746 0.31700116 -0.88917851 0.010942845
-30.409161 -100.70362 248.39279 0.31130046 0.31489414 -0.89662349 0.0095936228
-33.151985 -99.470566 247.87265 0.34237388 0.31032515 -0.88683617 0.0094662067
-32.48547 -99.49543 248.14571 0.33797017 0.30921471 -0.88891083 0.010924727
-31.373339 -99.815216 248.40353 0.3208234 0.31048244 -0.89480335 0.01067306
-30.357548 -100.05938 248.53133 0.29946864 0.30695564 -0.90338075 0.0076776659
-34.909817 -98.295952 247.72525 0.35764149 0.31026909 -0.88080972 0.0073214532
-33.542034 -98.535027 248.09464 0.34311491 0.30706143 -0.88768548 0.0097195907
-32.576805 -98.540771 248.3517 0.33668366 0.30330744 -0.89143074 0.0098527921
-31.863413 -98.474548 248.51344 0.32013395 0.30160013 -0.8980822 0.011144605
-35.200275 -97.642502 247.5847 0.36211288 0.30847871 -0.87961084 0.0091058007
-34.805126 -97.325943 247.78769 0.35375381 0.30569097 -0.88397467 0.0085869869
-33.535038 -97.575989 248.41885 0.34139606 0.30325407 -0.88965487 0.010240837
-32.777451 -97.851128 248.59377 0.33715555 0.29861435 -0.89283574 0.01012639
-35.800808 -96.422821 247.81105 0.36747268 0.30409083 -0.87891561 0.0080604451
-34.516235 -96.310501 248.13867 0.34889552 0.2994037 -0.88804805 0.0078556705
-33.822266 -96.268723 248.55986 0.33846268 0.29650185 -0.89304519 0.0062709767
-34.574875 -95.326759 248.59488 0.34961012 0.29117557 -0.89049965 0.0084996289
-34.552143 -94.368858 248.48186 0.35036528 0.28770751 -0.89132971 0.0082406253
-3.7522845 -81.504814 248.0956 0.49358311 0.41397041 -0.76485568 0.011189966
-2.8408275 -81.7136 248.29572 0.47063705 0.42826226 -0.77142221 0.012264747
-5.7139273 -80.598846 247.63303 0.54218078 0.37709942 -0.75089025 0.009060015
-4.9007668 -80.762833 247.93192 0.52287883 0.38254502 -0.76174605 0.0093560647
-4.0388269 -81.047035 248.3582 0.50001484 0.39872187 -0.76876909 0.0115541
-6.6267319 -79.653793 247.71088 0.55500442 0.35997629 -0.74992478 0.0089761289
-6.0354924 -79.739349 248.1057 0.54218423 0.36283356 -0.75788391 0.0093217893
-5.1633387 -80.020996 248.21803 0.52790338 0.36777595 -0.76554483 0.0098779565
-7.8250217 -78.489983 247.50371 0.59144413 0.32747236 -0.73685539 0.0075499108
-6.9767637 -78.529984 247.80981 0.56708241 0.33403087 -0.75288844 0.00826756
-6.1389909 -78.904411 248.41968 0.54089355 0.34769771 -0.76585925 0.0077590509
-7.8232293 -77.309082 247.93024 0.59885716 0.30834261 -0.73911756 0.010183218
-7.1775346 -77.586975 248.22359 0.57487845 0.31741121 -0.75416499 0.0087534972
-8.1484575 -76.498802 247.94531 0.61457855 0.29643118 -0.73104155 0.011608999
-7.3660049 -76.60405 248.33153 0.58735722 0.30332798 -0.75033575 0.010813102
-9.1296329 -75.301445 247.79492 0.64046651 0.28088573 -0.71477675 0.011730159
-8.4906111 -75.339813 248.21725 0.62560207 0.28206867 -0.7273646 0.011930293
-9.1911488 -74.287613 247.87044 0.64541185 0.26948881 -0.71471626 0.012302251
-8.5693731 -74.2994 248.30838 0.63235396 0.26841417 -0.72669268 0.012138174
-9.2631769 -73.152725 247.84001 0.65261137 0.25685525 -0.71282804 0.012152716
-8.6038437 -73.128426 248.45209 0.63803828 0.25248379 -0.7274332 0.012268307
-9.085597 -72.35807 247.82335 0.6552642 0.24548434 -0.71439922 0.012441777
-8.4145756 -72.375183 248.24911 0.64247215 0.24357079 -0.72656924 0.011760427
78.082565 -13.467881 247.93198 0.39508516 0.31371498 -0.86341798 0.023015432
80.957619 -13.210279 248.12233 0.47865224 0.29431325 -0.82720727 0.021884877
78.153328 -12.902876 247.68919 0.40051693 0.31254837 -0.86133599 0.022316501
79.778999 -12.451788 247.95393 0.45446807 0.29839292 -0.83929759 0.02168081
80.616699 -12.640353 248.19238 0.47630987 0.29156637 -0.82952875 0.020790664
77.924835 -11.486106 247.56206 0.41284508 0.30586883 -0.85790622 0.021878965
78.789162 -11.493646 247.63876 0.43586728 0.29937291 -0.84876114 0.021141071
79.575768 -11.499005 248.24031 0.46468434 0.28696349 -0.83768749 0.019315101
80.640404 -11.564937 248.3884 0.48949176 0.2771461 -0.82679373 0.017561246
78.811272 -10.47665 247.97275 0.45419261 0.28346196 -0.84460545 0.01887949
79.702049 -10.569838 248.29869 0.47863409 0.27219975 -0.83475548 0.016707769
78.764328 -9.2883835 247.99837 0.47170293 0.26103851 -0.84223235 0.016696515
79.473503 -9.6528721 248.43941 0.48793268 0.25735366 -0.83408076 0.016050704
78.07885 -8.2437954 247.61389 0.47743729 0.23472829 -0.84673274 0.015547615
78.644257 -8.2820673 247.88768 0.49260685 0.22787721 -0.83988714 0.014347766
79.377693 -8.3305159 248.45036 0.51447445 0.21215773 -0.83084601 0.013322205
78.823616 -7.1712356 248.04131 0.52844167 0.17817466 -0.83006215 0.011300894
79.480385 -7.2042999 248.32204 0.53747314 0.17322601 -0.82529718 0.010485811
78.952721 -6.0019355 247.87148 0.54967922 0.14427322 -0.82282317 0.0083669862
79.441246 -6.0453916 248.28998 0.55561894 0.14082287 -0.81942457 0.0071892804
79.032784 -5.0857248 248.1394 0.56088394 0.12787817 -0.81795865 0.0059926137
79.552933 -5.1568193 248.36934 0.56456691 0.1267938 -0.81559032 0.0054437965
79.221489 -4.1528139 247.79196 0.5676384 0.11855622 -0.81469697 0.0051257056
75.419655 12.668063 248.50459 0.46955168 -0.11504318 -0.87537783 0.013787367
76.07164 12.980578 248.56708 0.46707341 -0.11327206 -0.87693328 0.013211169
75.67968 13.603415 248.19884 0.46903673 -0.14288731 -0.87154335 0.013243537
76.096527 13.48313 248.56796 0.46473491 -0.13051361 -0.87577838 0.01255953
76.719963 14.792127 248.14262 0.45990705 -0.17039748 -0.87146437 0.01089948
77.136459 14.671127 248.51239 0.45442012 -0.16000664 -0.8762992 0.009390777
76.881859 15.69402 247.77519 0.45155522 -0.20959006 -0.86727732 0.0095549077
77.641441 15.821821 248.06357 0.44261453 -0.20611335 -0.87270248 0.0081364894
78.60656 15.976842 248.35133 0.43790501 -0.2058495 -0.87513727 0.0085353795
78.041397 16.644802 247.59462 0.43703082 -0.25005195 -0.86398971 0.0067166346
78.640106 16.556915 247.85817 0.43104726 -0.23992111 -0.86984831 0.0059838742
27.382372 43.853119 247.60011 -0.032565653 0.25827461 -0.96552253 0.0074524432
22.619871 44.724983 247.80714 -0.0051147114 0.25738758 -0.96629477 0.007565923
26.097151 44.186985 247.62598 -0.018801348 0.25881192 -0.96574473 0.0073595052
27.388159 44.478001 247.75392 -0.036412574 0.2576904 -0.96554124 0.007902409
21.604761 45.674118 247.77655 -0.0091701075 0.260831 -0.96534091 0.0096386913
22.827803 45.476341 247.61047 -0.0064468356 0.25836343 -0.96602631 0.0084289163
23.56591 45.58252 247.54767 -0.0095290849 0.25913334 -0.96579456 0.0082330583
24.536152 45.882301 247.6535 -0.012276649 0.25926515 -0.96572816 0.0094535425
27.416151 45.625 247.87598 -0.043833323 0.25242385 -0.96662343 0.007035668
21.621948 46.411201 247.85535 -0.010603145 0.26159549 -0.96511942 0.010475904
22.293373 46.715046 247.71838 -0.010364049 0.26018965 -0.9655019 0.01054492
23.501156 47.074291 247.89337 -0.01294869 0.25879177 -0.96584636 0.010776451
24.66519 46.949333 247.66225 -0.01670143 0.25500152 -0.9667964 0.0068499637
25.785652 46.704002 247.67581 -0.029029947 0.25312203 -0.96699876 0.006824235
27.043249 46.991722 247.5856 -0.046644472 0.24929528 -0.96730357 0.0069291024
27.505108 47.259216 247.59703 -0.052505843 0.24820834 -0.96728271 0.0069062486
32.99659 46.893227 247.6355 -0.10588967 0.24398148 -0.96398157 0.0062075071
33.411503 47.072083 247.61032 -0.10811071 0.24520598 -0.96342421 0.0058493288
21.660553 47.898918 247.978 -0.0051726545 0.25035369 -0.96814066 0.011705466
22.52829 47.961098 248.10233 -0.0097070988 0.25528714 -0.96681654 0.010429545
23.477066 47.866764 248.13268 -0.013269462 0.25711244 -0.96629041 0.0097082043
24.741369 47.837605 247.8951 -0.02098163 0.25413078 -0.96694231 0.0077390894
25.793119 47.913189 247.81584 -0.034088302 0.25259152 -0.96697235 0.0074805794
26.878862 47.977077 247.63525 -0.049024615 0.2501021 -0.96697754 0.0074143624
27.974697 47.976875 247.61313 -0.059908774 0.24666928 -0.96724623 0.0062439023
29.060684 47.991917 247.58281 -0.068872266 0.24234807 -0.96774179 0.0041931621
30.179029 48.089413 248.22475 -0.082210191 0.23902231 -0.96752769 0.0035453364
31.383957 48.340206 248.03815 -0.092344247 0.24147169 -0.96600407 0.0052851159
32.421772 47.940609 247.68861 -0.099172466 0.24339692 -0.96484339 0.0056429468
33.309689 48.029938 247.63422 -0.10623433 0.24581257 -0.96347833 0.0052636899
34.348557 48.112038 247.56001 -0.11548621 0.24993561 -0.96135068 0.0060026972
21.855976 48.537231 247.86246 -0.0020926448 0.24791247 -0.96878022 0.011060072
22.684511 48.949059 248.12862 -0.0061047655 0.25152671 -0.96783113 0.01045772
23.632915 49.129971 248.09514 -0.013429783 0.25439772 -0.96700644 0.009047999
24.759912 48.957825 248.09351 -0.024458969 0.25427103 -0.96682364 0.0080349231
25.911371 48.859951 247.88968 -0.039873987 0.25304392 -0.96663272 0.0084504075
26.897911 48.903378 247.7663 -0.052186858 0.249991 -0.9668408 0.0069800359
28.049025 48.970085 247.84387 -0.063479774 0.24664733 -0.96702403 0.00551575
29.085442 48.90731 247.84724 -0.073156595 0.24190131 -0.96753913 0.0038997286
30.178288 48.972088 248.30473 -0.083725117 0.24069393 -0.96698326 0.0046917228
31.435427 48.789455 248.20764 -0.09254954 0.2426846 -0.96568042 0.005646206
32.366508 48.928139 247.85661 -0.097492315 0.24432167 -0.96478093 0.0052130935
33.423031 48.933743 247.76669 -0.10668133 0.24825455 -0.96280259 0.0053980052
35.036564 49.287865 247.60811 -0.11748104 0.2684522 -0.95610237 0.0077792769
35.358124 49.278999 247.63071 -0.11922682 0.27191556 -0.95490676 0.0069070202
22.813198 50.050594 248.19229 -0.0051369187 0.2451411 -0.96947384 0.010545035
23.670084 50.082478 248.05501 -0.012277074 0.24604203 -0.96918142 0.0096487729
24.734482 50.042084 248.18481 -0.025876636 0.24813634 -0.96837944 0.0085299341
25.84602 50.050793 248.03076 -0.040594615 0.24843574 -0.9677974 0.0067629092
26.916906 50.025265 247.9623 -0.054115713 0.2509242 -0.96649289 0.0071279029
28.024096 50.077087 248.01465 -0.066584744 0.24904771 -0.96619958 0.0060234335
29.209492 50.046848 248.01857 -0.078919008 0.24641849 -0.96594495 0.0059964955
30.306641 50.061722 248.22545 -0.086282223 0.24606217 -0.96540606 0.0063820793
31.463551 50.04007 248.17769 -0.091958016 0.25015995 -0.96382767 0.0069444776
32.456215 50.189827 247.7673 -0.097610235 0.25439602 -0.96216154 0.0062958063
33.591808 50.035645 247.71712 -0.10678796 0.26050967 -0.95954728 0.0062600388
34.414398 50.432304 247.74918 -0.1102339 0.2714985 -0.95610511 0.0097602867
35.713989 49.975834 247.59186 -0.12208498 0.27429444 -0.95386469 0.0084352074
22.908979 50.769478 247.81573 -0.0037427896 0.2379396 -0.97127271 0.010126974
23.612434 51.006363 248.40166 -0.010577741 0.23723449 -0.97139478 0.0096659539
24.763901 50.956055 248.33995 -0.023261009 0.23932657 -0.97066051 0.0088478141
25.837097 51.148888 248.24345 -0.038110055 0.24162076 -0.96962214 0.0081622098
26.919374 51.096539 248.29579 -0.052885499 0.24629703 -0.96775037 0.0067830924
28.074972 51.16003 248.11906 -0.069457866 0.24565281 -0.9668662 0.0053240596
29.18395 51.082081 248.32433 -0.08147832 0.24817471 -0.96528262 0.0076514706
30.236658 51.060734 248.12563 -0.085964657 0.25175297 -0.96396607 0.0083449818
31.353636 51.160461 248.18671 -0.089948043 0.25460958 -0.96285164 0.0072470484
32.441898 51.036488 248.16928 -0.096060671 0.25903633 -0.96107882 0.0075533753
33.502827 51.133167 248.06453 -0.10438549 0.26428786 -0.95877814 0.0074045872
34.542965 51.113564 247.88026 -0.11090497 0.26803941 -0.95700306 0.0086082406
35.817017 50.723522 247.64847 -0.1230131 0.27342597 -0.95399481 0.0089921299
36.583794 51.509632 247.59952 -0.13219155 0.26923338 -0.95395952 0.0087279929
39.083549 51.22855 247.75464 -0.17628376 0.25987867 -0.94941413 0.012329507
39.668236 51.498795 247.61636 -0.18150432 0.25995579 -0.94840878 0.012392366
24.786596 52.143291 248.24527 -0.019246357 0.23177382 -0.9725793 0.0085495654
25.844221 52.206917 248.33159 -0.035408463 0.23119503 -0.9722628 0.0057551828
26.986826 52.052902 248.36345 -0.052282341 0.23471765 -0.97065657 0.0051051774
28.054129 52.19302 248.30861 -0.069083206 0.23448861 -0.96966112 0.0046006893
29.207026 51.911591 248.38918 -0.081129938 0.24426097 -0.96630979 0.0081593553
30.17543 51.821815 248.39674 -0.083647534 0.25015196 -0.9645865 0.0084633538
31.143198 51.730015 248.40987 -0.087992989 0.25250214 -0.96358699 0.007718157
32.771103 52.203487 248.5078 -0.096293814 0.25697643 -0.96160835 0.0073180543
33.678497 52.309059 248.3455 -0.10319905 0.26081783 -0.95985627 0.0078129061
34.739964 52.367222 247.90657 -0.11055858 0.26874331 -0.95684576 0.0092708515
35.891132 52.381615 247.90157 -0.12543067 0.26622084 -0.95571631 0.0081339907
36.701862 52.26231 247.87439 -0.13608553 0.26327717 -0.95507377 0.0083815716
37.791584 52.382259 247.67912 -0.15199365 0.26262206 -0.95285237 0.01106218
39.093586 52.386013 247.66422 -0.17660835 0.25849789 -0.94973069 0.012509617
39.667812 52.261963 247.86407 -0.17999713 0.26130933 -0.94832402 0.012782454
25.687569 53.120701 248.36833 -0.03221377 0.21949902 -0.97508073 0.003763003
31.752111 53.655689 248.43642 -0.087785907 0.24467413 -0.9656232 0.0067783277
32.778355 53.526218 248.16901 -0.094475642 0.25293738 -0.96285874 0.0083487276
33.491142 53.474621 248.30441 -0.099302538 0.25332862 -0.96227002 0.006696241
34.55127 53.220886 248.17833 -0.10798877 0.26049086 -0.95941806 0.0082769329
35.708973 53.073811 248.08688 -0.12316895 0.264395 -0.95651704 0.0094204117
36.843048 53.094093 247.84502 -0.14121552 0.25757283 -0.9558841 0.0083353566
37.879093 53.121845 247.70561 -0.15622796 0.25608468 -0.95394623 0.010471231
31.875347 54.106033 248.45093 -0.087260522 0.24199985 -0.96634454 0.0063639167
32.347168 54.061813 248.56723 -0.090384059 0.24924497 -0.96421349 0.0087984074
33.532001 54.202496 248.18733 -0.098411337 0.24484402 -0.96455514 0.0056901388
-29.1612 -101.35413 248.70995 0.29495147 0.31821936 -0.90096617 0.010503632
-29.937269 -100.50737 248.77235 0.29577878 0.30951473 -0.90372318 0.0090248426
-29.154465 -100.60999 248.91768 0.28768346 0.30595469 -0.90754056 0.0083903223
-28.197609 -100.58826 249.32164 0.28373143 0.29924226 -0.91101611 0.0069429404
-27.230158 -100.38318 249.56221 0.27909857 0.29630536 -0.91340411 0.008631438
-31.49531 -99.285873 248.79378 0.31519932 0.30568606 -0.89844614 0.010102778
-30.252068 -99.578972 249.08157 0.29010728 0.29795697 -0.90942806 0.0087925466
-29.230249 -99.598053 249.38927 0.28320891 0.2906878 -0.91394383 0.0071205548
-28.366983 -99.62516 249.47646 0.28244397 0.2885769 -0.91484904 0.0067201438
-33.099167 -98.477463 248.63121 0.3401362 0.30440265 -0.88974512 0.010156278
-32.25882 -98.226242 248.91553 0.32411146 0.29947886 -0.89736515 0.010256501
-31.392071 -98.411743 249.07594 0.30100077 0.29408467 -0.90714538 0.010219128
-30.308962 -98.625511 249.427 0.28444514 0.28585085 -0.91508484 0.0095620435
-29.450903 -98.695488 249.59856 0.28204328 0.28398159 -0.91640937 0.0053674076
-33.271584 -97.165794 249.002 0.33613172 0.29550904 -0.89425385 0.005834009
-32.4753 -97.363014 248.995 0.32276633 0.29132667 -0.90052795 0.0078645851
-31.572714 -97.43222 249.48006 0.29396296 0.28311783 -0.91292387 0.010646407
-30.556646 -97.640625 249.60033 0.28502733 0.28363347 -0.9155935 0.011576989
-34.594933 -96.272034 248.63986 0.34857494 0.2987107 -0.88840729 0.0089249769
-33.428982 -96.157585 249.0825 0.33373794 0.28655422 -0.89805663 0.0053411047
-32.471558 -96.288948 249.45905 0.31114474 0.27794108 -0.90881115 0.0067463522
-34.375031 -95.211098 248.80933 0.34572875 0.2900967 -0.89236504 0.0081875362
-33.519627 -95.15271 249.29602 0.3308672 0.27915859 -0.90144187 0.0070440155
-32.533047 -95.365768 249.54083 0.31036797 0.27529129 -0.90988266 0.0070658829
-34.36031 -94.242027 248.92639 0.34547728 0.28263947 -0.8948521 0.0092515768
-33.459293 -94.400536 249.45467 0.32874086 0.27386048 -0.90384179 0.0082523609
-32.661346 -94.112389 249.52979 0.31764805 0.26992264 -0.90897828 0.0081240404
-2.4988444 -81.681091 248.91537 0.4549171 0.42825344 -0.78080052 0.010953655
-1.7870319 -81.860619 249.18172 0.43602091 0.43390968 -0.78842133 0.0095536057
-0.61840069 -82.079208 249.53801 0.40565151 0.44487426 -0.79845709 0.010602845
0.45711055 -82.470375 249.53188 0.37551248 0.46721125 -0.80043989 0.015270449
-4.546864 -80.361954 248.76302 0.50975078 0.37996522 -0.77186829 0.012086326
-3.6779983 -80.778084 249.07071 0.48732835 0.40048489 -0.77596581 0.013004093
-2.7773335 -81.049797 249.16359 0.46356422 0.41669315 -0.78196865 0.012639016
-4.8612504 -79.57357 249.10909 0.51633418 0.36408481 -0.77513957 0.010770218
-4.0943613 -79.866867 249.42496 0.49705932 0.38046938 -0.77985585 0.012420657
-6.0235987 -78.506958 248.88582 0.53708559 0.34499404 -0.76975203 0.0085400706
-5.2740316 -78.783318 249.21204 0.52221036 0.35359946 -0.77605653 0.0099855838
-6.7975354 -77.486542 248.75064 0.55816466 0.32131404 -0.76498991 0.0084058568
-6.0646482 -77.576508 249.32802 0.53895187 0.32995069 -0.77502483 0.0077649918
-5.4553356 -77.940376 249.35341 0.5258497 0.34519666 -0.77738112 0.0096800663
-7.006186 -76.361938 249.19934 0.56831968 0.3052513 -0.76409054 0.0090017105
-6.3655729 -76.846436 249.47099 0.54664803 0.31795299 -0.7746495 0.0072365254
-7.9366708 -75.375511 248.813 0.60546833 0.2840133 -0.74346787 0.011168681
-7.1705523 -75.350861 249.44614 0.57836759 0.29043004 -0.76232618 0.0095058354
-7.9525986 -74.275246 249.03722 0.61233151 0.26921302 -0.74335355 0.01181379
-7.4077229 -74.327431 249.47971 0.59103489 0.27589676 -0.75799656 0.0099718552
-8.0928879 -73.226913 248.89925 0.6254729 0.25333008 -0.73797524 0.011373225
-7.3471298 -73.174889 249.37032 0.60214108 0.25973159 -0.7549606 0.0097677223
80.88784 -12.702822 248.66022 0.49181169 0.28483686 -0.82279354 0.020329928
79.752182 -11.808212 248.79288 0.47390535 0.28399631 -0.8335225 0.018876595
81.00116 -11.203907 248.90594 0.50095242 0.26567325 -0.82368952 0.015985344
81.804344 -11.43672 249.29375 0.51592177 0.26044413 -0.81608427 0.01520435
79.076385 -10.071004 248.7475 0.47931752 0.26437151 -0.83687663 0.016114252
79.925751 -10.190562 248.76143 0.49202955 0.25961202 -0.83096844 0.015588204
80.737289 -10.483866 249.17043 0.50626826 0.25373149 -0.82420433 0.015089456
81.47905 -10.799627 249.49806 0.5176155 0.25126553 -0.81788749 0.014605379
79.107979 -9.7175646 248.66948 0.48247606 0.2584298 -0.83691752 0.015269278
79.927986 -9.3982325 248.97668 0.50565451 0.2379588 -0.82927018 0.014125294
80.668716 -9.371562 249.3429 0.52187783 0.22521167 -0.82275343 0.013239242
79.894875 -8.2739086 249.05467 0.52899104 0.19687331 -0.82547522 0.011599979
80.44371 -8.3201847 249.52426 0.54119933 0.18837678 -0.81952268 0.011398976
79.855347 -7.1461248 249.08249 0.55037034 0.15907142 -0.81962723 0.0091825994
80.423676 -7.2755613 249.57523 0.55929315 0.1549861 -0.81435281 0.0092075048
79.911118 -6.0701447 249.01898 0.56261086 0.13657029 -0.81536347 0.0064179995
79.529129 -4.9076095 248.76022 0.56914556 0.12181196 -0.81316364 0.005507783
79.798706 -4.359787 249.03296 0.57384723 0.11444512 -0.81092638 0.0051905299
80.506912 -4.3615594 249.58237 0.57945484 0.10974517 -0.8075816 0.0056410125
77.97538 3.2632558 249.69046 0.49338374 0.09046194 -0.8650949 0.0076973261
77.219208 5.067224 249.6153 0.44429675 0.031488545 -0.89532614 0.011568421
76.867012 6.3190742 249.52733 0.40618438 -0.012013751 -0.9137122 0.010983455
77.130196 5.6077261 249.66539 0.41572797 0.0050025932 -0.90947527 0.0099296411
76.579781 7.2968812 249.60602 0.40237761 -0.031302229 -0.91493857 0.013020541
75.718918 9.3166943 249.56737 0.44127446 -0.047330949 -0.89612311 0.014016962
76.064445 9.6597185 249.53459 0.43597242 -0.049473431 -0.89859915 0.014201907
75.706215 10.600422 249.38469 0.45072553 -0.064566053 -0.89032453 0.014957476
76.192589 10.40796 249.6331 0.44295526 -0.056820348 -0.8947413 0.015021508
75.666481 11.501344 249.15796 0.45939842 -0.081329778 -0.88449901 0.01431228
76.288231 11.631633 249.5094 0.44621125 -0.077361383 -0.89157766 0.014148564
75.678574 12.555751 248.85211 0.46569669 -0.10554134 -0.87862819 0.013355479
76.565422 12.70957 249.17418 0.45396432 -0.098737977 -0.88553214 0.013342942
77.173546 12.801212 249.63484 0.44003043 -0.093562976 -0.89309531 0.012208574
76.575966 13.582744 248.94756 0.46001399 -0.12546591 -0.87900257 0.012495986
77.45256 13.728307 249.2226 0.44496521 -0.12201074 -0.88719743 0.010796192
78.525772 13.968785 249.63312 0.42931074 -0.11965571 -0.89519542 0.011266205
79.807022 13.943233 249.69687 0.41956979 -0.11485159 -0.90042788 0.012257921
77.660034 14.818546 248.85774 0.44980747 -0.15889747 -0.87887704 0.0096388822
78.62178 14.78298 249.3167 0.44047472 -0.14886241 -0.88533729 0.010974422
79.384346 14.816389 249.59306 0.43331662 -0.144693 -0.88955081 0.012180176
78.616676 15.563742 249.10721 0.43964046 -0.18368453 -0.87919074 0.009368645
79.359802 15.662764 249.05194 0.43651253 -0.18621726 -0.88021588 0.010253407
21.65258 46.836639 248.97461 -0.0078194784 0.25296998 -0.96744251 0.011256156
21.582354 47.571484 248.64032 -0.0047810506 0.2500903 -0.9682107 0.012418238
30.621529 47.65406 248.82959 -0.085394144 0.23898341 -0.96726149 0.0037884107
23.549644 48.715881 248.75827 -0.011652323 0.25569722 -0.96668673 0.0097637316
30.246513 48.884258 248.72876 -0.084146746 0.24057361 -0.96697658 0.0048131789
31.226187 49.109379 248.72954 -0.091424778 0.24256121 -0.96581864 0.0066029355
23.88994 50.132744 249.0717 -0.012321831 0.24013534 -0.97066122 0.0080468385
24.240993 50.2192 248.83604 -0.018041285 0.24337235 -0.96976513 0.010157476
23.952095 51.138 248.81175 -0.012842305 0.23609306 -0.97164559 0.0099888034
24.394516 51.373951 248.78661 -0.017056953 0.23422834 -0.97203195 0.0095770238
31.736933 51.569363 248.83986 -0.090147808 0.25233006 -0.96343291 0.0071922713
32.447105 51.438366 248.82182 -0.094615825 0.25672069 -0.96184325 0.0075901956
33.3787 51.475201 248.6268 -0.10230654 0.26129457 -0.95982212 0.0074807601
25.964767 52.670368 248.65865 -0.035362892 0.22216022 -0.97436869 0.0035865556
26.902594 52.564068 248.93958 -0.049485587 0.22565083 -0.97295058 0.0034129187
28.214752 52.511353 248.7701 -0.070300423 0.23097697 -0.97041613 0.0051634572
29.174128 52.421017 248.8557 -0.079117 0.24124627 -0.9672336 0.0086048059
30.348124 52.301449 248.94257 -0.08278282 0.24699664 -0.96547383 0.0083662486
31.396664 52.286873 248.93159 -0.087386422 0.24804573 -0.96479893 0.0066206292
32.244572 52.239914 248.87086 -0.091676421 0.25142661 -0.96352482 0.0066612889
33.396816 52.288692 248.73531 -0.10008487 0.25929272 -0.96059889 0.0077740778
26.17259 53.049713 248.86125 -0.038511667 0.21797282 -0.97519469 0.0024369613
26.862551 53.286865 249.17563 -0.047430139 0.21788312 -0.97482175 0.0032954402
28.088234 53.261673 249.03615 -0.065456353 0.22623616 -0.97187072 0.0059696632
29.146261 53.255596 249.09021 -0.075679012 0.235322 -0.96896654 0.0082290228
30.184162 53.260632 249.05602 -0.080022499 0.24208407 -0.9669497 0.0081751952
31.276112 53.320808 248.98555 -0.085130006 0.24328278 -0.96621233 0.0072514648
32.236523 53.224182 248.9794 -0.090940982 0.25050041 -0.96383572 0.0085280742
34.11097 53.694611 248.62822 -0.10136029 0.2539556 -0.96189016 0.0073922034
27.280289 53.944561 248.89973 -0.052783284 0.22000618 -0.97406942 0.0052125822
27.934275 53.961811 248.85107 -0.061148249 0.22480261 -0.97248375 0.0057588392
29.231321 53.961864 248.84584 -0.073884219 0.23493434 -0.96919912 0.008999167
30.364939 53.957306 248.85367 -0.080181971 0.23980229 -0.96750492 0.0082848407
30.852564 53.96048 248.84334 -0.081814639 0.23914722 -0.96753037 0.0083432198
-26.578703 -100.34615 249.90042 0.27256688 0.29534492 -0.91568482 0.0071693673
-29.007473 -99.198441 249.76753 0.28268883 0.28646234 -0.91543782 0.0072682141
-27.875212 -99.432274 249.92711 0.28207284 0.28631198 -0.91567487 0.0059741791
-26.881092 -99.604218 250.1413 0.27768406 0.28825685 -0.9164058 0.0081184572
-25.814482 -99.649147 250.31517 0.27042186 0.28955591 -0.91816634 0.011165571
-25.012943 -99.391403 250.38074 0.2623249 0.28777602 -0.9210704 0.012782511
-30.007151 -98.29686 249.86333 0.28332561 0.28313026 -0.91627723 0.0079854755
-29.117281 -98.422104 250.01953 0.28293255 0.28428403 -0.91604131 0.0069460669
-28.088364 -98.358475 250.24368 0.28336334 0.2861037 -0.91534144 0.0086446498
-26.931622 -98.476631 250.48656 0.28003404 0.28755531 -0.91591102 0.010112992
-25.966225 -98.775383 250.68094 0.27250493 0.28778726 -0.91810656 0.012255708
-24.745928 -98.964508 250.77475 0.25903115 0.28658485 -0.922373 0.013896476
-23.581301 -98.868057 250.57166 0.24612221 0.283683 -0.92679441 0.017433234
-31.228054 -97.063652 249.83835 0.28697371 0.28347692 -0.91503382 0.011847058
-30.128353 -97.285118 250.09659 0.28436542 0.28545707 -0.91523254 0.010880883
-29.179401 -97.475151 250.38515 0.28329602 0.28559965 -0.9155196 0.0080396784
-28.325232 -97.373367 250.61559 0.2846148 0.28673407 -0.9147557 0.011178997
-26.713888 -97.686523 250.75047 0.27898604 0.28838581 -0.91596967 0.012495771
-31.414953 -96.240578 249.98883 0.28762266 0.28303403 -0.91496718 0.0096011087
-30.171881 -96.210464 250.42929 0.28484622 0.28544301 -0.9150874 0.012053565
-29.314117 -96.216568 250.70055 0.28353134 0.28536636 -0.91551954 0.0083386833
-21.450094 -96.18869 250.68022 0.20191413 0.2592212 -0.94447613 0.022740347
-33.37598 -94.628304 249.85068 0.32630649 0.27271068 -0.90507072 0.0091394624
-32.375721 -95.011055 249.91898 0.30638623 0.27601358 -0.91101265 0.0093177427
-31.399973 -95.178261 250.15747 0.28780681 0.28376693 -0.91468227 0.010923634
-30.45187 -95.133537 250.49161 0.28439993 0.28506204 -0.91534495 0.010782633
-33.36787 -94.022827 249.95781 0.32644349 0.27112824 -0.9054966 0.0084491251
-32.346981 -94.053902 250.0533 0.30872253 0.27324751 -0.91105777 0.0087456517
-31.389727 -94.053116 250.47501 0.28962219 0.28197575 -0.91466314 0.0095528169
-30.430862 -94.253784 250.73431 0.28343049 0.28503454 -0.91565418 0.008693804
-32.35453 -93.334137 249.9599 0.31139895 0.27122331 -0.9107517 0.0066123772
-31.405952 -92.962204 250.38667 0.29490718 0.2779049 -0.91422027 0.0077615674
-30.45561 -92.953964 250.74179 0.28306711 0.28310478 -0.91636497 0.0084763849
-30.890039 -92.266716 250.42868 0.29113993 0.27713531 -0.9156602 0.00878671
-30.585377 -92.13942 250.56577 0.28573346 0.27830243 -0.91700828 0.0083375946
0.90698141 -82.511032 249.71097 0.35944811 0.47241628 -0.80474836 0.015712099
1.6500427 -82.592743 250.08163 0.33056945 0.4690302 -0.81898379 0.013092566
2.8013823 -82.783463 250.29092 0.29050452 0.47224939 -0.83221853 0.0096241236
3.7222393 -82.81916 250.56775 0.26032203 0.47305375 -0.84169626 0.012253822
5.1799922 -83.011604 250.37947 0.21771018 0.48827866 -0.84509534 0.014112142
6.1155763 -83.013222 250.32495 0.1876816 0.49179274 -0.8502444 0.012826048
7.0415306 -83.034706 250.3734 0.15720451 0.4967761 -0.85352224 0.012897566
-1.487054 -81.648476 249.89253 0.42297935 0.42939648 -0.79793936 0.0091477912
-0.39141566 -81.838623 250.18805 0.39422044 0.43985233 -0.80692017 0.01191153
0.5109058 -82.092461 250.28523 0.36734673 0.44979203 -0.81409061 0.014511782
1.5685354 -82.265388 250.56323 0.32987386 0.45100918 -0.82932138 0.013302285
-2.7846444 -80.585869 250.01413 0.4578703 0.40892223 -0.78939056 0.012229617
-1.8406924 -80.878922 250.35007 0.42984426 0.41607055 -0.80132335 0.009735018
-0.83303708 -81.243561 250.59795 0.4018653 0.42637938 -0.81037337 0.011134327
-3.6171074 -79.697563 249.95613 0.48335803 0.38893914 -0.78427762 0.013907045
-2.8234844 -79.745461 250.32382 0.46004277 0.39758307 -0.79390705 0.013138936
-2.1921008 -79.96637 250.60249 0.43892628 0.40225917 -0.80344963 0.010491392
-4.7751875 -78.460884 249.93889 0.51204121 0.3554185 -0.7819792 0.011216345
-3.8653936 -78.645981 250.25513 0.49190402 0.36994976 -0.78814191 0.013793176
-2.9731221 -78.926682 250.65691 0.46558118 0.38295937 -0.79785722 0.014737939
-5.9280381 -77.218666 249.72284 0.53548402 0.32732895 -0.77853239 0.007659107
-5.0875058 -77.548233 250.1311 0.51693529 0.34477127 -0.78352451 0.010078759
-4.1413012 -77.871094 250.50061 0.50036293 0.35720235 -0.7886973 0.014286357
-6.0177727 -76.394867 250.08186 0.53944421 0.31757063 -0.77983898 0.0080649005
-5.2256241 -76.560654 250.5054 0.52251762 0.3306388 -0.78590924 0.0098326588
-6.6649833 -75.296875 249.90289 0.56111789 0.29668242 -0.77273941 0.0092835231
-6.1015625 -75.38929 250.27513 0.54709339 0.30360508 -0.78007227 0.0087723173
-5.4117117 -75.459381 250.75319 0.53190249 0.31417221 -0.78636861 0.0096683186
-6.8619514 -74.249809 249.94998 0.57402551 0.28038785 -0.76933563 0.0079824384
-6.0570993 -74.271744 250.47083 0.5548526 0.28889543 -0.78017825 0.0095605636
-5.3056612 -74.432396 250.74625 0.54045177 0.30119103 -0.78561819 0.011614598
-6.773386 -73.457703 249.9395 0.57925999 0.27109087 -0.76874417 0.0080191549
-6.0143676 -73.317131 250.2354 0.56321299 0.27723485 -0.77841628 0.0094975606
-5.2153869 -73.255951 250.65742 0.54926008 0.28163919 -0.78676087 0.012311317
81.794411 -11.224625 250.00804 0.52533847 0.2504409 -0.81320292 0.014737229
81.247543 -10.141788 250.08313 0.52843505 0.23130955 -0.81685507 0.013903175
81.815819 -10.424899 250.1927 0.53640079 0.23169847 -0.8115356 0.014189487
81.097946 -9.2272768 250.02663 0.54100287 0.20557491 -0.81550896 0.013062184
81.502075 -9.5891647 250.16631 0.54330039 0.21129751 -0.81251341 0.013792987
80.923927 -8.3064785 250.17307 0.55719471 0.17383538 -0.81198233 0.01120618
81.537048 -8.1914291 250.64206 0.57024258 0.16114941 -0.80551481 0.0098755034
80.926537 -7.1384649 250.22336 0.57221639 0.14343317 -0.80746222 0.008519439
81.625824 -7.160696 250.62172 0.58193761 0.13846362 -0.80135912 0.008148904
80.092033 -5.7248135 249.71484 0.57170492 0.12703748 -0.8105647 0.0061075618
80.626839 -6.2870355 250.16478 0.57513523 0.13122854 -0.80746424 0.0067082113
80.790337 -4.6713467 250.61572 0.58209014 0.10925956 -0.80575019 0.0049355822
81.565826 -4.719027 250.76115 0.58596152 0.10679363 -0.803271 0.0052110818
80.161461 -3.7855957 249.88167 0.57837987 0.10709405 -0.80870742 0.0056721629
80.666328 -3.9141529 250.42519 0.58119845 0.1055937 -0.80688184 0.0053627877
80.1306 -2.7652745 250.35092 0.57677174 0.10580654 -0.81002426 0.0052930629
80.608841 -2.756485 250.68074 0.57907206 0.10469979 -0.8085255 0.0053614681
80.164299 -1.6443378 250.48407 0.57305652 0.10919513 -0.81220847 0.0060289218
80.478424 -1.810526 250.47951 0.57654285 0.10808493 -0.80988646 0.0062653739
79.88221 -0.35930154 250.6302 0.56046349 0.11372261 -0.82033402 0.0067715254
80.468597 -1.0629287 250.7509 0.5693965 0.11024468 -0.81463724 0.0065498129
78.959892 0.93465239 250.75896 0.54519469 0.11540857 -0.83032739 0.0076398044
79.603004 0.54909027 250.65099 0.549321 0.11433838 -0.82775187 0.007141476
78.9151 1.7413666 250.51294 0.5334639 0.11151019 -0.83844006 0.0079891402
79.545975 1.5201362 250.64594 0.53501511 0.1101263 -0.83763421 0.0076369415
78.678238 2.7439961 250.38268 0.50557524 0.096832737 -0.8573314 0.0080635492
79.554802 2.841799 250.67314 0.50405926 0.091618262 -0.85879588 0.0086869868
77.918854 3.9350314 250.21158 0.47097331 0.06843695 -0.87948877 0.0076436326
78.665199 3.7698147 250.50354 0.47630474 0.072155453 -0.87631464 0.0081780152
79.754372 3.8190556 250.73747 0.47590676 0.069785789 -0.87672263 0.0086614015
80.415016 4.2496629 250.76968 0.45984685 0.056308117 -0.88621122 0.0088977274
77.699707 5.0820088 250.15614 0.434744 0.027182564 -0.90014374 0.0097421203
78.568016 5.0090466 250.49678 0.43153515 0.029650293 -0.90160865 0.0080521218
76.813438 6.0262971 249.7538 0.40929344 -0.0059511811 -0.91238344 0.010447505
77.536621 6.0892315 250.25359 0.41508263 -0.0017489492 -0.90978199 0.011052414
78.369553 5.9209595 250.51341 0.41723242 0.0039598136 -0.90879124 0.01043175
76.639603 7.3029823 250.01132 0.40374875 -0.029350275 -0.91439897 0.01324372
77.627068 7.1702957 250.40366 0.40215158 -0.024510462 -0.915245 0.012407194
78.309761 6.6428494 250.60376 0.40943977 -0.0092590619 -0.91229022 0.010939505
75.879677 7.8188152 250.07951 0.41030398 -0.036179341 -0.91123092 0.013897522
76.462578 8.2604179 250.13632 0.40872973 -0.036027834 -0.91194409 0.01454128
77.45266 8.2184267 250.42598 0.40243813 -0.033170916 -0.91484606 0.014055339
75.692505 9.2718573 249.70943 0.43855551 -0.046976652 -0.89747548 0.013431047
76.478172 9.3656855 250.01811 0.41963243 -0.043636672 -0.90664458 0.014347048
77.549271 9.3275652 250.56343 0.40031907 -0.0402449 -0.91549164 0.014546816
78.264885 9.433569 250.746 0.40035325 -0.038644295 -0.91554564 0.014751649
76.603134 10.454217 249.92047 0.43238646 -0.054922484 -0.90001422 0.014832829
77.514412 10.433921 250.34016 0.40890259 -0.050501373 -0.91117966 0.015326964
78.360298 10.669859 250.74248 0.39820907 -0.050208867 -0.91591948 0.015165356
76.649971 11.57367 249.81715 0.43942869 -0.071629889 -0.89541698 0.014269415
77.505318 11.495202 250.21303 0.42555881 -0.064662084 -0.90261763 0.014864774
78.56636 11.654589 250.58595 0.40326619 -0.063065365 -0.912907 0.014992653
79.350159 11.61268 250.70703 0.39334381 -0.05963074 -0.91745561 0.015905388
77.668053 12.510348 250.01381 0.43153757 -0.083085261 -0.89826053 0.013126084
78.628052 12.669397 250.34062 0.41878697 -0.081309095 -0.90443701 0.013440287
79.380684 12.773617 250.56242 0.40682527 -0.080208495 -0.90997797 0.015356697
77.836967 13.746292 249.8121 0.43610728 -0.11656786 -0.892313 0.011253596
78.631409 13.706798 249.98291 0.42674351 -0.11056426 -0.89758873 0.012055895
79.792511 13.805634 250.3549 0.41711342 -0.10789356 -0.90242755 0.014104609
80.637245 13.705914 250.42345 0.40555298 -0.10322516 -0.90822428 0.015255257
79.163971 14.564569 249.85614 0.43403977 -0.13398995 -0.89087379 0.013429433
79.804909 14.65455 249.91582 0.42603815 -0.13624118 -0.89438796 0.013789468
80.491524 14.345239 250.51898 0.41904685 -0.12343735 -0.89953488 0.014387252
26.670723 53.258633 249.8224 -0.044127233 0.21439946 -0.97574878 0.0028887354
-24.762371 -99.018448 251.08905 0.2589601 0.285864 -0.92261666 0.014928423
-26.626503 -98.220009 250.82542 0.27716777 0.28940773 -0.91619933 0.011822675
-25.735672 -98.345375 250.87749 0.27133909 0.28773829 -0.9184671 0.015075045
-24.750999 -98.403961 251.13568 0.25920787 0.28491071 -0.92284185 0.015320156
-23.69422 -98.332291 251.53442 0.24386746 0.27825701 -0.92903262 0.017588155
-22.914772 -98.449646 251.25032 0.23018241 0.27629957 -0.93309939 0.019402744
-28.855179 -97.050385 250.84799 0.28367609 0.28544652 -0.91544974 0.0085820938
-27.771175 -97.193947 251.07335 0.28427425 0.28624392 -0.91501504 0.010284082
-26.883623 -97.244255 251.08664 0.27921009 0.28826469 -0.91593957 0.011708032
-25.808342 -97.321663 251.26556 0.27070317 0.28793451 -0.91859323 0.016565304
-24.742357 -97.365616 251.43181 0.25716946 0.28280848 -0.92405802 0.016251756
-23.373917 -97.283333 251.74283 0.23744172 0.27253988 -0.93238586 0.018694295
-22.573763 -97.335655 251.08667 0.22566937 0.27052006 -0.93589115 0.020041099
-21.798483 -97.179688 251.02362 0.21029837 0.26585484 -0.94079536 0.021469004
-28.904139 -96.314041 250.9183 0.28381228 0.28504139 -0.91553378 0.0085448874
-28.130129 -96.276123 251.19852 0.28349122 0.28630841 -0.91523778 0.0090121049
-26.866884 -96.243156 251.41748 0.27640507 0.28874555 -0.91663855 0.01141061
-25.796377 -96.27227 251.49843 0.26679021 0.28610668 -0.92030758 0.015565331
-24.890785 -96.369415 251.78212 0.25456744 0.27754894 -0.92637032 0.015178455
-23.356106 -96.648369 251.67229 0.23782882 0.26881137 -0.93336916 0.018566886
-22.544241 -96.287292 251.47417 0.22184736 0.2633543 -0.93884414 0.018321257
-21.660053 -96.265053 251.13077 0.20553105 0.2588369 -0.94380111 0.020936295
-29.864923 -95.241142 250.92126 0.28436816 0.28480935 -0.91543347 0.0095935334
-29.106255 -95.114456 251.13873 0.28394359 0.2832925 -0.91603571 0.0073156608
-28.071581 -95.135345 251.41559 0.28221977 0.28592119 -0.9157517 0.0076456978
-27.006729 -95.185822 251.61751 0.27312773 0.28715912 -0.91811812 0.010447684
-26.130463 -95.400414 251.66087 0.2651881 0.28293535 -0.92174989 0.013534203
-25.181385 -95.413391 251.87947 0.25345728 0.27175936 -0.92838907 0.011069414
-22.446047 -95.126129 251.48476 0.21527898 0.25616562 -0.94235557 0.016156098
-21.692249 -95.425171 251.23358 0.20407151 0.25261244 -0.94580221 0.019936971
-30.933586 -93.588737 250.83534 0.28323409 0.28543311 -0.91559076 0.008528702
-30.027584 -93.978989 251.02815 0.28320736 0.28499392 -0.91573578 0.0079311896
-29.148855 -94.066795 251.27722 0.28240603 0.28330344 -0.91650748 0.004624736
-28.060234 -94.088264 251.66246 0.27798903 0.28198093 -0.91826397 0.0062271669
-27.024904 -94.142395 251.66765 0.26604757 0.28149998 -0.92194164 0.0085181994
-26.377062 -94.276093 251.71158 0.25867245 0.27705559 -0.92538029 0.0089382883
-23.28521 -93.529755 251.66158 0.22008084 0.25143886 -0.94251949 0.01342741
-22.622976 -94.225227 251.429 0.21400441 0.25118047 -0.94398648 0.014070063
-30.920084 -92.961632 250.81924 0.28488302 0.28237632 -0.91602695 0.0066007185
-30.064157 -92.936981 251.19505 0.28192875 0.28153327 -0.91719973 0.0063545317
-29.131691 -92.937744 251.49605 0.27980438 0.27773762 -0.91900569 0.0035560906
-28.29389 -92.949478 251.70714 0.27286032 0.27422357 -0.92214346 0.0046459804
-27.283751 -93.492195 251.75719 0.26403168 0.27802065 -0.92357558 0.007201571
-23.341764 -92.81189 251.57947 0.21617405 0.24437575 -0.94527733 0.013756448
-30.055882 -92.042091 251.19473 0.28007105 0.27704978 -0.91913199 0.0076417075
-29.141943 -91.885284 251.46687 0.27328867 0.26853719 -0.92368883 0.0047713979
-28.246651 -91.875519 251.73256 0.25932822 0.26384053 -0.9290517 0.0046201963
-24.053371 -91.856926 251.78984 0.21754543 0.24113216 -0.9457956 0.012613456
-28.747263 -91.187851 251.20964 0.26275665 0.26019514 -0.92911643 0.0058230455
-27.917053 -90.897896 251.69762 0.24844725 0.25172886 -0.93536437 0.0090598287
-24.457109 -91.01004 251.62877 0.2146306 0.23382609 -0.94829273 0.010482562
2.6403959 -82.519012 251.25494 0.28927973 0.44799933 -0.84593964 0.011303633
3.8827043 -82.601318 251.19066 0.25147077 0.45680732 -0.85328162 0.014002748
4.9568458 -82.710236 251.27414 0.21910997 0.45824158 -0.86139745 0.013344244
6.0244813 -82.758873 251.45276 0.18674189 0.45746598 -0.8693977 0.01358525
7.1013136 -82.788139 251.53116 0.15278581 0.45294484 -0.87834936 0.013031571
8.292407 -82.796555 251.49469 0.11777802 0.4511179 -0.88465869 0.013103298
9.2630529 -82.756622 251.62904 0.09163183 0.44799051 -0.88933015 0.014659954
10.353344 -82.685944 251.59744 0.066994734 0.44019467 -0.89539951 0.014314344
11.012261 -82.618591 251.20772 0.050517797 0.44546154 -0.8938747 0.01414275
-1.3198546 -81.436066 250.80844 0.41156378 0.42576844 -0.80581421 0.010621543
-0.091749132 -81.624092 250.88361 0.37927809 0.43105215 -0.81874424 0.012287103
0.5739646 -81.694069 250.92906 0.35999796 0.43503776 -0.82531422 0.014789447
1.6095397 -81.809334 251.23486 0.32389912 0.43397218 -0.84068865 0.013439854
2.7585487 -82.115128 251.40994 0.2864514 0.43949968 -0.85134345 0.012134692
3.9154744 -82.17852 251.68298 0.24886437 0.44240069 -0.86159623 0.014225093
4.7716765 -82.330238 251.75874 0.22147809 0.44488832 -0.86776835 0.012177856
10.967492 -82.409874 251.75494 0.055259086 0.42494747 -0.90352982 0.012954555
-1.3036021 -80.663132 250.88147 0.41203403 0.41447252 -0.81144345 0.011438781
-0.45507681 -80.770859 251.15497 0.38799301 0.41510874 -0.82288897 0.011630142
0.5034861 -80.804771 251.48242 0.35753247 0.41438359 -0.83693296 0.012987575
1.4881078 -81.206261 251.74461 0.32504442 0.41975185 -0.84743994 0.014128777
-2.3588254 -79.478378 250.9343 0.44317356 0.39481223 -0.80481082 0.012611407
-1.6110598 -79.77211 251.17516 0.41937578 0.39873886 -0.81555581 0.011334895
-0.64347488 -79.895927 251.55397 0.39046332 0.40155479 -0.82842755 0.011046941
0.33947498 -80.089096 251.85449 0.36006913 0.40170735 -0.84201038 0.012912139
