# .PCD v0.7 - Point Cloud Data file format
VERSION 0.7
FIELDS x y z normal_x normal_y normal_z curvature
SIZE 4 4 4 4 4 4 4
TYPE F F F F F F F
COUNT 1 1 1 1 1 1 1
WIDTH 610
HEIGHT 1
VIEWPOINT 0 0 0 1 0 0 0
POINTS 610
DATA ascii
34.656178 -21.066637 229.58949 0.052356586 0.22424053 -0.97312641 0.0069622775
15.090627 -19.639477 229.64439 -0.031169707 0.13042963 -0.99096745 0.0095424447
16.902077 -18.995455 229.71625 -0.02393337 0.15801241 -0.98714703 0.0066197831
25.104338 -19.347099 229.80847 -0.032319713 0.20668055 -0.97787452 0.0032399374
27.68363 -19.718964 229.869 -0.034911901 0.20948696 -0.97718799 0.0050489656
28.967628 -19.763948 229.99706 -0.035604399 0.20903622 -0.97725952 0.0038025698
31.011898 -19.673466 229.91138 -0.039613258 0.20583132 -0.97778541 0.0045432202
33.470711 -19.216671 229.78641 -0.035166934 0.19517866 -0.98013699 0.0046919258
34.252296 -19.471996 229.38113 -0.0011569073 0.20558976 -0.97863764 0.0040427512
21.299763 -16.790604 229.75552 -0.023207372 0.1716308 -0.98488802 0.00684781
29.767965 -16.353777 229.75513 -0.052668925 0.16961914 -0.9841013 0.0027355601
31.580606 -17.574657 229.87614 -0.057456415 0.17948128 -0.98208213 0.0049684867
75.162857 -170.18079 231.74384 0.52218664 0.38464141 -0.76116502 0.013380198
76.344757 -171.61119 231.4406 0.50263643 0.44305861 -0.74233127 0.0084170559
74.866898 -169.71013 231.76416 0.52407128 0.37165052 -0.76630622 0.013159022
-12.837726 -102.40554 230.19128 -0.069172598 0.25002152 -0.96576619 0.012535874
-18.57165 -100.59688 230.05659 -0.058688335 0.28598467 -0.95643532 0.015653543
-16.8223 -100.31817 230.1483 -0.069905512 0.28585142 -0.95572078 0.013789084
-14.873667 -100.74599 230.43845 -0.065872386 0.26508802 -0.96197146 0.012707985
-13.224608 -100.92466 230.24002 -0.068992563 0.25316495 -0.96495986 0.013988145
-20.373112 -98.266464 230.1951 -0.097850882 0.38318956 -0.91847211 0.021615056
-18.863663 -98.678093 230.45 -0.096151643 0.36077204 -0.92768437 0.01734945
-16.968124 -98.922829 230.56749 -0.086777702 0.33922088 -0.93669569 0.015540094
-14.951451 -99.027481 230.86273 -0.077740416 0.322081 -0.94351482 0.015385341
-13.312181 -98.844078 230.49971 -0.071816631 0.30200458 -0.95059747 0.017407151
-11.853391 -98.702606 230.2491 -0.072299659 0.27896836 -0.95757473 0.019640056
-20.724756 -97.044502 230.55803 -0.12477111 0.41902709 -0.89936 0.018752703
-19.000324 -96.965309 231.1512 -0.13122778 0.40063584 -0.90679109 0.016186934
-16.999895 -97.00061 231.44458 -0.12518014 0.38131189 -0.91593176 0.014221299
-14.922786 -97.01062 231.2131 -0.11413903 0.36021668 -0.92585975 0.014745346
-13.131764 -96.934814 230.50511 -0.098362215 0.33789718 -0.93602902 0.015504627
-11.862656 -97.045792 230.22491 -0.08372815 0.31938431 -0.94391912 0.016395276
-20.102974 -95.976021 231.2003 -0.14841749 0.41715607 -0.89663428 0.01225242
-18.709982 -95.515602 231.61708 -0.16425885 0.39517897 -0.903799 0.014267122
-17.051105 -95.158211 231.76736 -0.17703889 0.37326038 -0.91067773 0.013740326
-14.969615 -94.954849 231.41737 -0.18539302 0.35193047 -0.91748261 0.014050464
-12.969057 -94.958183 230.72856 -0.1764452 0.33258441 -0.92642039 0.015249685
-11.596367 -95.160728 230.10258 -0.15948035 0.31441346 -0.93579394 0.015148166
-16.307938 -93.913445 231.90196 -0.22496375 0.35105559 -0.90892869 0.01694864
-14.805761 -93.509239 231.48294 -0.24294555 0.33181041 -0.91152585 0.014833401
-13.004483 -93.298096 230.73463 -0.25936162 0.31186417 -0.9140417 0.014039719
-11.614819 -93.823959 230.09598 -0.24749523 0.29803389 -0.92191207 0.0136571
43.095055 -88.05275 230.41719 0.18105827 0.5145427 -0.83813113 0.026278738
-8.2103586 -86.014915 231.91766 -0.37241149 0.18440916 -0.90956193 0.012461771
41.909256 -86.53405 230.15649 0.22629409 0.49910963 -0.83646917 0.029505027
42.984898 -86.786827 230.50621 0.21905901 0.50255597 -0.83633167 0.027807821
44.66119 -86.434044 230.41844 0.21523824 0.50371605 -0.8366257 0.026754973
46.265125 -86.088165 230.04416 0.18938662 0.50933903 -0.839468 0.0252942
-8.3968477 -85.749916 231.65739 -0.3684772 0.17629732 -0.91276711 0.01270482
-7.0625968 -84.783569 231.62352 -0.30413604 0.040620856 -0.9517622 0.0088431733
-5.3139811 -84.369843 230.9919 -0.27848744 0.0038767941 -0.96043199 0.0086060567
41.724796 -84.820892 230.3886 0.23553412 0.49766776 -0.83477575 0.026319824
42.982288 -85.024078 231.17728 0.23306732 0.50327402 -0.83210266 0.026090186
44.995167 -84.98687 231.12495 0.22680382 0.50634205 -0.8319723 0.026248867
46.85453 -84.861992 230.6805 0.17175996 0.5089885 -0.84346271 0.029667456
-8.1069279 -82.301071 231.82755 -0.28505334 -0.0052860607 -0.95849711 0.0066313073
-6.9498234 -82.92347 231.65993 -0.28312072 -0.00073461409 -0.95908403 0.0071762414
-5.0330243 -83.060936 231.28749 -0.2756218 0.0050943135 -0.96125269 0.008049963
-3.3444498 -82.755302 230.86691 -0.26409683 0.012148089 -0.96441966 0.0086877458
-1.9946344 -82.317467 230.63979 -0.26494655 0.026747243 -0.9638921 0.0083208838
41.303822 -83.060417 230.50323 0.25729942 0.4975746 -0.82838196 0.028843466
42.71167 -83.411026 231.54945 0.24607648 0.50705755 -0.82603818 0.026043888
45.409637 -83.727837 231.74979 0.20278221 0.51232898 -0.83450484 0.027910363
46.987522 -83.315506 231.59381 0.0094122458 0.51426893 -0.85757732 0.043908209
-10.910683 -80.190056 231.92726 -0.28704962 -0.0083547309 -0.9578793 0.0082094166
-8.7400408 -80.650169 231.86948 -0.28396121 -0.00097427284 -0.9588353 0.0068955198
-7.0818276 -81.191116 231.77376 -0.28061631 0.0017305523 -0.95981842 0.0073211794
-5.0116973 -80.988121 231.46268 -0.27069455 0.0076844795 -0.96263468 0.0088734413
-3.0927308 -80.971718 230.95901 -0.25834033 0.019442193 -0.96585834 0.0080708116
-1.5534065 -80.936012 230.40129 -0.247741 0.066662811 -0.96653008 0.0063409233
7.9678783 -80.100967 230.18382 -0.0077669295 0.56043708 -0.82816058 0.020430062
9.2293682 -80.218407 230.28777 -0.010892902 0.55237371 -0.83352542 0.026616823
11.007638 -80.483627 230.37253 -0.024306718 0.54479915 -0.83821422 0.03028789
12.712901 -80.49279 230.2153 -0.036046285 0.53604609 -0.84341884 0.029533191
14.658316 -80.34111 230.13437 -0.051834088 0.52649271 -0.84859806 0.029243156
40.992737 -81.198563 230.52074 0.27792522 0.50492203 -0.81719726 0.030825185
-10.798071 -79.659401 231.79405 -0.28634468 -0.0041812207 -0.95811754 0.0085976664
-9.6902866 -79.681099 231.87936 -0.28407186 -0.00025117976 -0.958803 0.0066070221
-7.1025739 -79.923981 231.96111 -0.27765247 0.0021276544 -0.96067923 0.0081268912
-5.1931663 -79.930084 231.86389 -0.26909059 0.0092436736 -0.96307045 0.0097851111
11.101127 -79.941368 230.81938 -0.030142566 0.54505301 -0.83785951 0.030473879
12.896947 -79.878716 230.37297 -0.042763159 0.53593493 -0.84317565 0.02898358
14.529208 -79.522202 230.09204 -0.056463782 0.52958941 -0.84637278 0.027971026
51.631363 -76.187111 231.29723 -0.47846332 0.43502927 -0.76277292 0.0097448118
52.905052 -76.173637 231.07274 -0.46777177 0.38990715 -0.79319733 0.0097421659
54.201954 -76.162407 230.18814 -0.40539438 0.29036152 -0.86680192 0.010854382
51.771423 -75.602295 231.61444 -0.47729897 0.41959554 -0.77209151 0.0096263457
53.072403 -75.545181 231.51614 -0.46467146 0.36659285 -0.80603355 0.010195432
54.802082 -74.868446 231.24934 -0.39344028 0.2567876 -0.88275975 0.013497032
56.812622 -74.668617 230.68971 -0.3061823 0.23275794 -0.92307973 0.0097126905
58.528645 -74.426498 230.45662 -0.30320358 0.22305243 -0.92645299 0.0070708692
55.108028 -73.819023 231.83035 -0.38454753 0.22887471 -0.89428163 0.015380157
56.99432 -73.175781 231.61574 -0.30398789 0.21557333 -0.92796528 0.0082380204
58.884731 -73.026039 230.90472 -0.30252403 0.20860177 -0.9300347 0.0067670569
60.763725 -72.680855 230.47386 -0.30253083 0.1989273 -0.93214971 0.0068725278
62.105343 -72.344521 230.14912 -0.30308107 0.19130988 -0.93356436 0.006494537
25.526062 -70.269623 231.77701 -0.3250826 0.18956159 -0.92649215 0.02460729
57.238445 -71.431641 231.82907 -0.3006838 0.20367815 -0.93172127 0.0074383882
59.146984 -71.055405 231.46782 -0.30200651 0.19677344 -0.93277663 0.0074833618
60.856861 -70.995705 231.10187 -0.3030009 0.19155678 -0.93353975 0.0059826327
62.824482 -70.866074 230.37801 -0.30520257 0.18374078 -0.93439323 0.0083074262
64.541313 -70.172775 230.15991 -0.30533653 0.17858931 -0.9353478 0.0084620854
66.043518 -70.923035 230.14288 -0.30673951 0.17919327 -0.93477309 0.0059359292
25.368473 -69.959061 231.85603 -0.32036972 0.17393762 -0.93118685 0.026341066
27.129187 -69.472397 231.75604 -0.35956463 0.17910695 -0.91576958 0.019098522
28.910793 -68.764847 231.41022 -0.40368584 0.18031947 -0.89695185 0.01685955
30.546804 -68.387337 230.59674 -0.44994271 0.17131419 -0.87647188 0.020515703
55.899048 -69.610893 231.50867 -0.29945022 0.19663188 -0.93363029 0.0061072255
56.461639 -68.831169 231.55968 -0.29978442 0.19154568 -0.93457991 0.0066298461
59.277691 -68.769394 231.84755 -0.30312163 0.18805352 -0.93421257 0.007350808
60.931526 -69.052002 231.40063 -0.30466032 0.18188173 -0.93493378 0.005324983
62.969429 -69.046913 230.73297 -0.30571166 0.17678571 -0.9355678 0.0094198864
64.722931 -68.899345 230.31372 -0.30582419 0.17259915 -0.93631244 0.0070795175
29.635494 -67.441719 231.70059 -0.41733325 0.1400087 -0.89790344 0.021302845
30.94031 -67.023056 231.2108 -0.45076063 0.14522229 -0.88075262 0.022576062
32.048721 -66.967224 230.38835 -0.48221034 0.14959764 -0.86318821 0.025342323
56.908146 -67.187462 231.5627 -0.30190805 0.18020742 -0.93615007 0.0066627297
59.205276 -66.752663 231.76749 -0.30388224 0.16943921 -0.93752116 0.0045037908
61.029442 -67.082901 231.3335 -0.304497 0.16967732 -0.93727863 0.0055586654
63.086636 -67.05014 230.55786 -0.30599809 0.16678616 -0.93730873 0.0089797247
64.98455 -67.137123 230.22632 -0.30779082 0.16096579 -0.93773925 0.0073026717
66.200256 -67.492081 230.1461 -0.30866432 0.15839541 -0.93788981 0.0035219421
31.488909 -65.107208 231.64836 -0.45786202 0.12671839 -0.87994593 0.024060993
32.518787 -64.690262 230.84282 -0.48770195 0.12115932 -0.86456192 0.028072728
57.548538 -65.626259 231.8663 -0.30452874 0.15901518 -0.93913603 0.0054652244
59.109806 -65.490135 231.5233 -0.30276579 0.1533111 -0.94065326 0.0038812386
60.939156 -65.667778 230.99982 -0.3032178 0.15588726 -0.9400841 0.0056693945
62.968338 -65.613815 230.34947 -0.30645254 0.1545783 -0.93925101 0.010544366
64.812576 -65.599556 230.12373 -0.30829069 0.14943306 -0.93948203 0.0075847204
32.776974 -62.992893 230.99124 -0.50171107 0.096767068 -0.85960579 0.0317281
27.152054 -60.667057 231.72327 -0.35944328 0.016769189 -0.9330163 0.028448781
29.091858 -60.378407 231.47551 -0.41972893 0.041044977 -0.906721 0.027446194
31.124111 -60.500366 231.4068 -0.47261745 0.049337868 -0.87988549 0.03058883
32.828571 -61.145966 230.93462 -0.51593512 0.0585615 -0.85462362 0.033977699
31.172808 -59.641815 230.56445 -0.49090302 0.023227438 -0.87090451 0.033132356
32.497498 -59.7411 230.20195 -0.52528811 0.012516082 -0.8508324 0.035500057
-13.363971 -36.195297 230.05702 -0.0018392263 0.22740404 -0.97379875 0.0019119164
-14.557388 -34.191864 230.24397 0.00075606821 0.22477956 -0.9744094 0.0073853298
-12.351252 -34.070198 230.11438 -0.014664148 0.22032277 -0.97531682 0.0049990201
-14.527429 -32.520733 230.25571 -0.0038534829 0.21911529 -0.97569138 0.0065036197
-12.822818 -32.775162 230.17348 -0.015506514 0.21789707 -0.9758485 0.0062705888
-11.292953 -32.527744 230.0835 -0.02329728 0.21694395 -0.97590595 0.0062216572
-9.4815712 -32.382858 230.3148 -0.031736601 0.21623899 -0.97582453 0.0050806846
-7.5348382 -32.340847 230.07729 -0.029192228 0.21188991 -0.97685748 0.00084232289
1.4473031 -32.801727 230.21158 -0.013996522 0.19740209 -0.98022264 0.0053253234
-14.553187 -31.019852 230.56805 -0.005887249 0.21584541 -0.97640979 0.0054016071
-12.913867 -30.861914 230.45184 -0.017084161 0.21523404 -0.97641307 0.0045362548
-11.300571 -30.854788 230.30779 -0.024561159 0.21510462 -0.97628212 0.0041840496
-9.2690105 -30.531832 230.31096 -0.033470314 0.21183892 -0.97673124 0.00076870935
-7.4112234 -30.775505 230.24324 -0.032744087 0.20944716 -0.97727156 0.00055655179
-5.2580204 -30.804447 230.32317 -0.044979576 0.20839727 -0.97700942 0.0050723171
-3.0831661 -30.193808 230.16252 -0.039935961 0.20314503 -0.97833389 0.005391913
1.313686 -30.895777 230.3486 -0.018810473 0.19147764 -0.98131675 0.0059566153
2.2068937 -30.280029 231.16927 -0.014240314 0.18450689 -0.98272806 0.0093741221
43.216488 -30.384817 230.29959 0.26912272 0.31854445 -0.90890175 0.0091006113
44.887165 -30.417923 230.51895 0.27023745 0.35642901 -0.8943882 0.012029734
46.812672 -30.443909 230.53986 0.24843304 0.38008222 -0.89096493 0.015920782
48.773548 -30.279381 230.44839 0.23372653 0.39582813 -0.88808328 0.014937314
50.392441 -30.184578 230.84862 0.21637683 0.41099653 -0.88558626 0.012054736
-14.575256 -28.988562 230.66328 -0.0085480101 0.2099622 -0.9776721 0.0062229107
-12.931615 -28.975082 230.83836 -0.016397698 0.2112662 -0.97729099 0.0045864061
-10.981092 -28.90572 230.4906 -0.029124005 0.21159713 -0.97692293 0.0037944433
-9.0611849 -28.840496 230.55493 -0.03726906 0.20946562 -0.9771055 0.0016942454
-7.1429296 -29.009521 230.55043 -0.035547037 0.20698857 -0.97769731 0.00089953304
-4.7962909 -28.807768 230.28233 -0.046969432 0.2049741 -0.97763973 0.0043188753
-2.8730698 -29.063437 230.23048 -0.040501591 0.20131102 -0.97868961 0.0046479604
-1.0833745 -28.826876 230.17368 -0.033400513 0.19732833 -0.97976828 0.0050676186
1.0531516 -29.06341 230.32425 -0.025331084 0.18874471 -0.98169947 0.0064840969
2.4580441 -28.824711 230.89871 -0.015057746 0.17789325 -0.98393458 0.0088349525
41.693142 -28.833353 230.2964 0.26092437 0.28680986 -0.92176926 0.0077913245
42.940971 -29.022865 230.76805 0.27362844 0.31577289 -0.9085235 0.0090724379
45.009262 -29.103092 231.35432 0.27322409 0.35714617 -0.89319384 0.011958366
47.000973 -29.169792 231.50728 0.24745762 0.37635234 -0.89281774 0.014314531
49.03577 -29.467897 231.39191 0.2353927 0.38754568 -0.89129043 0.012328467
50.972023 -29.431963 231.37296 0.21364199 0.40545398 -0.88879925 0.0113172
52.857822 -29.061052 231.57378 0.19843872 0.42463103 -0.88335186 0.012161229
54.410351 -28.502911 231.68271 0.19252658 0.43749413 -0.87836915 0.015198673
56.188499 -28.16317 231.85568 0.17837782 0.46153679 -0.8690024 0.014715414
-14.762092 -26.963909 230.52322 -0.0036716093 0.20337147 -0.9790948 0.006187093
-13.023658 -26.960047 231.36507 -0.014485287 0.20722726 -0.97818553 0.0062029311
-10.911397 -26.947046 230.91647 -0.031320132 0.20924518 -0.97736144 0.0056819869
-9.0376549 -26.944609 230.854 -0.040300176 0.20867917 -0.97715354 0.0044403952
-7.07339 -26.993603 230.76167 -0.04140247 0.20504239 -0.97787702 0.003131432
-4.9527884 -26.994991 230.59818 -0.048315279 0.20349768 -0.97788256 0.0036492932
-2.8142502 -27.036404 230.42148 -0.043962877 0.20156652 -0.97848773 0.0040700892
-0.95477819 -27.019474 230.30388 -0.037514385 0.19540523 -0.98000485 0.0043934165
1.044102 -27.020618 230.30855 -0.031867616 0.18710937 -0.98182207 0.0069576222
2.8957331 -26.888025 230.67455 -0.022792067 0.16904941 -0.98534399 0.0092806481
4.3114715 -26.447712 231.18912 -0.022049814 0.14242069 -0.9895606 0.0095789293
29.043518 -26.156221 230.16426 -0.030725347 0.22647518 -0.97353226 0.0014980471
41.350288 -26.943708 230.37553 0.26433215 0.2843948 -0.92154658 0.0060231606
43.002949 -27.044313 231.19035 0.28271994 0.31980309 -0.90432036 0.0080049401
44.613121 -26.985329 231.6958 0.28535712 0.33608484 -0.89756244 0.010154382
57.349136 -27.748955 231.82755 0.16603875 0.48225093 -0.86015415 0.014568363
-14.604709 -25.198687 230.85185 0.0011531705 0.20341204 -0.97909254 0.006428659
-12.931486 -24.920593 231.48244 -0.01360633 0.20594837 -0.97846824 0.0079416959
-10.913442 -25.038622 231.45543 -0.030935338 0.20636246 -0.97798645 0.0062881317
-8.9584589 -24.998512 231.21574 -0.045031652 0.20471054 -0.97778618 0.0055927499
-7.0438247 -24.971853 231.16333 -0.049651697 0.20071085 -0.97839147 0.0032432647
-4.9933949 -25.034527 231.17299 -0.048538782 0.19887173 -0.97882271 0.0027971643
-2.9040475 -25.059494 230.68071 -0.048313066 0.20243487 -0.97810322 0.0052393056
-0.96240079 -25.257259 230.35481 -0.042589307 0.19747527 -0.97938228 0.0056272149
1.03733 -25.493622 230.27979 -0.037343979 0.18803082 -0.98145294 0.0058251251
3.1457624 -25.293682 230.44409 -0.033339143 0.16181558 -0.98625767 0.0086744213
4.8887677 -25.009773 230.92178 -0.023975367 0.11024556 -0.99361515 0.0076756766
6.6263857 -24.418457 231.08141 0.010594951 -0.0017427101 -0.9999423 0.0045884047
15.046757 -24.083649 231.60001 -0.055430122 0.14896813 -0.98728722 0.012017596
16.283665 -24.129566 230.47775 -0.045669261 0.1826884 -0.98210961 0.012319351
18.090218 -24.690319 230.01883 -0.035648208 0.21595819 -0.97575164 0.0077300514
20.679434 -24.2565 230.18643 -0.030481087 0.22692615 -0.97343487 0.0027684812
25.103514 -24.610605 230.12227 -0.029444156 0.22662438 -0.97353703 0.0035401341
41.48407 -25.170456 230.27008 0.27330053 0.29276964 -0.91629291 0.0058151954
43.02029 -24.983789 231.01347 0.2905502 0.31159127 -0.90470517 0.0071121012
44.496174 -24.991655 231.75891 0.29407141 0.31667525 -0.90179753 0.01010476
-14.552143 -23.478897 230.91451 0.0048740879 0.20064354 -0.97965217 0.0078023258
-13.342422 -22.93701 231.54439 -0.0070308642 0.19707222 -0.98036385 0.0060644583
-10.822405 -23.239647 231.76596 -0.033817936 0.20011079 -0.97918952 0.0054998747
-8.8904343 -23.046217 231.65733 -0.047534294 0.19995914 -0.97865051 0.0053307428
-7.1014853 -23.120296 231.52916 -0.056159206 0.19827412 -0.97853643 0.0035460698
-4.9534235 -23.114702 231.5213 -0.054287288 0.19292207 -0.97971117 0.0029748054
-3.4633632 -23.223282 231.04781 -0.052106809 0.19492407 -0.97943324 0.0046472298
4.9660959 -23.889174 230.18877 -0.025677368 0.093513601 -0.99528682 0.0066846507
6.7187433 -23.824295 230.89153 0.014678913 -0.025960324 -0.99955517 0.0042347065
11.035285 -22.649511 230.95102 -0.010829049 -0.026879976 -0.99957997 0.0059535168
13.071859 -22.515572 230.77888 -0.043633312 0.073296614 -0.9963553 0.0082376711
15.111167 -22.851738 230.50977 -0.048534188 0.14641005 -0.98803264 0.011303908
16.877403 -22.855505 230.26651 -0.037660912 0.18373211 -0.98225462 0.010018699
19.15522 -22.701473 230.21249 -0.035122789 0.21099135 -0.97685665 0.006143013
20.621443 -22.911657 230.49745 -0.032065183 0.21735069 -0.97556674 0.0040035998
23.053675 -22.593618 230.34137 -0.032200053 0.21835542 -0.97533792 0.0046519572
25.303055 -22.757336 230.17606 -0.030806661 0.22117782 -0.97474682 0.0034934103
27.235449 -22.454819 230.10854 -0.031280611 0.22156249 -0.9746443 0.005801125
31.785067 -22.32708 230.11523 -0.019956294 0.22197823 -0.97484738 0.0041421792
43.638031 -23.685534 231.08574 0.29767042 0.30153042 -0.90579897 0.0077382098
44.695004 -23.691645 231.703 0.29941842 0.30769256 -0.90314656 0.011087861
-14.187104 -21.956642 230.80658 0.002104996 0.19214526 -0.98136425 0.0072947326
-13.003915 -21.153519 231.6132 -0.010335055 0.18963137 -0.98180091 0.0051177791
-11.019826 -21.291178 231.94421 -0.030109955 0.1953823 -0.98026484 0.0042692139
-8.8773241 -21.451611 231.85355 -0.045879986 0.19946222 -0.97883087 0.0061976546
-7.2923551 -21.276817 231.84036 -0.056558896 0.19887473 -0.97839153 0.0066343453
-5.0087891 -21.104519 231.77269 -0.06946557 0.19121918 -0.97908622 0.005352742
-3.8951359 -21.660995 231.2352 -0.05725104 0.19114366 -0.97989106 0.005953568
11.435207 -21.648769 230.39539 -0.01838303 -0.0025082515 -0.99982792 0.0062653306
13.211388 -21.313309 230.2599 -0.041353367 0.082372494 -0.99574327 0.009183283
15.059123 -20.86919 230.19873 -0.039781481 0.13891882 -0.9895044 0.011075181
17.041044 -20.949547 230.41479 -0.029824534 0.17452633 -0.98420078 0.0084270313
18.98266 -20.983368 230.56973 -0.032127172 0.19398955 -0.98047739 0.0067942142
21.076445 -20.84086 230.3701 -0.032031737 0.20518704 -0.97819847 0.0065444354
22.873343 -21.015484 230.46242 -0.032719258 0.2094444 -0.97727293 0.0045145503
24.936054 -20.952013 230.34254 -0.032047626 0.21243505 -0.97664952 0.0036765069
27.250233 -20.865143 230.27808 -0.032740723 0.21501687 -0.9760614 0.005387275
29.178762 -20.599583 230.35962 -0.034346372 0.21222924 -0.97661614 0.0037466979
31.320732 -20.753283 230.18327 -0.03600492 0.212072 -0.97659057 0.0051368796
33.148869 -20.557791 230.1272 -0.018138904 0.20540491 -0.97850901 0.0032899391
-12.455792 -19.346874 231.87344 -0.0065122466 0.18276715 -0.98313463 0.0056349295
-11.843631 -19.331522 231.92918 -0.012543341 0.18573779 -0.98251933 0.0062750685
-8.0754108 -19.334278 231.99733 -0.047336515 0.19461252 -0.97973734 0.0048547639
-4.6818719 -19.776806 231.68192 -0.081303738 0.18708318 -0.97897375 0.003888343
15.967351 -19.714598 230.20415 -0.028563647 0.15372272 -0.98770112 0.0081805047
17.323254 -19.4816 230.22882 -0.025294259 0.16535045 -0.98591048 0.0062793419
19.079727 -19.203272 230.51498 -0.028694447 0.1810393 -0.98305714 0.0075991079
21.096548 -19.078354 230.68695 -0.029888546 0.19022767 -0.98128492 0.0067929411
22.867537 -19.109329 230.9198 -0.030637998 0.19565789 -0.9801935 0.0044797705
24.976442 -18.904638 230.7467 -0.03203097 0.20213874 -0.97883296 0.0035632667
27.010765 -18.985884 230.60004 -0.035238951 0.20516783 -0.97809225 0.0052131591
29.10924 -19.03129 230.46449 -0.036513515 0.20385021 -0.9783209 0.0044962796
31.077568 -18.951485 230.37169 -0.046839759 0.19490649 -0.97970277 0.0052348208
32.682236 -19.255409 230.20697 -0.048581183 0.19275475 -0.98004359 0.0066377819
-11.580867 -17.960289 231.95149 -0.0081662573 0.17949353 -0.98372525 0.0074197282
-5.4389582 -17.334568 231.91481 -0.065283917 0.18820226 -0.97995818 0.0064787189
21.277107 -17.539326 230.46776 -0.026910504 0.17946932 -0.98339546 0.0072762072
23.01226 -17.192507 230.70296 -0.025750129 0.18293209 -0.98278826 0.0057994989
24.934576 -17.088284 230.8134 -0.030159568 0.18790372 -0.98172432 0.0057983072
26.97213 -17.056887 230.78 -0.038586356 0.19031571 -0.98096436 0.0064984947
28.928364 -17.179281 230.50722 -0.043604258 0.18506236 -0.98175895 0.0045201601
30.589134 -17.423092 230.34003 -0.052474197 0.17830646 -0.98257482 0.0032987082
-7.3051257 -14.806645 231.87701 -0.025044674 0.16578497 -0.9858439 0.017311785
79.643913 -172.72028 233.25374 0.48241982 0.44440153 -0.75483662 0.012912484
80.125076 -172.66084 233.55884 0.47596788 0.4400472 -0.76145452 0.013553348
75.736359 -170.39323 232.70857 0.52011949 0.36926699 -0.7701413 0.014566978
76.400764 -170.62166 233.06459 0.51157737 0.36530021 -0.77771741 0.013412116
79.400574 -171.99141 233.91893 0.47910693 0.40299878 -0.77977473 0.014495776
75.176445 -169.13426 233.05713 0.52576393 0.32229352 -0.78720969 0.016886113
76.203896 -169.75778 233.95776 0.51270449 0.3161822 -0.79822487 0.018027704
74.823318 -167.11116 233.42395 0.52754277 0.24618536 -0.81307524 0.021089355
74.693275 -165.98726 233.75235 0.5265004 0.19549417 -0.82739317 0.026162297
-18.222086 -94.546684 232.02133 -0.19572137 0.37955141 -0.90423113 0.016241329
-16.82061 -94.733505 232.24748 -0.19571285 0.36537141 -0.9100551 0.015492069
-14.638132 -90.630966 233.81401 -0.37783372 0.30521628 -0.8741194 0.011769442
-13.792585 -90.24176 233.53979 -0.40173885 0.29109102 -0.86825794 0.011020744
-14.202252 -88.866508 233.92456 -0.43442225 0.28123903 -0.85567629 0.010259652
-12.990685 -88.70224 233.51711 -0.43665442 0.26605541 -0.85938781 0.010045085
-11.694407 -88.35376 233.03035 -0.43198684 0.25315076 -0.86562228 0.0077636233
-12.812257 -87.110367 233.68288 -0.43423471 0.24586403 -0.86659741 0.00947305
-11.032183 -86.881462 233.01443 -0.41842896 0.23284556 -0.87789536 0.0084531941
-9.358387 -86.512009 232.49031 -0.39454898 0.21310771 -0.89382112 0.010159438
-14.932229 -84.272591 233.95634 -0.3803165 0.11374759 -0.91783482 0.0085711107
-12.671052 -84.971863 233.7124 -0.390881 0.16223991 -0.90602994 0.0077033383
-10.976572 -85.05381 233.15596 -0.37935036 0.15924136 -0.91144687 0.0083759632
-9.0437555 -84.925156 232.41853 -0.34719747 0.11572234 -0.93062466 0.0096981172
-7.7419143 -84.6371 232.07816 -0.30694273 0.037792698 -0.95097733 0.0099076843
43.804611 -84.204933 232.25259 0.23625425 0.50858867 -0.82796222 0.024171777
44.448193 -84.3601 232.17285 0.23460424 0.50908339 -0.82812744 0.024153173
-14.278427 -83.420639 233.9272 -0.32444149 0.019219013 -0.94571054 0.0039027876
-12.732622 -83.234009 233.55983 -0.31733176 0.017906198 -0.94814551 0.0032492571
-10.933083 -83.079506 233.12822 -0.30403963 0.0080956165 -0.95262498 0.0055964007
-9.0070267 -83.087097 232.4433 -0.2916196 -0.0055153477 -0.95651847 0.0068940516
-7.2798114 -83.325043 232.07959 -0.28501698 -0.0038373522 -0.95851481 0.0071733575
-5.9068379 -82.374245 232.05981 -0.28018048 0.0041677398 -0.95993829 0.0083742626
43.466675 -82.875816 232.6048 0.24934071 0.51638007 -0.81925625 0.025332553
45.062 -82.904465 232.61171 0.15795837 0.52514696 -0.83622354 0.033419263
46.960575 -82.539459 232.65555 -0.10548261 0.52808827 -0.84261262 0.047997851
-10.686434 -81.244499 232.56755 -0.29024231 -0.010581924 -0.95689464 0.0069464403
-9.0136461 -81.165405 232.40585 -0.28587154 -0.0053545218 -0.95825297 0.006719294
-6.7145672 -80.678619 232.17264 -0.27866429 0.0021910015 -0.9603861 0.0080539463
-5.8733025 -80.939064 232.12961 -0.27691111 0.0050630863 -0.96088219 0.0088033453
-3.7990818 -80.029526 232.28462 -0.26139864 0.01621246 -0.96509475 0.0098403599
42.891182 -81.364716 233.00778 0.25408861 0.52709872 -0.81092906 0.025679126
45.10807 -81.506485 233.53572 -0.0049039274 0.55039734 -0.83488846 0.042190894
46.948257 -81.049965 233.3466 -0.26423463 0.53726465 -0.80095369 0.051197913
-10.272532 -79.586792 232.09729 -0.28476354 -0.0033117663 -0.95859212 0.0074880561
-8.9772539 -79.491531 232.43271 -0.28201604 -0.00018452054 -0.95940971 0.0065704398
-7.0609164 -79.683388 232.50812 -0.27725402 0.0012591596 -0.96079576 0.0082336916
-5.0774627 -79.789299 232.51683 -0.26896843 0.010238905 -0.96309453 0.010025789
42.677193 -79.927879 233.61284 0.23780328 0.54048443 -0.80704784 0.030345356
46.698181 -79.808014 233.83215 -0.33467823 0.54471594 -0.76894403 0.055542052
51.503376 -74.87365 232.58765 -0.47228765 0.4051424 -0.7828179 0.01092625
52.822292 -74.593697 232.4196 -0.47067887 0.35216483 -0.80897552 0.010228817
54.316612 -74.436279 232.11981 -0.43419781 0.27469018 -0.85791469 0.013626016
51.44836 -73.199783 233.41142 -0.47456172 0.35754424 -0.8043341 0.011154945
53.117954 -72.988617 233.06839 -0.46470147 0.29697397 -0.83418167 0.012169271
55.029095 -72.926857 232.59976 -0.39596939 0.23248315 -0.88834673 0.015563591
56.482937 -72.467232 232.16359 -0.30489263 0.21349797 -0.92814821 0.0087049576
58.606586 -72.038849 232.0607 -0.30267525 0.20342661 -0.93113124 0.0087270951
21.086069 -71.121895 233.55699 -0.27110592 0.138824 -0.95248592 0.045617394
22.928988 -70.682137 233.14673 -0.2854892 0.15828711 -0.94522011 0.037718762
24.72361 -70.325165 232.44444 -0.3103897 0.17722626 -0.93394268 0.030618349
53.258827 -71.79686 233.1115 -0.45521849 0.27230954 -0.84771669 0.014215939
54.963501 -71.273613 232.65074 -0.36688673 0.22393538 -0.90291029 0.013500056
56.88607 -70.970131 232.36967 -0.29963246 0.20177883 -0.93247283 0.007235344
58.346001 -70.637764 232.3011 -0.3009119 0.19412807 -0.93368435 0.0069275009
23.295881 -69.510719 233.60933 -0.28764823 0.14710236 -0.94637173 0.036075901
25.110512 -69.017067 233.13957 -0.31029978 0.13773726 -0.94060749 0.031170839
27.021215 -68.691536 232.35336 -0.35070115 0.14770035 -0.92476666 0.019212976
28.811628 -68.114494 232.16388 -0.39438966 0.15758382 -0.90533102 0.018205967
57.227707 -69.120239 232.49695 -0.29870644 0.18994293 -0.93525189 0.0062305951
58.740711 -69.00956 232.25758 -0.30132404 0.1890555 -0.93459177 0.0071297893
61.35421 -68.16008 232.05327 -0.30512321 0.17401503 -0.93627918 0.0055789328
25.576725 -67.633629 233.62248 -0.3144595 0.10330229 -0.94363338 0.027823588
27.13253 -67.084694 233.18277 -0.34661514 0.10765446 -0.93180925 0.021364516
28.880182 -66.841438 232.61382 -0.39118809 0.12248563 -0.9121235 0.020549508
30.262281 -66.190353 232.2157 -0.42307395 0.1243941 -0.89751577 0.022686791
57.450317 -67.158661 232.25702 -0.30152711 0.17768697 -0.93675429 0.0062291841
58.737728 -67.258347 232.15756 -0.30398372 0.17528541 -0.93641281 0.0057570208
17.092726 -64.033882 233.51595 -0.20652042 0.032299004 -0.97790909 0.056044478
27.600773 -65.59346 233.714 -0.35442805 0.08271727 -0.93141758 0.022622632
29.118595 -65.037643 233.25633 -0.39187446 0.096242465 -0.91497093 0.022755759
30.642206 -64.918587 232.47894 -0.42917848 0.11115863 -0.89635342 0.023938375
57.763947 -65.663795 232.03073 -0.30384392 0.15796509 -0.93953496 0.004759585
17.034927 -63.421574 233.16226 -0.19385877 0.0084718838 -0.98099285 0.058461387
18.652309 -63.111706 233.58476 -0.22394074 0.04759096 -0.97344011 0.047065895
21.384434 -62.28838 233.33574 -0.26423874 0.073151208 -0.9616791 0.032962371
23.52688 -62.188065 233.65906 -0.30144864 0.064971417 -0.95126629 0.028657263
24.776361 -62.25576 233.9045 -0.31506801 0.051868629 -0.94765067 0.028260252
27.656139 -62.281342 233.86832 -0.35687557 0.03829911 -0.93336654 0.02549649
29.275686 -62.892605 233.59734 -0.39681062 0.072964691 -0.91499591 0.024411347
30.968603 -63.00206 232.65509 -0.4412877 0.092975155 -0.89253616 0.026421133
22.981102 -61.85112 232.88626 -0.29135868 0.061065812 -0.9546628 0.029553358
25.017332 -61.802032 233.30164 -0.31903732 0.035162453 -0.94708961 0.027003504
27.063019 -61.472546 232.99014 -0.34944212 0.023238886 -0.93666971 0.027049761
28.954195 -61.408031 232.93866 -0.39760485 0.052411828 -0.91605854 0.025501441
30.820984 -61.402767 232.48123 -0.44739765 0.066072352 -0.89189112 0.027899895
45.432968 -28.143194 232.12982 0.27163339 0.35517427 -0.89446437 0.012761022
47.416462 -28.469814 232.36038 0.24620493 0.37030089 -0.8956899 0.012796137
48.989658 -28.496511 232.47493 0.23956053 0.37389612 -0.895998 0.010923287
50.907482 -28.524673 232.58125 0.22277988 0.38821802 -0.89423478 0.01049043
52.84272 -28.435406 232.56131 0.20672536 0.41159174 -0.887613 0.012886519
54.847813 -28.266851 232.4127 0.19563955 0.43293867 -0.87993705 0.015674429
-12.479136 -27.649586 232.19151 -0.01861131 0.20821458 -0.97790611 0.0063979058
45.563053 -27.043732 232.16504 0.27285293 0.34567633 -0.89780796 0.012808118
47.072853 -27.030338 232.61855 0.25214994 0.35733157 -0.8992967 0.012297845
49.008114 -27.060627 233.33893 0.24302699 0.36521751 -0.89864016 0.0096978163
51.007744 -27.202686 233.44174 0.22729647 0.38039878 -0.89645582 0.010355948
53.108913 -27.430593 233.45076 0.21268305 0.40298244 -0.89015234 0.01416072
55.087048 -27.465326 233.34842 0.20537943 0.41521859 -0.88623518 0.01529749
56.926476 -27.357441 233.23367 0.19567961 0.43410045 -0.87935561 0.015309074
58.896675 -26.835255 233.64485 0.18898049 0.45556226 -0.8699134 0.015104397
60.126297 -26.702192 233.14917 0.16810209 0.49807522 -0.85068369 0.013766713
-14.0315 -25.330593 232.24802 -0.0028803346 0.20540453 -0.97867292 0.0082933316
-13.049304 -24.726143 232.18706 -0.012193872 0.20501535 -0.97868282 0.0078833718
-11.424484 -24.31015 232.06535 -0.026766026 0.20374009 -0.97865909 0.005975089
-9.4964199 -24.029911 232.19632 -0.044492513 0.20052034 -0.9786787 0.00522521
45.336304 -25.044468 232.31181 0.28392902 0.32582501 -0.90178847 0.012438626
47.016819 -25.013208 233.03355 0.259271 0.34500113 -0.90208244 0.010987584
48.86898 -25.071999 233.75044 0.24794476 0.35330042 -0.90205443 0.0087913722
50.164879 -25.955193 233.78531 0.23785797 0.36546129 -0.89992315 0.0091395034
-12.479472 -23.123419 232.36783 -0.017867608 0.1975266 -0.98013473 0.0042773546
-11.095332 -22.596148 232.23627 -0.032305609 0.19786638 -0.97969651 0.0048381342
-9.7840719 -22.998859 232.07567 -0.041648801 0.19954918 -0.9790023 0.0054476876
-6.5581789 -22.568842 232.59799 -0.06010244 0.1972362 -0.97851193 0.0046088193
-5.5639696 -22.660954 232.19379 -0.059740867 0.19394518 -0.97919166 0.0036417795
45.572834 -23.571304 232.47655 0.2851156 0.31961486 -0.90363461 0.013179018
47.096329 -23.100067 233.05627 0.26857847 0.32580441 -0.90648609 0.010306005
48.641003 -23.124586 233.71786 0.25784069 0.33504573 -0.9062354 0.0093304832
-12.201715 -21.326477 232.46606 -0.018044926 0.19108358 -0.98140788 0.0045650783
-10.886664 -20.95303 232.31905 -0.029004334 0.19469473 -0.98043489 0.0043634116
-8.9767017 -20.616991 232.29396 -0.043259259 0.19817165 -0.97921222 0.0060742777
-6.865962 -20.671305 232.41214 -0.059891012 0.19715227 -0.97854179 0.0071482533
-5.3535309 -20.674273 232.1908 -0.072651766 0.19205642 -0.97869098 0.0055673006
49.021366 -21.973221 233.87582 0.26390436 0.32639471 -0.90764588 0.010237539
-12.267323 -19.324783 232.09271 -0.0076265526 0.1829727 -0.98308837 0.005641426
-10.821419 -18.954721 232.50534 -0.018932752 0.18658626 -0.98225611 0.007233846
-8.9257622 -18.948341 232.493 -0.037324719 0.19173174 -0.98073739 0.0068718246
-6.9755788 -19.004263 232.88321 -0.054472748 0.19294077 -0.97969723 0.0062495191
-5.5128064 -19.052866 232.32436 -0.07255505 0.19078401 -0.97894698 0.0041444544
-10.621282 -17.296778 232.56937 -0.011500955 0.17821279 -0.98392475 0.0077719353
-8.9398985 -17.042437 232.90442 -0.022798499 0.18158509 -0.98311085 0.008035359
-6.9506116 -17.061396 232.7865 -0.04429087 0.18585765 -0.98157793 0.007917379
-5.7338572 -17.405596 232.42575 -0.06082264 0.18885599 -0.98011935 0.007342522
-10.270742 -15.78389 232.48108 -0.0010174476 0.16629715 -0.98607516 0.0093634855
-8.8582687 -15.506166 232.81329 -0.015820233 0.16735768 -0.98576933 0.013415962
-7.2708125 -15.47882 232.58861 -0.029106803 0.17070308 -0.98489249 0.014029929
79.812851 -172.02423 234.23071 0.47611237 0.3994579 -0.78342217 0.01523615
80.710388 -172.16248 234.43523 0.46486223 0.40889397 -0.78530806 0.014915704
76.63945 -170.08562 234.06781 0.5070762 0.32133994 -0.79975891 0.017436275
79.307228 -170.78442 235.22659 0.47461885 0.32625365 -0.81749338 0.018430766
80.709816 -171.29218 235.25082 0.45806307 0.35524672 -0.81484842 0.016612267
75.650925 -168.48901 234.43797 0.51260757 0.27061111 -0.81486386 0.021013521
76.986176 -169.00256 235.17723 0.49214527 0.26390707 -0.82954574 0.021425009
78.624382 -169.6758 235.73204 0.47231808 0.2727586 -0.83816361 0.021763287
75.448929 -166.95706 234.89531 0.50431436 0.20512253 -0.83880383 0.024919271
76.492653 -167.25684 235.77115 0.48490489 0.19009459 -0.8536576 0.026764836
75.33947 -165.35373 235.43086 0.49898142 0.13462862 -0.8560915 0.031260099
76.228088 -165.27225 235.90793 0.48455894 0.10808239 -0.86805576 0.035141125
75.707367 -162.93964 235.94034 0.46224067 0.030243015 -0.88623863 0.033905625
77.547623 -157.08272 235.77074 0.35064769 -0.21751934 -0.910896 0.027193857
78.43576 -156.47278 235.62151 0.3196997 -0.24656458 -0.91487592 0.022772405
79.136589 -155.85905 235.56738 0.2980476 -0.27574307 -0.91385627 0.019287618
81.147209 -155.10025 235.67445 0.2646437 -0.31502375 -0.91144049 0.016213927
83.173775 -154.93306 235.67152 0.22623006 -0.35438931 -0.90731919 0.016477078
84.613922 -155.31418 235.73001 0.19488738 -0.36747789 -0.90938383 0.014829169
-18.767857 -92.459122 235.19701 -0.28915793 0.37916571 -0.87898868 0.019345988
-17.338493 -92.329437 234.674 -0.29629165 0.35625634 -0.88616735 0.01730397
-20.331223 -90.477936 235.52774 -0.3543897 0.39292553 -0.8485384 0.023831442
-18.90694 -91.186958 235.63951 -0.33833051 0.37466705 -0.8632248 0.02016224
-16.93644 -90.990227 235.10645 -0.35207596 0.34199941 -0.87125134 0.015541849
-15.375916 -90.781532 234.44203 -0.36950937 0.31735292 -0.87335557 0.013036288
-20.871277 -89.485313 235.82224 -0.39337581 0.38669363 -0.83410037 0.025551587
-18.667109 -88.847733 235.8069 -0.42047536 0.34159401 -0.84054381 0.018260151
-16.966417 -88.942696 235.24478 -0.42049447 0.31961951 -0.84913355 0.013699841
-15.024024 -89.051941 234.56657 -0.42738324 0.29437223 -0.85480326 0.011464811
-13.81371 -89.356468 234.24565 -0.4274717 0.28174233 -0.8590048 0.0094072893
-18.71372 -87.370079 235.62935 -0.44405845 0.30254799 -0.84337229 0.017120028
-17.04442 -87.056557 235.29279 -0.44890612 0.27549317 -0.85005111 0.014353343
-14.939535 -86.925369 234.47029 -0.44993713 0.25390297 -0.85620666 0.012323683
-13.280656 -86.838387 234.28542 -0.43664986 0.24137175 -0.86664671 0.010604225
-16.510401 -85.424141 234.70676 -0.43278286 0.19285335 -0.88062847 0.013853048
-14.876226 -85.129547 234.43253 -0.4155466 0.17641915 -0.89229882 0.010861552
-13.472582 -84.873756 234.09599 -0.39390373 0.15666892 -0.90570122 0.0084383152
-14.292167 -83.758186 234.01732 -0.34431088 0.055013683 -0.93724251 0.0059252139
-13.511824 -83.643883 234.2063 -0.32978329 0.035658192 -0.94338298 0.0038245383
43.425251 -80.825539 234.44449 0.2201841 0.54194075 -0.81106055 0.03111117
44.865078 -80.643486 234.44745 -0.065974742 0.56256396 -0.82411718 0.050046459
47.089005 -80.389252 234.30341 -0.32779554 0.54180539 -0.77394897 0.053147092
-8.498765 -79.351624 234.08505 -0.3023752 0.042117123 -0.95225811 0.021565801
43.314697 -78.948959 234.98793 0.054145403 0.5745663 -0.81666505 0.056550469
44.935326 -79.232079 235.31047 -0.2141068 0.57577419 -0.78907686 0.064848281
46.947334 -78.85675 234.82439 -0.37999719 0.55108011 -0.74290842 0.05548434
48.039291 -78.559395 234.51851 -0.42194259 0.53621787 -0.73105055 0.043324862
42.874184 -76.97097 235.61978 -0.013466954 0.60659766 -0.79489487 0.07639809
45.810448 -77.675339 235.91357 -0.38087443 0.57695043 -0.72253919 0.067331143
47.21217 -77.438416 235.64465 -0.43824881 0.53954703 -0.71890682 0.045099713
19.150143 -75.325859 234.74171 -0.2840423 0.52390915 -0.80301881 0.0046073985
42.342445 -75.727669 235.81311 0.081119239 0.61235094 -0.78641337 0.081017978
51.513481 -72.973038 234.20708 -0.47559786 0.35245019 -0.80596864 0.011245096
52.217743 -72.038582 234.03693 -0.48771077 0.31594935 -0.81382698 0.011331168
19.86689 -70.225258 234.51711 -0.25890684 0.12880154 -0.95727605 0.050110042
20.912663 -70.398674 234.24963 -0.26643234 0.13927084 -0.95373875 0.04476672
19.419237 -69.040848 235.34299 -0.25274724 0.11718198 -0.96040994 0.05138341
21.086527 -68.986069 235.11829 -0.26465869 0.1333642 -0.95507574 0.040397491
22.917343 -68.734718 234.39415 -0.28501949 0.13717699 -0.94865501 0.034638315
24.221384 -68.308144 234.13225 -0.29717299 0.12613404 -0.94645578 0.033601291
21.483065 -67.011856 235.70879 -0.26802537 0.11039202 -0.95706636 0.034477178
23.052364 -67.027435 235.04715 -0.28814197 0.11557195 -0.95058793 0.03116644
24.874722 -66.822548 234.46916 -0.30638266 0.1007168 -0.94656527 0.029935325
26.53067 -66.449738 234.0365 -0.33051461 0.09267287 -0.93924004 0.024276709
17.84812 -64.845085 234.73695 -0.22313663 0.059128191 -0.97299218 0.051194742
19.039217 -64.917679 234.97112 -0.23807471 0.077391297 -0.96815854 0.043416627
21.021645 -64.941391 235.26419 -0.26243919 0.094646595 -0.96029568 0.035350848
23.042805 -64.963226 235.25406 -0.28926384 0.10171775 -0.95182979 0.029837942
25.08754 -65.000153 234.90453 -0.3115603 0.086784683 -0.94625509 0.028067226
26.900845 -64.852356 234.3437 -0.33839935 0.071240067 -0.93830204 0.023908459
28.148056 -65.594109 234.12294 -0.36701998 0.094350673 -0.92541575 0.022007113
19.403776 -63.669495 234.3065 -0.23918658 0.068439499 -0.96855861 0.042436991
21.028717 -63.317535 234.57983 -0.25958815 0.079711258 -0.96242404 0.035578046
23.013956 -63.297535 234.7437 -0.2897402 0.08747194 -0.95309985 0.029176354
25.081005 -63.152302 234.76616 -0.31467783 0.066169851 -0.94688934 0.027634369
27.089924 -63.105011 234.33485 -0.34490433 0.0486391 -0.9373768 0.025211062
28.504913 -63.642578 234.09842 -0.37548584 0.068478771 -0.92429483 0.023883361
51.361404 -26.280405 234.2796 0.22858989 0.37735978 -0.89741087 0.011635992
52.959263 -26.472361 234.45657 0.21946214 0.39071846 -0.8939662 0.013855471
54.934238 -26.453634 234.68358 0.21502514 0.40019941 -0.89084488 0.015084215
56.877258 -26.461996 234.54984 0.21082656 0.41016829 -0.88730723 0.01578185
58.940517 -26.361935 234.51157 0.20675379 0.42967144 -0.87899679 0.015490515
60.981773 -26.249542 234.38286 0.18506403 0.47994742 -0.85755569 0.015198301
49.522598 -25.116148 234.12761 0.24484043 0.35554001 -0.90202248 0.0087718293
50.987724 -24.958614 234.53836 0.23498525 0.36716512 -0.89998424 0.01138219
52.987034 -25.005322 235.19789 0.22563544 0.38167411 -0.8963334 0.014172184
54.84309 -25.187454 235.54799 0.22240286 0.38903251 -0.89397466 0.015391171
57.084438 -25.501226 235.41515 0.2190689 0.39874327 -0.89051253 0.01573886
59.098484 -25.522083 235.44807 0.22248989 0.40681669 -0.88600135 0.015068324
61.061722 -25.546473 235.09821 0.21030523 0.44087023 -0.8725853 0.015578431
62.942291 -25.14187 235.28198 0.19778125 0.46850517 -0.86103743 0.012248668
64.4674 -24.723711 235.69215 0.1917446 0.48257235 -0.85460985 0.010185649
66.013931 -24.268713 235.72249 0.18022628 0.5006271 -0.84669423 0.0074220202
49.495449 -22.895813 234.19492 0.25407073 0.34047988 -0.90527433 0.010341256
50.94659 -23.062105 234.87244 0.24323404 0.35517901 -0.9025991 0.012710538
52.828915 -23.097519 235.57689 0.23420835 0.36607936 -0.90062886 0.014430404
54.022331 -23.707134 235.84491 0.22910403 0.37638789 -0.89768785 0.016773066
50.955956 -21.02949 234.80777 0.25869653 0.3289744 -0.90821356 0.012610215
52.77821 -20.995985 235.58401 0.24498792 0.34625795 -0.90558618 0.013695062
51.434986 -19.450693 234.4986 0.28137687 0.28364161 -0.91671944 0.0093024289
52.980446 -19.418179 235.63419 0.26577678 0.30974731 -0.91291809 0.012966515
54.240616 -18.247211 235.96455 0.2847563 0.27512586 -0.91826987 0.010767126
79.790977 -170.1221 236.27863 0.45878714 0.28415069 -0.84188646 0.022122113
80.666687 -170.41846 236.34663 0.44616234 0.30239806 -0.84231496 0.019848868
77.845871 -168.341 236.10921 0.47289702 0.21777596 -0.85378104 0.025697861
79.143646 -168.90417 236.64145 0.45653707 0.23237768 -0.85882157 0.025563663
80.952942 -168.98698 237.25839 0.43458921 0.23287724 -0.87000024 0.026615119
77.304512 -166.81584 236.53503 0.4728564 0.15421942 -0.86753863 0.03122808
78.919876 -167.07663 237.2612 0.45010018 0.14910455 -0.88044178 0.032631651
80.809761 -167.78369 237.77531 0.42709526 0.17675093 -0.8867631 0.031974196
82.114014 -167.07973 237.51967 0.40857303 0.14549947 -0.90105379 0.036903027
75.77272 -164.95215 236.26028 0.48551059 0.10647174 -0.86772299 0.034287229
77.01651 -164.98433 236.87038 0.46639568 0.086369976 -0.88034958 0.037650231
78.632263 -165.00046 237.56316 0.44184449 0.066224605 -0.8946439 0.040665485
75.748947 -162.92052 236.19194 0.46054724 0.028430006 -0.88717979 0.033995479
77.086182 -162.99834 237.01804 0.42777395 0.017129701 -0.90372342 0.037805028
78.559433 -163.2088 237.78601 0.40644252 0.0099670086 -0.91362196 0.041153368
75.621269 -161.17699 236.57928 0.45377588 -0.041355629 -0.89015567 0.035085842
77.020416 -161.02817 236.79703 0.41759023 -0.049435034 -0.90728962 0.03784658
78.892708 -160.94899 237.76985 0.38099757 -0.051961627 -0.92311484 0.036914449
77.405151 -158.95212 236.55276 0.39161935 -0.13008147 -0.91088587 0.033892579
78.973877 -159.01302 237.41501 0.35204762 -0.12273771 -0.92789972 0.031060986
80.663589 -158.42419 237.61868 0.31137046 -0.16026369 -0.9366771 0.028967937
83.528603 -158.7209 237.78828 0.26912838 -0.19261172 -0.94364756 0.027272156
84.319611 -158.43063 237.28261 0.25470385 -0.22360758 -0.94081116 0.026657354
77.575134 -157.52888 236.32695 0.36125946 -0.19447948 -0.91195905 0.029081084
79.140343 -157.16541 236.57414 0.32501185 -0.21339966 -0.92131853 0.025482446
80.986389 -156.93956 237.02081 0.29357406 -0.23692895 -0.92610955 0.024205683
82.978333 -157.00056 237.23343 0.2683211 -0.26290718 -0.92675978 0.023633879
84.468697 -156.84512 236.91891 0.23305966 -0.30192021 -0.92440653 0.021647945
80.931221 -155.6931 236.31853 0.27967438 -0.29219428 -0.91455168 0.019402418
82.848824 -155.49245 236.32123 0.24779369 -0.32492846 -0.91269916 0.018469207
84.303154 -155.62901 236.17876 0.21349065 -0.34613729 -0.91357028 0.016742999
-20.226654 -90.131897 236.07547 -0.37396696 0.38460812 -0.84393448 0.023540543
-19.141283 -90.556953 236.14154 -0.36649504 0.37240034 -0.85264266 0.020474186
-20.67911 -89.033691 236.20532 -0.41581866 0.37119484 -0.83024645 0.02622176
-19.413328 -89.216011 236.23674 -0.41533318 0.35518688 -0.83746082 0.022047196
-19.246223 -87.955276 236.30493 -0.44265464 0.31788009 -0.83845645 0.020637471
43.691048 -78.173141 236.12263 -0.076837711 0.59562933 -0.79957598 0.073283769
44.890171 -78.370552 236.22722 -0.26089394 0.58730644 -0.76616281 0.073366754
43.490849 -77.017288 236.87807 -0.095268652 0.61073184 -0.78608549 0.081120528
45.042225 -77.00473 236.84982 -0.36202326 0.5793016 -0.73030722 0.068907455
46.972954 -76.657509 236.5291 -0.46594954 0.51599544 -0.71877652 0.034001116
42.969963 -75.264175 237.06187 -0.13181038 0.62010622 -0.77336556 0.086626038
45.315784 -75.578697 237.67618 -0.464053 0.50910771 -0.72488916 0.036560632
46.971844 -75.210701 237.48109 -0.49034968 0.48097008 -0.7267909 0.022983363
48.066162 -74.538391 237.82742 -0.49716207 0.46460617 -0.73278308 0.020323887
42.790756 -73.87674 237.8076 -0.27472383 0.56678212 -0.77671409 0.057686031
46.53339 -73.981117 237.56116 -0.49674836 0.47481558 -0.7264924 0.023904998
17.212389 -68.270729 237.05908 -0.23336583 0.043990199 -0.97139341 0.069744475
18.699907 -68.267593 236.42009 -0.24482101 0.083519012 -0.96596444 0.055770196
20.187235 -68.20488 236.19017 -0.25345644 0.1078544 -0.96131539 0.041495319
15.957916 -67.44944 237.44897 -0.21726003 -0.003943223 -0.97610575 0.078225031
17.162062 -67.198349 236.95728 -0.22133105 0.042743698 -0.97426152 0.065636069
19.088531 -67.051414 236.48097 -0.23995508 0.08800675 -0.96678656 0.049747732
20.56509 -67.044548 236.17171 -0.2553699 0.10501914 -0.96112287 0.038988739
18.793989 -65.937767 236.25948 -0.23266828 0.078461915 -0.96938604 0.048741139
55.366539 -24.351528 236.34991 0.22724494 0.38288519 -0.89540976 0.015868647
57.010338 -24.504189 236.41982 0.22666842 0.38672486 -0.89390457 0.015023663
58.940582 -24.527765 236.63223 0.23369768 0.38926524 -0.89098704 0.014086886
61.03532 -24.596048 236.52132 0.23283447 0.40137756 -0.88582402 0.014615357
62.981277 -24.410004 236.75572 0.22826369 0.41682929 -0.87985736 0.013109659
64.929268 -24.27376 236.60292 0.20775574 0.45745841 -0.86462098 0.012026407
66.368073 -24.189163 236.2442 0.18505292 0.49352244 -0.84981817 0.0084600067
53.68824 -22.584438 236.25552 0.23586781 0.36437362 -0.90088755 0.015310876
55.00349 -22.917507 236.46619 0.23272786 0.3731685 -0.89809972 0.016162816
57.019279 -22.945366 237.06592 0.23388106 0.37613145 -0.89656276 0.01450205
58.984997 -23.076208 237.52228 0.24200289 0.37425679 -0.89519078 0.012197572
61.004215 -23.432508 237.61946 0.24249445 0.38131261 -0.89207464 0.01252606
63.037647 -23.611689 237.60307 0.24214087 0.39031526 -0.88826907 0.012932577
65.024643 -23.598269 237.4689 0.23350061 0.41455555 -0.87955737 0.01310287
66.479317 -23.532129 237.47281 0.21733129 0.44501203 -0.86875278 0.0106349
51.865353 -20.574417 236.01164 0.25551361 0.32800278 -0.90946525 0.011397137
53.454937 -21.062542 236.0787 0.24321589 0.35159311 -0.90400684 0.014702742
54.9725 -21.026672 236.8006 0.24156189 0.35664794 -0.90246886 0.014569816
56.929237 -21.016008 237.49255 0.242428 0.3605943 -0.90066665 0.012929703
58.423878 -21.23695 237.85588 0.24673177 0.36156818 -0.89910614 0.011147865
60.587936 -21.844099 237.99104 0.24914134 0.36597386 -0.89665586 0.011641695
53.80246 -19.222635 236.08972 0.26485115 0.31201294 -0.91241539 0.013892186
55.079697 -19.078074 236.75839 0.2615895 0.32019711 -0.91051894 0.012665375
56.795731 -18.942719 237.55527 0.25832164 0.33008125 -0.90791869 0.012191576
58.429382 -19.496696 237.97585 0.25324237 0.34355339 -0.90434474 0.011735678
55.161667 -17.695324 236.49159 0.29469225 0.25954884 -0.91966879 0.010078029
57.160164 -17.211893 237.54143 0.29220569 0.26903042 -0.91773546 0.0099372957
58.480499 -16.25098 237.8748 0.30544722 0.2464814 -0.91975474 0.0073161591
57.9967 -15.739695 237.64713 0.32666463 0.20577961 -0.92246681 0.0060367589
58.883472 -15.597046 237.83012 0.31894025 0.22078939 -0.92169905 0.0056407917
81.001678 -168.18898 238.14951 0.42544806 0.19623612 -0.88345087 0.030886427
