# .PCD v0.7 - Point Cloud Data file format
VERSION 0.7
FIELDS x y z normal_x normal_y normal_z curvature
SIZE 4 4 4 4 4 4 4
TYPE F F F F F F F
COUNT 1 1 1 1 1 1 1
WIDTH 610
HEIGHT 1
VIEWPOINT 0 0 0 1 0 0 0
POINTS 610
DATA ascii
69.013641 -157.05807 210.98245 0.41150585 0.010988352 -0.91134089 0.0039717765
70.503235 -157.01262 211.61942 0.4128378 0.017234839 -0.91064149 0.003101632
67.218018 -155.03621 210.36649 0.40954494 -0.00026712846 -0.91228992 0.0041342485
69.01107 -155.00407 211.08817 0.41054735 0.0049988227 -0.91182554 0.0037956901
70.689499 -154.8392 211.71353 0.41110921 0.0087133832 -0.9115445 0.0018327103
67.303207 -153.29233 210.22142 0.40788564 -0.0062651858 -0.91301155 0.0043289028
68.873985 -153.19635 210.70532 0.4091644 -0.00089297234 -0.91246021 0.0031871689
70.916573 -153.26366 211.43445 0.41069481 0.0042637037 -0.91176283 0.0016151639
72.482361 -153.42366 211.79146 0.41052377 0.0088313511 -0.91180712 0.00076279626
96.453171 -152.40457 210.13605 0.35443541 0.19143167 -0.91527557 0.0036334721
-164.7076 -150.80077 210.53319 0.61546582 0.44598374 0.64984637 0.0093253264
-163.91339 -151.96547 210.30815 0.56576461 0.46284252 0.68241286 0.011085365
95.39817 -150.51938 210.19632 0.38413179 0.17908449 -0.90574366 0.0064143529
96.968506 -150.74208 210.28 0.37496099 0.18194993 -0.90900964 0.0056875651
-166.84914 -148.46472 210.90028 0.6848309 0.39404845 0.61297011 0.0082817441
93.463654 -148.66956 210.46654 0.38417801 0.17448993 -0.90662038 0.0068323743
95.053551 -148.93588 210.43259 0.38669103 0.17634261 -0.90519243 0.0070122154
97.008484 -148.92815 210.72229 0.38647729 0.17656429 -0.90524042 0.0067338562
98.154144 -148.32037 210.86491 0.38404199 0.17361344 -0.90684628 0.0069061574
-168.272 -146.37015 210.69958 0.73226565 0.319879 0.60121906 0.0096441871
-167.57625 -147.31868 210.79576 0.70501757 0.34588629 0.61912274 0.0087290471
93.490898 -147.0959 210.1384 0.38700631 0.1721257 -0.90586913 0.0088358158
95.065338 -146.9395 210.59579 0.38842359 0.17239729 -0.90521067 0.0086258985
97.035164 -147.02296 211.18353 0.38610956 0.1721306 -0.90625077 0.0079678101
98.286034 -146.97565 211.30243 0.38461709 0.17161076 -0.90698373 0.0079003228
-168.90466 -145.04509 210.71931 0.76491755 0.28455532 0.57786626 0.011110306
93.68541 -144.89307 210.22325 0.38525349 0.16458847 -0.90801454 0.0092057334
95.11615 -145.01826 210.63667 0.38477936 0.16601478 -0.90795594 0.0088774431
96.950417 -145.07385 211.51224 0.38434544 0.16530704 -0.90826875 0.0091060335
98.906654 -144.83356 211.83038 0.38466209 0.16215731 -0.90870243 0.0087519148
-170.21042 -142.57788 211.66068 0.79297018 0.17679237 0.58304614 0.012204659
-169.51468 -143.04855 210.76964 0.77446145 0.1986915 0.60060894 0.012142133
91.702179 -143.11177 210.18617 0.38207561 0.14845666 -0.91212875 0.0064034779
93.34359 -142.89128 210.34251 0.3806003 0.15305977 -0.91198474 0.0061156563
94.999451 -143.04155 210.97125 0.38027373 0.15662585 -0.91151536 0.0064050369
96.757751 -143.03838 211.55449 0.38192424 0.15615137 -0.91090649 0.0075200512
99.519287 -143.29163 211.89619 0.39190587 0.15434326 -0.90696639 0.0085566025
-170.41437 -140.89648 211.21088 0.79196948 0.11333198 0.59995008 0.012809066
-169.86443 -141.32816 210.3828 0.78200352 0.134434 0.60860336 0.012734242
91.669357 -140.83633 210.11171 0.39562088 0.12126732 -0.91037267 0.0076709101
93.063332 -141.21841 210.56607 0.38834843 0.13482201 -0.91159666 0.0063723945
94.906487 -141.17384 211.32509 0.38536429 0.14185163 -0.91179633 0.0064458852
96.703621 -141.25 211.7281 0.38543648 0.14334261 -0.91153252 0.0065046339
-170.59438 -138.87735 210.99098 0.81036675 0.076096497 0.58096045 0.013448624
-169.65364 -138.89882 210.38286 0.78608054 0.068111405 0.61435997 0.013535708
-170.60559 -136.95691 210.99585 -0.74470812 0.05791847 -0.66487241 0.012468019
-170.75534 -135.09889 211.31866 -0.7814911 0.099002331 -0.61601162 0.01168366
-170.6219 -133.44521 211.73499 0.82135129 -0.12063123 0.55752152 0.010726158
98.364403 -126.40377 211.24557 -0.37280267 0.72067642 0.58450294 0.011188418
97.981133 -125.48756 211.21823 -0.37177354 0.72266215 0.58270395 0.011145811
99.063171 -125.50468 211.58791 -0.38146481 0.71390319 0.58721954 0.01040896
101.0024 -124.83807 211.8118 -0.38518992 0.70989072 0.58964723 0.010674058
102.33192 -124.19562 211.95172 -0.35538059 0.48276541 -0.80040133 0.010401191
103.64326 -123.24258 211.73135 -0.38660455 0.71424627 0.5834288 0.01145778
104.96355 -122.49792 211.57912 -0.38438806 0.71062481 0.58928615 0.011788859
106.65538 -122.31846 211.39333 -0.38598108 0.71189117 0.58671081 0.011614935
105.46954 -121.453 210.84062 -0.38483927 0.71108222 0.5884394 0.011819266
106.88548 -121.06669 211.08073 0.35337204 -0.70397574 -0.61607337 0.012715186
14.902937 -110.29435 210.14409 -0.11358846 0.48645943 -0.86628801 0.0126771
11.667533 -108.34437 210.25221 -0.085816979 0.50736749 -0.85744601 0.011580809
13.155386 -108.76248 210.5808 -0.085404977 0.51296145 -0.85415256 0.012162937
15.081678 -108.9846 210.68378 -0.05832462 0.53013748 -0.84590334 0.012602295
16.8659 -108.60694 210.47641 -0.046777841 0.53827077 -0.84147274 0.011136879
18.261589 -108.03337 210.39034 -0.053670209 0.5369755 -0.84188884 0.0089455862
11.422837 -106.85233 211.07333 -0.045694254 0.53334939 -0.84465992 0.01047172
12.90635 -107.1662 211.4167 -0.035688788 0.53861171 -0.84179795 0.010678974
15.153487 -107.42168 211.58435 -0.034764487 0.54097152 -0.84032208 0.0091588581
17.126669 -107.06389 211.15346 -0.042153191 0.54035449 -0.84038091 0.0086368518
18.301931 -106.88556 210.36072 -0.048715189 0.53936082 -0.84066445 0.0090438435
11.13697 -105.5061 211.6601 -0.023595288 0.54018712 -0.84121412 0.0088044852
12.050083 -105.22404 211.85411 -0.025793523 0.54095823 -0.84065384 0.0073571634
17.545376 -105.4923 211.63538 -0.038611535 0.54059017 -0.84039962 0.0070840549
18.311295 -104.56879 211.57379 -0.042134635 0.54058719 -0.84023219 0.0070041525
18.484919 -103.67371 211.75328 -0.04374145 0.53930151 -0.84097594 0.0077284197
48.845901 -38.72979 210.55235 nan nan nan nan
103.38708 -190.86768 212.86882 -0.7025401 0.67571223 0.22327201 0.0014670711
104.05548 -190.29863 213.75449 -0.69314665 0.68525475 0.22354804 0.0016850543
104.89324 -188.96504 212.89622 -0.68302959 0.69444358 0.22631525 0.0014772279
105.91138 -187.74838 212.50673 -0.67554408 0.69987935 0.23196787 0.0014664371
106.83183 -186.9192 213.25867 -0.67346889 0.70125055 0.23385303 0.00257041
107.73703 -185.68428 212.56194 -0.67585468 0.69735205 0.23858032 0.0033253578
109.00646 -184.86745 212.95525 -0.67259109 0.69889522 0.24324185 0.0027659324
110.26055 -184.06563 212.77304 -0.66683918 0.70096594 0.25292742 0.0031816135
110.72699 -183.63567 212.47626 -0.66095293 0.70425779 0.25915679 0.0024693923
-160.83199 -173.01714 212.82794 0.037281252 0.72013968 -0.69282675 0.0019999435
-158.99709 -173.11246 213.15276 0.041539378 -0.41041946 -0.91095018 0.0016952422
-156.97499 -173.17999 213.25101 0.048144653 -0.5570516 -0.82908118 0.0020845574
-155.02312 -173.20451 213.26317 0.033046186 -0.052616809 -0.9980678 0.0021419025
-152.93854 -173.1478 213.30075 0.0088393763 0.26329923 -0.96467376 0.00070516777
-150.87871 -172.90976 213.37839 0.0090101724 0.20268041 -0.97920352 0.0010104694
-149.00316 -172.60275 213.27014 -0.012229879 0.29158875 -0.9564656 0.00078181928
-147.3219 -172.33537 213.30789 -0.034563318 0.37449136 -0.92658597 0.0011717913
-146.51262 -171.9104 213.48662 -0.046774793 0.40475786 -0.91322684 0.00099673797
-144.96898 -171.49878 213.60478 -0.064050294 0.43691334 -0.89722031 0.0012008973
-143.11122 -170.64915 213.74303 -0.074395239 0.44972074 -0.89006549 0.0011491035
-141.75708 -170.21065 213.81335 -0.086352691 0.46168494 -0.88283086 0.00095753593
-140.8176 -169.76514 213.89096 -0.073891245 0.43814501 -0.89586216 0.001524701
71.437943 -158.2453 212.19093 0.41174689 0.028888125 -0.91084021 0.0030640617
72.356209 -158.66527 212.38118 0.41397581 0.029355986 -0.90981448 0.0047055343
71.437004 -156.85132 212.17276 0.41139773 0.023179017 -0.91116118 0.0020624418
72.529411 -156.97797 212.73314 0.41143504 0.027540237 -0.9110229 0.0024885144
71.421486 -155.09688 212.18825 0.41162112 0.014445981 -0.91124052 0.0015693827
72.891861 -155.04002 212.79326 0.40900657 0.021282611 -0.9122833 0.0016257311
71.66983 -153.85649 212.0126 0.41132021 0.0098239286 -0.91143805 0.00046396017
72.966682 -153.6613 212.32719 0.40844786 0.011386285 -0.91271067 0.001304792
-167.64641 -147.98294 212.19659 0.72219926 0.37709352 0.57985228 0.007748059
97.511993 -146.50395 212.11157 0.38553494 0.17030554 -0.90684009 0.0087818755
98.344276 -146.04037 212.14731 0.38510886 0.16614591 -0.90779221 0.0095648468
97.749496 -144.89372 212.98044 0.38369033 0.1617358 -0.90918827 0.0089970101
98.517387 -144.88693 212.46457 0.38473088 0.16167945 -0.90875846 0.0088563999
-170.2496 -143.01558 212.41711 0.79734427 0.1903359 0.5727253 0.012045178
-169.99738 -143.88611 212.64439 0.78472519 0.21906017 0.57984394 0.012006028
97.695663 -142.78473 212.37859 0.38420251 0.15318744 -0.91045153 0.0086211888
98.601448 -143.01208 212.93011 0.38975015 0.15234862 -0.90823162 0.009012118
-170.94144 -140.72148 212.38928 0.81805307 0.10962071 0.56459939 0.012759058
93.580605 -140.45877 212.15456 0.39050713 0.13005766 -0.9113667 0.0056347316
95.690651 -140.8177 212.11195 0.3867369 0.13663653 -0.91201156 0.0063824984
97.222038 -140.89197 212.38223 0.3913762 0.13870639 -0.90971714 0.0069641019
98.753624 -141.04811 213.10107 0.40314546 0.14802684 -0.90308458 0.008819581
-171.24759 -139.01402 212.5242 0.82891643 0.071082719 0.55483752 0.013459059
97.690254 -139.98166 212.94388 0.40633127 0.143314 -0.90241677 0.0068441238
98.303146 -139.82565 213.58957 0.41248766 0.15650333 -0.89741886 0.0063877804
-171.49454 -137.00009 212.87621 -0.77505368 0.064955778 -0.62854803 0.012483584
-171.36217 -134.82193 212.7166 0.8254891 -0.10414281 0.5547269 0.01163728
-171.00497 -132.8942 212.81186 0.84298432 -0.1280396 0.52247798 0.0097517492
-170.67422 -131.13341 213.00429 0.87096184 -0.15169904 0.4673467 0.00914397
-169.72928 -130.09247 213.87187 0.87520242 -0.17458567 0.45115474 0.0088905608
-170.35413 -129.25072 213.40189 0.86619681 -0.19147439 0.46156323 0.0086672027
-169.78589 -128.78625 213.5936 0.85718405 -0.20590846 0.47205645 0.0084914882
-170.08987 -127.85067 213.77829 0.86434686 -0.22440562 0.45005184 0.0089248307
-169.67125 -127.64767 213.79877 0.85189176 -0.23336713 0.46884993 0.0087301703
99.224068 -126.66337 212.75349 -0.3777833 0.71781069 0.5848313 0.010761245
100.56261 -126.2818 213.17197 -0.38495395 0.71054786 0.58900946 0.010313587
-170.17767 -125.88498 213.34302 0.85607129 -0.26033044 0.4465088 0.010349941
-169.80197 -125.94855 213.79762 0.85780251 -0.25887609 0.44402486 0.0097856242
99.759468 -125.95486 212.04211 -0.38663915 0.71251875 0.58551461 0.010493759
101.21932 -125.35986 212.57812 -0.38586754 0.71103293 0.58782518 0.010495249
102.80711 -124.71201 212.90009 -0.3677721 0.47783628 -0.79775703 0.010396528
104.8127 -124.27565 213.42484 -0.38363487 0.70920473 0.59148383 0.011068753
103.04899 -123.4785 212.3994 0.3767308 -0.69711804 -0.61000025 0.010625508
105.14028 -123.35258 212.82573 -0.38479024 0.71119839 0.58833092 0.01153071
106.47677 -123.30591 212.71373 -0.38567048 0.71231079 0.58640569 0.011734105
107.55372 -121.2519 212.76512 0.3673932 -0.70745009 -0.60376865 0.013389803
11.993777 -106.24411 212.12311 -0.028768161 0.54112792 -0.84044808 0.0096512521
13.417212 -106.42747 212.22809 -0.029941449 0.54088974 -0.84056038 0.0089144139
14.992889 -106.4413 212.35783 -0.031855289 0.54060042 -0.84067613 0.00751741
16.433596 -106.25235 212.25783 -0.035039864 0.54045892 -0.84064049 0.0071780719
11.633619 -104.68538 212.77884 -0.014492557 0.53982961 -0.84164953 0.007105676
13.017096 -105.08115 212.92638 -0.022598268 0.54084986 -0.84081548 0.0068996064
15.013714 -105.04756 213.20905 -0.030517379 0.54169905 -0.84001839 0.0062755821
16.855894 -104.82283 212.55421 -0.034574673 0.54128677 -0.84012699 0.0068459082
11.144019 -102.91429 213.44846 -0.0016138797 0.54109651 -0.84095889 0.0073015532
12.609711 -103.69904 213.76289 -0.011251334 0.54053855 -0.84124404 0.0065354276
15.215961 -103.77801 213.86682 -0.022256339 0.54105473 -0.84069282 0.0067414595
17.062157 -103.32948 213.14833 -0.036448631 0.54121482 -0.84009409 0.0073338947
18.208181 -103.2442 212.5041 -0.041588534 0.54058051 -0.84026366 0.0086703803
10.999163 -101.93613 213.85168 0.0055709458 0.54170144 -0.84055257 0.0071656993
17.172115 -101.8293 213.62134 -0.028101077 0.54313999 -0.83917177 0.008652959
24.646757 -52.578075 213.96472 nan nan nan nan
39.473335 -26.35845 213.73685 nan nan nan nan
103.96169 -190.63033 214.11292 -0.69552016 0.68275005 0.22383933 0.0010848205
104.30964 -190.33292 215.15388 -0.6854828 0.69247872 0.22491463 0.0012193017
105.3005 -189.2028 214.9429 -0.67262346 0.70382452 0.22849244 0.0015013798
106.22047 -188.33466 214.98701 -0.67107749 0.704871 0.2298083 0.0018258964
107.21268 -187.06087 214.7282 -0.67094713 0.70433247 0.23183116 0.0027585565
108.29881 -186.23065 214.85486 -0.6689173 0.70537889 0.23450014 0.003024118
109.24475 -185.36105 214.73039 -0.66632634 0.70590067 0.24023645 0.0029652836
110.08952 -185.01718 215.52913 -0.6590026 0.7113964 0.24419406 0.002590677
-145.0556 -171.34918 214.224 -0.070328213 0.45389235 -0.88827676 0.001163213
-142.6554 -170.22081 214.18185 -0.082113072 0.45753595 -0.88539165 0.0012869952
-142.02982 -169.92369 214.23001 -0.088665187 0.46581239 -0.88043022 0.00053138228
-140.88841 -169.52979 214.24942 -0.084168397 0.45284963 -0.88760513 0.0015972978
-139.26357 -168.61771 214.6501 -0.12236392 0.49560529 -0.8598851 0.0015959856
-138.33127 -167.76274 215.04976 -0.12868053 0.49677214 -0.85828829 0.0011133578
-137.00363 -166.95987 215.12109 -0.13583674 0.5033716 -0.85332614 0.0014096245
-135.70955 -166.07033 215.43468 -0.040809624 0.39497665 -0.91778433 0.0013314341
-135.0407 -165.2556 215.64473 -0.17841756 0.53895068 -0.8232249 0.0024098973
98.896347 -140.14972 214.20151 0.41470772 0.16075794 -0.89564186 0.0084154801
-171.45639 -138.79721 214.02762 0.82027954 0.013914803 0.57179356 0.013042076
97.444786 -139.80179 214.22357 0.41147545 0.15190339 -0.89867312 0.0061880448
123.41928 -139.57085 214.91357 -0.45603776 0.7739045 0.43943289 0.001817633
125.0726 -139.15871 215.51752 -0.47943744 0.76524788 0.42957595 0.0030010424
126.42663 -138.44246 215.63268 -0.49415925 0.74149615 0.45386127 0.0031695042
127.55277 -137.80591 215.46146 -0.51825553 0.75776261 0.39649349 0.0035761003
128.90396 -137.05438 215.54761 -0.53703028 0.74634445 0.39315185 0.0040947418
130.38499 -136.1748 215.62817 -0.54908794 0.69062126 0.47068527 0.0048935353
131.29616 -135.46706 215.88022 0.22025551 -0.038842663 -0.97466856 0.004431718
132.34961 -134.66635 215.79407 -0.013617558 0.28857154 -0.95736152 0.0036186329
-171.49802 -132.20105 214.48196 0.87876201 -0.1379469 0.45688945 0.0093339179
-171.17444 -130.65685 214.34613 0.87994426 -0.16345415 0.4460727 0.0086828964
-170.68155 -128.84442 214.4612 0.86732227 -0.20469835 0.45370781 0.0084035574
-169.68967 -129.81595 214.2029 0.86637706 -0.18315311 0.46459216 0.0083516408
-170.19908 -127.22233 214.80147 0.85520381 -0.24425122 0.45712987 0.0086447485
-169.64436 -126.8272 214.33968 0.8535096 -0.25023672 0.45705897 0.0088764699
103.64954 -124.91932 214.12781 -0.34982827 0.4920305 -0.79719901 0.010379777
104.56279 -124.53416 214.16661 -0.38326868 0.70839149 0.5926944 0.010710952
14.139717 -104.29823 214.0542 -0.017446412 0.54045492 -0.84119213 0.0059137298
11.558408 -102.37404 214.26854 0.0020080719 0.54209191 -0.84031677 0.0069988202
13.121402 -102.86013 214.44824 -0.0069121188 0.54184735 -0.8404485 0.0068506547
14.861665 -102.90135 214.75902 -0.013501436 0.54218477 -0.84015083 0.0078635709
16.437565 -102.56094 214.27423 -0.022265092 0.54217607 -0.83996993 0.0080312854
11.127845 -101.03706 214.95184 0.016660538 0.54323161 -0.83941758 0.0077531533
12.833653 -101.15611 215.37227 0.0090358425 0.5434773 -0.83937526 0.0078227911
15.26218 -101.10867 215.4335 -0.0024909244 0.54435939 -0.83884847 0.0079746982
16.565454 -101.01616 214.91835 -0.011758523 0.54504436 -0.83832473 0.0080359736
10.802739 -99.572922 215.63994 0.030545296 0.54302907 -0.83915812 0.0069594025
16.757174 -99.424225 215.60809 -0.0064208829 0.54406488 -0.83901858 0.0068413424
110.29839 -16.562916 215.21895 nan nan nan nan
104.72749 -190.44502 216.99496 -0.67602462 0.70065582 0.22819343 0.0020211115
105.60293 -189.52403 216.93295 -0.66966903 0.70605665 0.23027679 0.0019163332
106.28037 -188.90125 217.26224 -0.66840202 0.70707983 0.23081778 0.0020859118
109.1882 -186.4149 217.33076 -0.65915412 0.7128762 0.23942296 0.0024869936
109.68791 -185.74973 216.88228 -0.6580382 0.71315265 0.24165918 0.0028843237
111.1123 -184.76942 216.80197 -0.64527816 0.72165745 0.25065225 0.0025530707
112.25783 -184.14445 217.23929 -0.63174987 0.73131222 0.25704983 0.0016978156
112.66994 -183.76318 217.29297 -0.62294912 0.73770845 0.26023191 0.0013164226
-136.58772 -166.72255 216.00853 -0.16608603 0.53591383 -0.82777518 0.0016592853
-134.25565 -164.43216 216.11218 -0.25419036 0.60156798 -0.75729996 0.0027286061
-134.07635 -163.99028 216.40364 -0.40113226 0.7142989 -0.57347196 0.0033510199
-133.46484 -163.52463 216.30125 -0.47457391 0.74739873 -0.46494594 0.0037947716
125.61034 -139.26805 216.11104 -0.48433778 0.75776047 0.43728259 0.003593934
127.97684 -138.0195 216.10147 -0.52472627 0.76635122 0.37063193 0.0037076469
3.2172844 -136.42867 217.66138 -0.099613667 0.2133017 -0.9718948 0.020948762
4.1412692 -136.59015 217.98993 -0.10460477 0.21304883 -0.97142577 0.019979775
129.49283 -137.08485 216.15744 -0.5404343 0.72786522 0.42206988 0.0043152003
130.73106 -136.27831 216.2502 0.30444947 -0.17239103 -0.93679869 0.0047977604
1.8213662 -135.07529 217.67085 -0.10079361 0.22079243 -0.97009867 0.014931708
2.5912278 -135.73868 217.76672 -0.099912532 0.2175651 -0.9709186 0.017064016
8.3906689 -134.07092 217.65656 -0.12099975 0.20286193 -0.97170269 0.017153874
131.48134 -135.69701 216.40971 0.17941245 0.024394212 -0.98347145 0.0041922517
132.84641 -134.74777 216.68344 0.098297194 0.15408503 -0.98315591 0.0040492862
0.43211833 -132.69075 217.95927 -0.10770141 0.22315902 -0.96881396 0.011401119
8.5049295 -132.87662 217.67805 -0.12433741 0.20300744 -0.97125083 0.013505058
133.70041 -133.80956 216.52129 0.23254851 -0.0019714711 -0.97258282 0.0045286333
135.00334 -132.9702 217.15785 0.26577079 -0.0077727512 -0.96400493 0.0042767283
136.11148 -132.23019 217.77423 0.35864127 -0.10089992 -0.92800629 0.0033256186
135.87564 -131.86687 217.49704 0.35544136 -0.095566809 -0.92980021 0.0034309635
136.94618 -130.99617 217.62958 0.24746479 0.035664782 -0.96824026 0.0024166317
137.92435 -129.50815 217.76646 0.17902109 0.11881326 -0.97664469 0.0024823365
138.35687 -129.36105 217.82182 0.17411685 0.12537113 -0.97671157 0.0026395472
14.336619 -102.03133 216.14674 -0.00014715284 0.54403591 -0.83906198 0.0086234557
11.815268 -100.1994 216.1232 0.01951254 0.54299182 -0.83951128 0.0065839817
13.29157 -100.44949 216.35545 0.011949239 0.54343754 -0.83936453 0.0063618491
14.420734 -100.84639 216.41344 0.0060292818 0.54415762 -0.83896136 0.0071935621
16.006886 -100.11139 216.19675 -0.00092890824 0.5443148 -0.83888054 0.0073462366
-118.62276 -98.506058 217.09862 0.76867867 0.59465104 0.23563349 0.011926694
-117.62628 -99.021484 217.00386 0.77281624 0.60644501 0.18702821 0.012780525
11.36842 -98.812759 216.54187 0.032812364 0.54271042 -0.8392787 0.0060241674
12.890724 -98.956154 217.12215 0.019992484 0.54233772 -0.83992267 0.0053372849
14.918532 -98.987396 216.96393 0.0078264009 0.54265928 -0.83991647 0.0055357809
16.356865 -98.699921 216.38609 -0.0011940858 0.5425607 -0.84001577 0.0056330319
-119.16896 -97.332008 217.13251 0.76966721 0.59559 0.22996728 0.011725765
-117.95544 -97.925446 216.5298 0.76402897 0.59032792 0.26033196 0.012060895
9.4302006 -96.562416 216.98723 0.059840772 0.53966206 -0.83975232 0.0069185994
10.966907 -97.242706 217.52713 0.047253434 0.53984731 -0.84043556 0.0059534493
12.847698 -97.624527 217.84253 0.029039914 0.54042739 -0.84088933 0.0055074682
15.348499 -97.373741 217.66365 0.011201056 0.54088324 -0.84102309 0.0058436557
16.388298 -97.204918 217.07034 0.0041636443 0.54163224 -0.84060526 0.0060358793
-122.25657 -94.420898 217.16634 0.75123501 0.57868004 0.31745151 0.012085583
-121.69526 -94.716797 217.59845 0.74971157 0.57727295 0.32355595 0.012296836
9.2364397 -95.080139 217.86694 0.059393566 0.54186875 -0.83836198 0.0070794038
16.480932 -95.813683 217.72911 0.017785305 0.54046559 -0.84117812 0.0079482999
-122.59989 -93.321709 217.30637 0.75199652 0.57940203 0.31431583 0.01194486
-121.70251 -93.524521 217.55112 0.74897343 0.57675695 0.32617524 0.01190579
-123.35464 -91.428253 216.77051 0.75641119 0.58204776 0.29843327 0.012742966
103.78047 -6.7411737 217.78098 nan nan nan nan
105.02386 -190.81647 219.06516 -0.67002934 0.70678884 0.22695856 0.0014690665
106.08005 -190.01559 219.39925 -0.66299713 0.71219385 0.23068319 0.0012238455
105.75839 -189.96942 218.67207 -0.66581601 0.70943546 0.23106353 0.0018808879
106.62567 -189.11778 219.1149 -0.66343915 0.71120381 0.23245978 0.0016095479
109.26563 -186.88274 219.06079 -0.65259403 0.71853226 0.24048348 0.0016707629
110.38504 -186.21506 219.73123 -0.64230955 0.72622901 0.24500999 0.0011085132
111.23509 -185.33583 218.86697 -0.63908839 0.72721541 0.25044712 0.0016878052
112.36018 -184.53967 218.96834 -0.62658399 0.73631871 0.25539613 0.0012447712
3.5852277 -136.34897 218.05673 -0.10224615 0.21321179 -0.97164118 0.019468963
4.7030182 -136.15878 218.49585 -0.10700073 0.21197757 -0.97139919 0.01809792
1.8170186 -134.43616 218.23428 -0.10628548 0.21964724 -0.9697724 0.013745512
3.0946708 -134.93958 218.45308 -0.10758507 0.21628498 -0.97038466 0.014788362
4.8360744 -134.95859 218.95425 -0.11195017 0.21284947 -0.97065043 0.01482937
6.6521983 -134.56012 218.72723 -0.11687279 0.2092389 -0.97085518 0.013626809
8.0361748 -134.11143 218.04233 -0.11922823 0.20262372 -0.97197133 0.015587922
1.2860503 -132.88353 218.65395 -0.11092202 0.22038481 -0.96908551 0.011000733
3.0021231 -133.0183 219.2798 -0.11671863 0.21626957 -0.9693318 0.012057006
4.9325576 -133.08528 219.38072 -0.11905728 0.21442202 -0.96945786 0.011671651
6.8692822 -133.02924 218.74995 -0.12248468 0.2101433 -0.96996766 0.013183073
8.2162228 -133.16693 218.1328 -0.12352208 0.20432909 -0.97107774 0.014363203
-0.38551286 -130.4164 219.049 -0.10839944 0.21740353 -0.97004402 0.0071886843
1.0073596 -131.09901 219.42088 -0.1133584 0.2151719 -0.9699747 0.0077778283
2.7131374 -131.15327 219.74345 -0.11948812 0.21202008 -0.96993309 0.0068556932
5.0431046 -131.07555 219.53435 -0.12728737 0.20926277 -0.96953958 0.010430446
6.8595934 -131.06992 218.78926 -0.12995403 0.20645991 -0.9697867 0.012349484
8.098011 -131.42297 218.26302 -0.13318598 0.20477334 -0.96970582 0.015258369
137.81036 -130.19095 218.04825 0.17721799 0.11615715 -0.97729284 0.0021958838
138.1051 -130.05574 218.21404 0.18845762 0.10800115 -0.97612476 0.0022189813
-2.1195984 -128.07191 219.68283 -0.091501653 0.2305291 -0.96875376 0.0059214365
-0.92945302 -129.21567 219.57063 -0.10204177 0.22159985 -0.96978396 0.0050544501
0.067404956 -129.08774 219.84348 -0.10985827 0.21889801 -0.96954364 0.0056288345
3.3611302 -129.53336 219.89192 -0.12439537 0.20945235 -0.96987396 0.0063461727
5.1358089 -128.92662 219.59904 -0.12805119 0.20718955 -0.96988422 0.0056092087
6.5539145 -129.11589 218.90154 -0.13438615 0.20458128 -0.96958065 0.0076076942
138.87404 -128.73441 218.29889 0.16172393 0.14160815 -0.976623 0.0023362993
-2.128247 -127.78085 219.90369 -0.093468279 0.22899228 -0.96893048 0.005651861
-1.8151799 -127.79426 219.96649 -0.092985786 0.23009898 -0.96871465 0.0052155638
3.9652162 -126.28469 219.89594 -0.12391988 0.21138619 -0.96951526 0.0065507949
5.0372887 -127.20008 219.60176 -0.12958126 0.20802157 -0.96950287 0.0056342892
139.61815 -127.49339 218.55087 0.11129685 0.18282582 -0.97682536 0.0023899598
140.32805 -126.40887 219.05225 0.063755438 0.21432006 -0.9746806 0.0026476497
3.9906747 -125.9409 219.71091 -0.12517908 0.2110931 -0.96941727 0.0082438597
4.7530828 -125.38147 219.68579 -0.1333338 0.20774755 -0.96905261 0.0081395116
141.04333 -124.87531 218.93063 0.1389388 0.175321 -0.97465819 0.0024087878
141.75972 -123.41034 219.453 0.29618281 0.10016692 -0.94986433 0.0019886531
142.16396 -122.87562 219.76129 0.31284758 0.095781378 -0.94496155 0.0019156956
142.35272 -121.58246 219.77994 0.30370584 0.1080203 -0.94662261 0.00223673
-132.20892 -118.14356 219.08914 0.54124212 0.83890438 0.057415094 0.031752929
-131.55255 -118.6709 219.38127 0.54173636 0.83730894 0.073725991 0.031845566
-134.4998 -116.19325 219.20662 0.53806549 0.84290212 -0.0012212946 0.031263232
-132.88197 -116.913 219.55998 0.53980505 0.84131426 0.028296115 0.031255458
-131.56255 -117.14014 219.35999 0.54026479 0.84068459 0.036923237 0.031306092
-138.26332 -114.56707 219.56848 0.54016626 0.84000337 0.051133081 0.030157188
-136.90157 -115.01042 219.29468 0.54017943 0.84075779 0.036504276 0.029413838
-135.03297 -115.24236 219.55391 0.53887951 0.84231949 0.010331884 0.03042818
-133.50417 -115.46803 219.7252 0.53760475 0.84317029 -0.0067048827 0.031197434
-135.93381 -113.74659 219.90482 0.54034269 0.84040356 0.041853238 0.029510701
13.792846 -98.268906 218.0461 0.019975053 0.54138005 -0.84054065 0.0054394733
11.062203 -96.351295 218.32666 0.049573332 0.53988224 -0.84027952 0.0068374346
13.032886 -96.829498 218.52557 0.03612813 0.53987509 -0.84096938 0.0060477294
14.856088 -96.657379 218.4565 0.025675423 0.54073095 -0.84080368 0.006672103
-121.58817 -94.41288 218.21053 0.75359166 0.58089191 0.30767542 0.012358592
9.5443478 -94.703827 218.71503 0.055486195 0.54184914 -0.8386423 0.0058623599
10.951829 -94.982254 219.09492 0.047669515 0.54143792 -0.83938819 0.0053463546
12.98047 -95.373405 219.32899 0.040745988 0.54042739 -0.84040344 0.0049567446
15.114383 -95.038307 219.17308 0.030827899 0.53893423 -0.84178358 0.0057393154
16.440693 -95.571228 218.22247 0.023519637 0.53962708 -0.84157562 0.0070688268
-121.87464 -93.826591 218.07491 0.75093281 0.57850987 0.31847483 0.01202539
9.4779844 -93.27726 219.39574 0.050924394 0.54218429 -0.83871508 0.004980871
10.45321 -93.532112 219.64653 0.043468658 0.54080468 -0.84002423 0.0046468922
12.646125 -93.519302 219.86017 0.030346474 0.53874683 -0.84192097 0.0037889485
15.424641 -93.523796 219.7999 0.023909498 0.53808516 -0.84255129 0.0049332436
9.1505966 -91.85817 219.9491 0.041062575 0.542781 -0.83886987 0.0044630878
94.407455 -61.679108 219.85362 -0.28377014 0.119091 -0.95146829 0.011751464
105.16338 -191.21846 221.01857 -0.66494101 0.71234739 0.22453213 0.0010479845
106.27146 -190.23694 221.12505 -0.65677142 0.71838385 0.22929437 0.00052005117
107.16676 -189.16788 221.0396 -0.65488243 0.71872562 0.23358615 0.00051882042
108.73388 -188.01157 221.68787 -0.6462298 0.72379577 0.2418817 0.00056688039
109.27002 -187.34364 220.72653 -0.64766908 0.72273922 0.24119033 0.00080046634
110.87518 -186.3067 221.11377 -0.63657558 0.73093128 0.24598977 0.0010720795
111.50569 -185.64217 220.60678 -0.63499403 0.73156708 0.2481779 0.0014164975
112.18367 -185.20642 220.55118 -0.62963116 0.73525167 0.25093764 0.0013447548
3.6662941 -132.16566 220.14746 -0.12165076 0.2144815 -0.96912271 0.010591522
4.0849094 -132.6897 220.0298 -0.11975145 0.21560907 -0.96910906 0.01164669
1.3473433 -130.32495 220.19904 -0.11514059 0.21340929 -0.97015417 0.0067537669
3.2458496 -130.81241 220.1519 -0.12221413 0.2099319 -0.97004759 0.0062968591
4.3784184 -130.62996 220.09598 -0.12530071 0.20870565 -0.96991843 0.0070596719
-0.76177359 -128.5031 220.19583 -0.10029536 0.22336519 -0.96956116 0.0040892893
1.0663264 -128.96147 220.53203 -0.11370452 0.21720834 -0.96948022 0.0062436117
2.9749472 -128.93364 220.41432 -0.12161653 0.21177454 -0.96972209 0.008070386
4.3022323 -129.38586 220.11157 -0.12575522 0.2079713 -0.97001731 0.0050683161
-2.5899215 -126.68845 220.56743 -0.088692904 0.23263086 -0.96851248 0.006664237
-1.0460522 -126.94344 220.86945 -0.096633539 0.22871412 -0.96868563 0.0069179381
0.97549021 -127.01296 221.175 -0.10771445 0.22243497 -0.968979 0.0061200052
3.0528851 -127.03489 220.55643 -0.12051058 0.21461897 -0.9692347 0.0062573426
4.4430666 -126.70712 220.13028 -0.1277899 0.20947495 -0.96942765 0.0064637559
-4.2564039 -124.34007 221.07509 -0.075076379 0.23978294 -0.96791929 0.0052025998
-2.9495265 -125.0235 221.26411 -0.084189855 0.23608053 -0.96807963 0.0044550351
-1.1979593 -125.1955 221.67821 -0.094260924 0.22996736 -0.96862268 0.0034449315
1.1312822 -125.06041 221.47081 -0.10696242 0.22382745 -0.96874166 0.0056298091
3.1472979 -124.92986 220.63666 -0.12061822 0.21720688 -0.96864462 0.0059559178
4.4323907 -124.96403 220.21617 -0.1295491 0.21254644 -0.96852517 0.0075747934
-4.6796165 -123.02116 221.46429 -0.073427737 0.23608464 -0.96895427 0.0065890052
-3.1869462 -123.56793 221.78969 -0.083394863 0.23491296 -0.96843237 0.0071031065
-0.93507946 -123.14722 221.84764 -0.097603679 0.22879365 -0.96856964 0.0058173388
0.96282768 -123.04771 221.59433 -0.10747828 0.22445744 -0.96853876 0.004226102
2.7352061 -122.98607 220.81084 -0.11940393 0.21872975 -0.96845239 0.0045215287
142.44148 -122.41303 220.28981 0.34826821 0.082054906 -0.93379664 0.0022793512
-6.766521 -121.02876 221.86667 -0.050876632 0.24449337 -0.9683153 0.005530565
-5.1279597 -121.60864 221.9055 -0.068987817 0.23727511 -0.96898979 0.0054979292
-0.24379893 -121.36362 221.86565 -0.10508084 0.22243968 -0.96926707 0.0057932511
1.1178647 -121.07372 221.66295 -0.11460509 0.21945357 -0.96886832 0.0055594663
2.5416346 -121.55567 220.79755 -0.1243555 0.21579616 -0.96848738 0.0046604718
142.82332 -121.00391 220.405 0.28290081 0.12388754 -0.95111459 0.0025268602
-130.76279 -118.73083 220.69958 0.54380649 0.83920974 -0.0012701835 0.032947604
-129.87079 -119.03483 220.68732 0.5420779 0.81144041 -0.21843994 0.035375159
-8.0824337 -119.31619 221.85645 -0.043466039 0.2482032 -0.96773231 0.0097838929
-0.10537977 -118.47933 221.81454 -0.10363996 0.22266077 -0.96937144 0.0060287244
0.61745423 -118.75964 221.77364 -0.11332332 0.21739586 -0.96948278 0.0075950697
143.45647 -118.9845 220.71283 0.15314238 0.18634126 -0.97047633 0.0024571812
-132.75871 -116.90471 220.07339 0.53981346 0.84130681 0.028362142 0.031414695
-131.48517 -117.72938 220.22722 0.5409323 0.83953661 0.050700419 0.031229174
143.78246 -117.08424 221.10738 0.098913126 0.2132715 -0.97197294 0.0021465498
144.1481 -116.87943 221.33122 0.11337875 0.21159564 -0.97075874 0.0022035628
-138.60661 -114.301 221.02086 0.53339303 0.8458674 0.00057550787 0.031450849
-136.97783 -114.35796 220.34763 0.54095244 0.83965605 0.048458513 0.029444782
-135.32384 -114.45025 220.14818 0.53974026 0.84140939 0.026658846 0.030076666
-133.07355 -115.7324 220.14024 0.5394237 0.84184444 0.017889513 0.031086069
143.92773 -115.90927 220.84254 0.11577547 0.21581391 -0.9695465 0.0018539988
144.31493 -114.95377 221.44484 -0.023629656 0.23200929 -0.97242653 0.0021254064
-138.5899 -113.48593 221.14964 0.51540679 0.85382253 -0.073095307 0.032903198
-137.08876 -113.59249 220.78809 0.54028124 0.84048551 0.040991727 0.029569037
-135.60291 -113.93534 220.07565 0.53996354 0.8411445 0.030254234 0.029966315
144.31133 -113.10837 221.66133 -0.096367218 0.23385824 -0.96748316 0.0018246889
11.955038 -94.362167 220.09164 0.036874477 0.54025358 -0.84069395 0.0040805088
13.116614 -94.377731 220.17047 0.032620497 0.53957564 -0.84130502 0.0044889227
14.201641 -94.247437 220.18076 0.027758541 0.53901529 -0.84183854 0.0046796459
9.4892826 -92.50293 220.26004 0.042140126 0.54248619 -0.83900708 0.0046042888
11.106699 -92.837334 220.62569 0.034016453 0.54045641 -0.840684 0.0045205876
13.067245 -93.024887 220.81285 0.027136365 0.53890479 -0.84192955 0.0045562154
14.813798 -92.75795 220.64677 0.021393897 0.53730673 -0.84311545 0.0043113339
9.4424696 -91.039719 221.08293 0.031891067 0.54431564 -0.838274 0.0049955691
10.867178 -91.242386 221.53708 0.023792772 0.54276735 -0.83954602 0.005087446
13.083469 -91.54821 221.81442 0.016225798 0.5399648 -0.84153122 0.0055032042
15.117396 -91.13221 221.30498 0.0089613907 0.53778762 -0.84303272 0.005064643
9.463501 -89.806664 221.65811 0.023282798 0.54449874 -0.83843851 0.0045460053
10.00115 -89.630081 221.99239 0.015498556 0.54327446 -0.83941209 0.004776855
15.477459 -89.522781 221.87149 -0.0030602652 0.53986281 -0.84174746 0.0059920964
89.06012 -62.518742 221.80421 -0.28821844 0.10963692 -0.95126748 0.0048350273
90.819695 -62.475025 221.2959 -0.28236768 0.11026832 -0.95294774 0.006761895
92.774994 -62.291981 220.47108 -0.27869883 0.10735667 -0.95435923 0.0089473389
91.247078 -61.15728 221.56577 -0.28140399 0.11057262 -0.95319754 0.0080352528
93.011658 -61.021164 221.15475 -0.27897263 0.10519282 -0.95452017 0.0091216927
94.560875 -60.922302 220.86617 -0.28178909 0.11284281 -0.95281762 0.010556904
1.9988366 -58.179268 220.90474 -0.040668551 0.30050871 -0.95291167 0.0049204333
3.2105873 -58.543972 220.91316 -0.043494724 0.30102253 -0.9526245 0.0062741465
5.0969634 -58.78587 220.97862 -0.049452871 0.2992442 -0.95289415 0.0078399954
6.8226013 -58.641716 220.93559 -0.058075663 0.2941125 -0.95400476 0.0080583347
89.924347 -58.395004 221.83713 -0.28454253 0.11163707 -0.95214117 0.007180294
91.032837 -58.906273 221.83475 -0.2815401 0.10789802 -0.95346373 0.0060280985
93.112038 -59.015953 221.50954 -0.27833623 0.10073172 -0.9551869 0.0070288028
94.50769 -59.277122 221.36919 -0.27859372 0.10748893 -0.95437503 0.0077693956
-2.6676445 -56.312195 221.50819 -0.014617251 0.30733466 -0.95148927 0.0041222535
-1.0947824 -56.776257 221.59984 -0.030520003 0.29936326 -0.95365101 0.0033362815
0.9414587 -57.260086 221.47234 -0.037744585 0.29356778 -0.9551928 0.0021832038
3.1678956 -57.158073 221.59166 -0.046683386 0.28926113 -0.95611119 0.0032952537
5.1239223 -57.352299 221.54791 -0.054752775 0.2889941 -0.95576388 0.004368355
7.0143604 -56.972893 221.32593 -0.06410756 0.28334761 -0.95687217 0.0041446285
8.2126923 -56.719578 220.71019 -0.074882261 0.28036663 -0.95696777 0.0041572601
89.956192 -57.732594 221.85045 -0.28349182 0.11114308 -0.95251226 0.0076035694
91.132072 -57.508709 221.78181 -0.28078949 0.10159127 -0.95437753 0.0053290012
93.089684 -57.218338 221.26729 -0.27609351 0.099728942 -0.95594281 0.0052888063
94.159309 -57.643829 221.23203 -0.27411592 0.105107 -0.9559356 0.0052292813
-4.9149871 -55.159554 221.72459 -0.0053404099 0.30615297 -0.95196742 0.0064533679
-3.2770073 -55.81044 221.67822 -0.0097263241 0.30556422 -0.95212179 0.0037154702
-1.8941345 -55.723125 221.9592 -0.028604127 0.29313415 -0.95564336 0.0048263366
1.368045 -55.069885 221.82883 -0.045273878 0.28165728 -0.95844638 0.0018088687
3.0925269 -55.697807 221.88858 -0.048174266 0.28135908 -0.95839256 0.0026157671
4.5266376 -55.441956 221.85445 -0.056174021 0.27803227 -0.95892781 0.0014451124
7.0218081 -55.243332 221.74986 -0.073843613 0.2740958 -0.9588632 0.0035473888
8.2162724 -55.943008 220.94127 -0.077943616 0.27392998 -0.95858604 0.0055919001
6.8052917 -53.489208 221.88542 -0.08525417 0.25991872 -0.96185958 0.0016863449
103.80636 -193.62263 223.86615 -0.69379866 0.68721503 0.21535765 0.0014564525
104.7924 -192.25034 223.32976 -0.66825026 0.70970577 0.22306831 0.0011501726
105.55209 -191.47411 222.95842 -0.65934604 0.71678621 0.22689289 0.00086829253
106.42786 -190.6339 223.05428 -0.6531359 0.7212429 0.23069924 0.00073056301
107.43842 -189.45184 222.86504 -0.64735186 0.72493535 0.23538111 0.00083114812
108.56072 -188.35928 222.38947 -0.64465243 0.72526842 0.24167933 0.00052862969
109.11195 -187.73761 222.21988 -0.64303499 0.72613841 0.24337007 0
0.91446805 -126.52455 222.11377 -0.10355596 0.22695301 -0.9683845 0.0083759995
-0.79662281 -124.68713 222.16495 -0.095756717 0.23017485 -0.9684267 0.0032042821
0.2605181 -124.73745 222.18925 -0.10093506 0.22728652 -0.96858293 0.003286378
-4.0598927 -122.15976 222.30266 -0.079643764 0.23129924 -0.96961725 0.0042716786
-2.8783867 -122.72916 222.43346 -0.087524034 0.23011625 -0.96921927 0.0064058919
-1.1690128 -122.93428 222.43588 -0.096746013 0.2284008 -0.96874833 0.0059240488
0.45739827 -122.97066 222.14232 -0.10485253 0.2256626 -0.96854651 0.0046720845
-6.6379528 -120.39783 222.37663 -0.055769399 0.24249662 -0.96854794 0.0070409081
-4.9963818 -120.90088 222.54794 -0.069322482 0.23741868 -0.96893078 0.0060071833
-2.9775248 -121.01283 223.11829 -0.085931137 0.22949903 -0.96950811 0.0055128215
-1.1500932 -120.91839 222.63132 -0.10023237 0.22232582 -0.96980649 0.0073243817
0.43441039 -120.90511 222.16919 -0.11069632 0.21953046 -0.96930522 0.0060179951
-8.2455568 -118.54351 222.55046 -0.045190472 0.24812256 -0.96767402 0.011407471
-7.0106683 -118.97725 222.89461 -0.054804686 0.24250691 -0.96860051 0.010101889
-4.9909787 -119.00562 223.28165 -0.071066007 0.23560309 -0.96924752 0.0093676876
-2.916152 -119.02736 223.52058 -0.081792802 0.23174196 -0.96933258 0.0076637515
-1.0490663 -119.03699 222.81012 -0.095693827 0.22603801 -0.96940678 0.0059588505
0.38597858 -119.2418 222.17204 -0.11079106 0.21841308 -0.96954679 0.0069913231
-10.108232 -116.58683 223.12927 -0.034793012 0.25286394 -0.96687603 0.0096329106
-8.8367157 -116.86404 223.29312 -0.046623532 0.24676041 -0.96795428 0.0086873593
-7.1545224 -117.26829 223.47868 -0.058221966 0.2406649 -0.96886045 0.010801857
-4.9061189 -117.42298 223.77443 -0.074286997 0.23249704 -0.96975589 0.0088129854
-2.7115521 -116.94257 223.4787 -0.085781276 0.22732677 -0.97003299 0.0089011993
-1.0535243 -116.99964 222.76947 -0.094719276 0.22476959 -0.96979743 0.0076149222
-139.16507 -114.19378 222.22296 0.51940048 0.8533991 -0.043968763 0.034917373
-10.423247 -114.91369 223.75029 -0.042611185 0.24857645 -0.96767461 0.0088276519
-9.2479982 -115.42458 223.69174 -0.049403179 0.2436835 -0.96859574 0.0074790334
-7.5895963 -115.35465 223.9095 -0.060404934 0.23739795 -0.96953255 0.0064099883
-4.0057116 -115.6869 223.97131 -0.07867042 0.23128496 -0.9697001 0.010282127
-2.7556796 -114.97816 223.67973 -0.088281207 0.22609966 -0.97009557 0.0087723555
-1.368794 -115.24833 222.86835 -0.096920967 0.22183561 -0.97025532 0.0085130641
-138.53117 -112.95807 222.3997 0.49383518 0.85654527 -0.14985639 0.034418583
-137.83057 -113.08218 223.18057 0.52182311 0.8513611 -0.053712774 0.032713313
-11.549148 -113.45583 223.74344 -0.040895432 0.25288332 -0.96663207 0.0074236854
-9.3520298 -113.8428 223.96434 -0.052672677 0.24163149 -0.96893746 0.0068995678
-2.8039396 -113.11441 223.62471 -0.087320343 0.22419746 -0.97062379 0.0065499125
-1.8072639 -113.49883 223 -0.095574424 0.22163734 -0.97043413 0.0068309475
144.45863 -112.69656 222.14943 -0.11873028 0.23421086 -0.96490848 0.0020760619
-3.257791 -111.8438 223.87064 -0.085236609 0.22381693 -0.97089684 0.0078494623
144.47798 -110.93145 222.6165 0.021296056 0.24091028 -0.97031367 0.0020630823
144.29024 -109.0148 223.05997 0.084407687 0.24544992 -0.96572751 0.0014423872
143.86449 -106.70037 223.44583 0.084984235 0.26031163 -0.96177727 0.00070779218
144.21608 -107.22628 223.64307 0.088565148 0.25949201 -0.9616757 0.001069841
143.6993 -105.28958 223.81244 0.1224589 0.27047506 -0.95490676 0.00028366374
9.6425867 -90.002113 222.28473 0.020514347 0.54368293 -0.83904004 0.0049050697
11.15936 -90.427338 222.32362 0.013554204 0.54265529 -0.83984619 0.0053931307
12.940996 -90.702675 222.37773 0.010061389 0.54168081 -0.84052408 0.0063630673
14.520572 -90.346748 222.1926 0.0049252529 0.54089606 -0.841075 0.0059569757
9.488596 -88.822029 222.70325 0.0077684228 0.5460996 -0.83768421 0.0057400647
10.949801 -89.091049 223.19458 0.0035631373 0.54460305 -0.83868641 0.0056606466
12.895865 -89.021721 223.33211 -0.0049225334 0.54240209 -0.84010458 0.0054927506
14.838758 -88.93956 222.88974 -0.0099833356 0.54043144 -0.84132892 0.0057490063
9.4022789 -87.454422 223.56789 -0.010864162 0.54835665 -0.83617407 0.0064243362
10.549148 -87.723152 223.68758 -0.013237489 0.54583585 -0.83778757 0.0058083474
12.606575 -87.748619 223.96924 -0.016104583 0.54409432 -0.83886951 0.0046419012
15.012609 -87.049042 223.74966 -0.028211996 0.54066563 -0.8407644 0.003271082
15.726014 -85.669312 223.91055 -0.04332076 0.53977042 -0.84069687 0.0031692772
81.435585 -64.639229 223.86491 -0.29398599 0.13518785 -0.94620109 0.0058540758
82.791458 -64.398277 223.41293 -0.29382476 0.12534532 -0.94760519 0.003199829
84.617935 -64.24305 223.06676 -0.29553863 0.1201454 -0.94774574 0.0028083678
83.185211 -63.282604 223.65453 -0.29354218 0.11849465 -0.94857365 0.0025520055
84.968697 -63.017559 223.43362 -0.29387361 0.11628188 -0.94874483 0.0023575099
86.861412 -62.828827 222.69987 -0.29003274 0.10664958 -0.95105571 0.0023445261
88.664848 -62.514526 222.16611 -0.28961283 0.1088837 -0.95093054 0.0037677446
83.564774 -61.037109 223.88045 -0.29367682 0.10979398 -0.94957846 0.0024226503
85.048073 -60.973797 223.62495 -0.29278758 0.11152909 -0.94965082 0.002382281
87.079437 -61.014351 223.07666 -0.28963304 0.10373837 -0.95149934 0.0029980186
88.976784 -61.047081 222.49121 -0.28863969 0.10944891 -0.95116144 0.0050477954
90.579758 -60.830601 222.20633 -0.28455177 0.11205768 -0.95208901 0.007478246
83.568169 -59.2729 223.79036 -0.29313728 0.10589097 -0.95018822 0.0024490505
85.100731 -58.980293 223.48268 -0.29182509 0.10481921 -0.95071077 0.0028084442
86.928757 -59.082138 223.10493 -0.28910077 0.10325334 -0.95171404 0.0044472814
88.877724 -59.078289 222.59863 -0.2872023 0.10940471 -0.95160145 0.0064054979
90.977089 -59.007782 222.30086 -0.2823807 0.10841425 -0.95315665 0.0060727024
92.828346 -58.801601 222.02261 -0.27837321 0.099674538 -0.9552871 0.0067399452
-2.2397761 -56.087002 222.12836 -0.024567319 0.29772103 -0.95433676 0.004987136
-0.51283461 -56.337994 222.27852 -0.036048613 0.29253882 -0.95557398 0.0030758961
1.0052509 -56.388126 222.20331 -0.041077465 0.28776634 -0.95681924 0.001932507
2.8430901 -56.571892 222.26779 -0.046111569 0.28497577 -0.957425 0.0026590847
4.8777204 -56.493824 222.21544 -0.056816015 0.28274441 -0.95751113 0.0029657588
85.306488 -57.925926 222.96631 -0.2907382 0.10510392 -0.95101231 0.0035204203
87.696228 -57.847092 222.48596 -0.28799325 0.10926653 -0.95137835 0.00726987
88.150528 -57.895267 222.68124 -0.28716868 0.11093059 -0.95143503 0.0068457727
90.928497 -57.445278 222.00761 -0.28075221 0.10178792 -0.95436758 0.0048141186
-4.6423869 -54.665634 222.3779 -0.0072444235 0.29833212 -0.95443463 0.0064559951
-3.0545249 -54.842297 222.63345 -0.020262808 0.29131836 -0.95641154 0.0056084134
-1.0566419 -54.947884 222.65265 -0.035493225 0.28432259 -0.95807141 0.0036358559
0.87717837 -55.030029 222.68991 -0.043855105 0.28106079 -0.95868742 0.0025967457
3.0888538 -54.873508 222.51859 -0.051328525 0.2767958 -0.959557 0.001797206
5.1467123 -54.915424 222.59758 -0.063533202 0.27267528 -0.96000612 0.0011279007
6.3847947 -54.841782 222.44044 -0.072723694 0.27074301 -0.95990074 0.002123192
-6.6859736 -52.778847 222.94154 -0.0045525096 0.28228259 -0.95932043 0.0020420058
-4.9634271 -53.034698 223.20206 -0.012259664 0.28093755 -0.95964777 0.0059040682
-3.0435131 -52.948864 223.37335 -0.026821911 0.27363515 -0.96145958 0.0064712055
-1.1674725 -52.998245 223.26837 -0.039816841 0.26992178 -0.96205866 0.0043103858
0.98894465 -53.009644 223.11469 -0.049764797 0.26627481 -0.96261168 0.0021169931
3.0588899 -53.016884 222.87546 -0.060022019 0.26315993 -0.96288329 0.001883536
5.0171914 -53.019318 223.1833 -0.073132873 0.25901198 -0.96310145 0.0021201686
6.5816293 -53.134636 222.34393 -0.084255658 0.25848535 -0.9623338 0.0021323832
-8.9991913 -50.848728 223.38983 0.0072869034 0.27706313 -0.96082413 0.0044200239
-7.0113649 -51.200199 223.61583 -0.0076729683 0.27097288 -0.96255636 0.0013850887
-4.9417338 -51.15757 223.7357 -0.017237172 0.2659795 -0.96382457 0.0035725185
-2.9223161 -51.093555 223.68448 -0.031294398 0.26115057 -0.96479064 0.0049885684
-1.123415 -51.100113 223.605 -0.042473178 0.25841221 -0.96510059 0.0046391571
0.93603843 -51.14468 223.55678 -0.053119563 0.25692308 -0.96497089 0.0019682201
2.9905777 -51.089439 223.32011 -0.061811287 0.25775865 -0.96423018 0.0024422044
5.1103187 -50.946487 223.22739 -0.073512949 0.25832704 -0.96325648 0.0034984921
6.3907905 -51.444454 222.56445 -0.080086447 0.25737903 -0.96298611 0.0021450215
-10.904942 -48.978786 223.58131 0.014266102 0.27051717 -0.96260941 0.0062572309
-9.3028955 -49.814247 223.96078 0.0055282526 0.27134919 -0.96246511 0.0056663333
-2.5145473 -49.133057 223.76071 -0.036311988 0.2524516 -0.96692795 0.0027111531
-1.0818428 -49.408375 223.82161 -0.042581763 0.25190586 -0.96681452 0.0040406222
1.4879686 -49.641308 223.65846 -0.052085649 0.25484008 -0.96557951 0.0013491797
2.5215521 -49.027393 223.75893 -0.055327311 0.25364485 -0.96571386 0.0019318514
5.1968503 -49.09013 223.44368 -0.071378067 0.25311384 -0.96479976 0.0037236703
-12.235433 -47.299114 223.70827 0.022464497 0.26639125 -0.9636032 0.0032152936
-11.826003 -47.778633 223.85461 0.016722785 0.26650926 -0.96368724 0.003495391
-2.7875137 -47.87677 223.86032 -0.03538835 0.24956837 -0.96771038 0.0027454533
1.5909505 -47.574535 223.7836 -0.050918523 0.24637006 -0.96783733 0.0013146139
3.3422441 -47.971771 223.98746 -0.060091916 0.24518219 -0.96761286 0.0019586871
5.6036491 -47.400822 223.66731 -0.066809215 0.24550587 -0.96709019 0.0041465275
6.3704476 -46.683147 223.60106 -0.064916857 0.24546152 -0.96723032 0.0060082944
1.8292253 -44.464462 223.93922 -0.051182695 0.24179459 -0.96897668 0.003346819
7.4055343 -45.265717 223.57291 -0.069759235 0.24513537 -0.96697593 0.0073130592
8.6964912 -44.639343 223.51886 -0.081470549 0.25143361 -0.96443963 0.0069254208
10.28881 -43.988888 223.66342 -0.097670883 0.26625633 -0.95894104 0.0082281679
21.001688 -40.252224 223.81032 0.013348668 0.21984302 -0.9754439 0.016959053
19.906816 -38.379135 223.46231 0.032963064 0.18498078 -0.98218924 0.019217761
20.847109 -38.672653 223.71706 0.030405775 0.19770274 -0.97979033 0.01637391
22.757681 -39.655655 223.79712 0.016189281 0.21819979 -0.97576982 0.013560961
24.905943 -38.986656 223.70076 0.0034114239 0.23390228 -0.97225416 0.0094204713
26.668528 -38.461094 223.52657 -0.0042458363 0.24436915 -0.96967304 0.0069241943
28.181583 -38.202843 223.77444 -0.0070071281 0.24343163 -0.9698928 0.0065316278
21.074081 -37.727966 223.93401 0.03671179 0.19381762 -0.98035038 0.014279063
29.158672 -37.902756 223.87277 -0.0069935056 0.24551387 -0.96936786 0.0074429186
30.310709 -37.580139 223.87271 -0.011640232 0.25220168 -0.9676047 0.010113683
24.709675 -35.153763 223.73163 0.0084855556 0.23437037 -0.97211033 0.0073636486
103.69297 -194.34547 224.95195 -0.69872218 0.68271726 0.21373929 0.00065753766
104.12574 -194.04309 225.9726 -0.69843352 0.68255579 0.21519363 0.00087921921
103.81403 -193.5038 224.60492 -0.69507617 0.68603218 0.21500924 0.00072069699
104.78287 -192.83595 224.94901 -0.67898798 0.70000935 0.2212743 0.0014493705
105.58414 -191.8154 224.19858 -0.6610229 0.7150678 0.22743538 0.0016189335
106.60413 -190.74875 224.17075 -0.65240812 0.72206777 0.23017758 0.00091031368
107.44769 -189.83524 224.18619 -0.6492995 0.72441339 0.23159315 0.0011651081
-4.7199159 -118.25046 224.10713 -0.074308053 0.23357473 -0.9694953 0.0098198913
-3.4642715 -118.64732 224.13713 -0.079382308 0.23191756 -0.96949089 0.0093996515
-6.7797995 -116.5265 224.21844 -0.062616244 0.23875263 -0.96905953 0.011480003
-5.0893521 -116.81467 224.30847 -0.072455995 0.23310518 -0.9697485 0.009593185
-3.6867106 -116.87805 224.12373 -0.082219899 0.2289363 -0.96996295 0.008287875
-10.331656 -114.34055 224.19212 -0.045899846 0.24594845 -0.96819556 0.0082254726
-8.7786589 -114.74388 224.34421 -0.054195933 0.24073526 -0.96907651 0.0062825819
-7.0176029 -114.92875 224.69197 -0.063885815 0.23557945 -0.96975309 0.0057803453
-5.0783143 -115.01035 224.6068 -0.072771519 0.23241661 -0.96989 0.0076994016
-3.6426742 -115.1127 224.10458 -0.081834361 0.22921416 -0.96992993 0.0095352298
-10.884143 -112.7923 224.6414 -0.047624268 0.24776512 -0.96764886 0.0067006499
