# .PCD v0.7 - Point Cloud Data file format
VERSION 0.7
FIELDS x y z normal_x normal_y normal_z curvature
SIZE 4 4 4 4 4 4 4
TYPE F F F F F F F
COUNT 1 1 1 1 1 1 1
WIDTH 606
HEIGHT 1
VIEWPOINT 0 0 0 1 0 0 0
POINTS 606
DATA ascii
61.087894 -151.27831 208.25711 0.39706978 -0.0017042011 -0.91778684 0.0026602014
63.014793 -151.19481 208.73749 0.39852005 0.0031956807 -0.91715407 0.0019940401
64.923859 -151.2708 209.4585 0.40103605 -0.0014035968 -0.91606116 0.0025283468
66.166214 -151.42953 209.68437 0.40429407 0.0022547508 -0.9146263 0.0021018907
91.275116 -146.71431 209.75034 0.38187954 0.14565659 -0.91266215 0.0075894473
92.288429 -146.30296 209.6835 0.38587907 0.1485274 -0.91051465 0.0062682722
91.491631 -145.2728 209.54552 0.38970232 0.13565059 -0.91089576 0.0066988352
92.26963 -145.01981 209.78354 0.3902114 0.13820525 -0.91029358 0.0059320163
91.662529 -143.5938 209.53287 0.39642102 0.12470209 -0.9095602 0.0056293602
92.206337 -143.08269 209.83586 0.39980909 0.12479542 -0.90806323 0.0050029191
92.803772 -141.80635 209.90222 0.40457103 0.1143387 -0.90733069 0.0045622652
14.712586 -124.27668 208.16785 0.11292335 0.30847174 -0.944507 0.010821401
9.5933189 -122.23892 208.15942 0.14761376 0.30472112 -0.94093323 0.0080811121
10.846076 -122.61442 208.10918 0.139878 0.30801442 -0.94104272 0.0084030079
13.231986 -123.09861 208.45859 0.12483656 0.30876285 -0.94291109 0.0079783183
-14.497172 -120.32763 208.17982 0.045724619 0.24288443 -0.96897697 0.0054571279
-12.48966 -120.75023 208.26079 0.032197807 0.23349155 -0.97182566 0.0057370635
-11.716379 -121.07331 208.15555 0.02919136 0.23110408 -0.97249103 0.0060857236
7.7014332 -120.26818 208.24956 0.11475021 0.26446015 -0.95754546 0.014267832
9.1838455 -120.72328 208.37804 0.10132997 0.26212704 -0.95969874 0.011137275
11.104024 -120.89301 208.55699 0.079029873 0.25176859 -0.96455526 0.010152439
12.609547 -121.39655 208.29124 0.076363184 0.26070684 -0.96239316 0.0095855994
-18.622465 -118.3914 208.12967 0.055922464 0.25268155 -0.96593207 0.012712166
-16.894835 -118.70072 208.32954 0.068068169 0.26933834 -0.96063709 0.0096701141
-15.019085 -118.92792 208.43352 0.06182041 0.26743066 -0.96159202 0.0072469888
-13.353408 -119.15607 208.29988 0.056095831 0.25934148 -0.9641552 0.005945968
7.5575867 -118.77307 208.6664 0.078215048 0.22506034 -0.97120041 0.016223747
9.0755224 -119.18893 208.88689 0.072825179 0.2301944 -0.97041595 0.011315732
10.953031 -118.9388 208.5739 0.065786421 0.23257142 -0.97035182 0.0085419547
12.266915 -119.67697 208.13371 0.058189623 0.23281859 -0.97077781 0.0089392681
-20.521498 -116.73048 208.3243 0.056739539 0.22698812 -0.97224331 0.014853381
-18.854435 -116.99053 208.65007 0.047988705 0.23417228 -0.97101003 0.013517532
-16.98127 -117.01673 208.80176 0.050990947 0.24407743 -0.96841425 0.011305104
-15.093015 -116.99035 208.76428 0.053442746 0.25238773 -0.96614927 0.0088974182
-13.704582 -117.62334 208.40732 0.052842613 0.26075995 -0.96395642 0.0074428711
5.7716317 -116.66605 208.71053 0.08027029 0.21295968 -0.9737581 0.017360665
7.0293932 -117.0055 209.06921 0.083547853 0.21936578 -0.97205883 0.014549633
8.9899197 -116.92519 208.86983 0.084119901 0.23300688 -0.96883005 0.011019062
10.395723 -117.37814 208.45401 0.076200731 0.23523673 -0.96894634 0.0088115083
-20.663124 -115.1868 208.5041 0.066635959 0.22298223 -0.97254229 0.016439315
-19.017721 -114.95321 208.99725 0.050786324 0.22360952 -0.97335476 0.01595122
-16.958778 -114.97035 209.26721 0.043197244 0.22338203 -0.97377324 0.013157411
-15.208256 -115.03912 208.83978 0.046130087 0.23248769 -0.97150475 0.010997516
5.1994624 -114.62917 208.67932 0.095152088 0.20845158 -0.97339302 0.019285219
6.8414841 -115.14886 208.99319 0.096790954 0.23199899 -0.96788841 0.013591429
8.3261414 -115.5925 208.88959 0.091477573 0.24090068 -0.96622914 0.01149406
-20.548653 -113.67717 208.30597 0.072407581 0.21698815 -0.97348511 0.016343752
-18.971935 -113.32036 208.86571 0.061911348 0.22071028 -0.97337252 0.015268021
-17.000847 -113.26841 209.24416 0.045611598 0.21998179 -0.97443712 0.014873913
-15.591043 -113.73535 208.45016 0.043373626 0.22063631 -0.97439128 0.013825664
4.8589721 -113.64677 208.84424 0.10272688 0.20773764 -0.97277552 0.019656233
13.183871 -112.20383 209.06551 0.001767192 0.3528201 -0.93568951 0.011833126
14.809622 -112.28458 209.43684 -0.044033613 0.37133557 -0.92745394 0.012378508
16.771198 -112.09948 209.3522 -0.10122719 0.41531804 -0.90402651 0.014238073
11.638643 -110.71056 209.61761 -0.054258075 0.41417855 -0.90857702 0.01192039
12.729754 -111.45885 209.61073 -0.035888813 0.39121059 -0.91960114 0.012069715
15.113002 -111.81508 209.81541 -0.08361914 0.40583259 -0.91011417 0.012252684
17.29954 -111.4255 209.70374 -0.10360732 0.46982086 -0.87666065 0.014809976
18.409983 -110.8569 209.60402 -0.06962429 0.52800471 -0.84638256 0.014832888
11.754288 -109.82852 209.98245 -0.07926558 0.44954666 -0.88973302 0.011328553
12.078903 -109.83289 209.97742 -0.081101559 0.4511852 -0.88873762 0.011557668
58.077023 -52.334427 208.19209 0.85383153 0.298926 -0.4261632 9.1475005e-05
57.476978 -50.489326 208.28845 0.89612484 0.29298115 -0.33335012 0.00056451029
67.351212 -158.2984 210.47789 0.40606761 0.01408068 -0.91373456 0.0018419594
69.015854 -158.5663 211.40283 0.40789327 0.0099405218 -0.91297555 0.0025266428
70.469269 -158.81485 211.78539 0.40935364 0.016437843 -0.91222775 0.0025000765
96.828773 -158.03635 210.04128 0.094369523 0.24171555 -0.96574742 0.0012321116
65.582573 -156.65959 210.18953 0.40528971 0.013069728 -0.91409487 0.0011908551
67.008522 -157.00009 210.71207 0.40503675 0.012533419 -0.91421449 0.0015763409
68.707436 -157.04349 211.62192 0.40667593 0.0076479707 -0.91354048 0.0024398461
94.943474 -156.39742 210.12422 0.25624517 0.20807716 -0.94395041 0.0017437044
96.832809 -156.48598 210.22537 0.22112331 0.21575533 -0.9510805 0.0025303103
65.373718 -155.02681 210.4227 0.4047218 0.0086701075 -0.91439873 0.0011903879
67.030914 -155.0229 211.04723 0.40429562 0.009078512 -0.91458327 0.0013273726
68.725883 -154.95242 211.68283 0.40590674 0.006483742 -0.91389143 0.001918148
70.020149 -154.88268 211.91997 0.40733689 0.0077380789 -0.9132452 0.0025204492
95.331932 -154.80635 210.22639 0.3168163 0.19183554 -0.92888457 0.0043391013
97.031006 -154.82065 210.31982 0.29804736 0.19717214 -0.93396515 0.0040475186
63.915043 -153.19351 210.09782 0.40124783 -0.0024484873 -0.91596627 0.0021630651
65.190941 -153.21307 210.30064 0.40342927 0.0021950756 -0.91500825 0.001925579
67.010338 -153.08733 210.78351 0.40376851 0.0063818553 -0.91483891 0.00088754197
68.976273 -152.9288 211.37273 0.40545601 0.0072106691 -0.91408604 0.00083032274
70.592987 -152.62708 211.68964 0.40721709 0.0030628578 -0.91332626 0.0027394088
95.796898 -153.36768 210.5627 0.3531929 0.18346596 -0.91738486 0.0050105629
97.117554 -152.93167 210.69293 0.34832376 0.18509552 -0.91891795 0.0046005179
98.308235 -152.9391 210.27284 0.33757302 0.1890413 -0.92212135 0.0044823363
65.277718 -151.82454 210.06104 0.40303946 0.00062123965 -0.91518235 0.0024663063
66.958237 -151.81688 210.36583 0.40361458 0.0026658699 -0.91492528 0.0012344193
95.562798 -150.73315 211.31473 0.385263 0.1722582 -0.90658677 0.0066931159
96.979218 -150.97502 211.03731 0.3757804 0.1750738 -0.91002107 0.0059814346
98.379524 -150.77063 211.12868 0.36704585 0.17676806 -0.91325265 0.0052506016
93.308525 -148.36108 210.85265 0.38071468 0.15919393 -0.91088611 0.0046190624
95.03373 -148.79672 211.50015 0.37942204 0.16200553 -0.9109298 0.0042862473
96.876755 -149.08719 211.52925 0.37899214 0.16469678 -0.91062611 0.004353446
98.393578 -149.40349 211.70985 0.37431115 0.16736184 -0.91207522 0.0043843761
90.938583 -147.16269 210.25449 0.37952498 0.14713775 -0.91340643 0.0079943435
92.985435 -146.94302 210.56421 0.38353148 0.15151966 -0.91101348 0.0053075389
94.939743 -146.97189 211.22823 0.38686439 0.15476663 -0.90905625 0.0041129072
96.604858 -147.14935 211.73373 0.38884529 0.15673074 -0.90787375 0.0043932814
99.433586 -147.26254 211.81274 0.38642672 0.15816738 -0.90865695 0.0042897118
100.05452 -146.34564 211.67181 0.3842048 0.15201928 -0.91064638 0.0046462361
91.498604 -144.73186 210.24937 0.39303184 0.13280116 -0.90988451 0.0062319138
93.107697 -144.92868 210.56224 0.39504594 0.14221717 -0.90758634 0.0053102705
94.975258 -145.03427 211.27232 0.3916432 0.14375672 -0.90881771 0.0045707161
96.349525 -145.07141 211.57074 0.38490003 0.14365909 -0.91170943 0.0040113763
91.85939 -142.88232 210.27893 0.40220183 0.12059044 -0.90757459 0.0050599803
93.042343 -143.00871 210.67836 0.39884871 0.12581667 -0.90834457 0.0046442687
94.847191 -143.04121 211.53085 0.39238736 0.12792203 -0.91086125 0.0049894103
93.031273 -141.02339 211.00917 0.4040204 0.11022268 -0.90808511 0.0058730575
94.574959 -141.15739 211.76811 0.40025026 0.1146032 -0.90921158 0.0060994611
93.196793 -139.01578 211.41176 0.4138467 0.10475814 -0.90429896 0.0077896751
94.279663 -139.68159 211.84235 0.40322766 0.11136772 -0.90829766 0.0069996919
93.533226 -137.33934 211.54628 0.42061335 0.11392196 -0.90005904 0.0072591384
94.232178 -136.95459 211.83455 0.42263198 0.11838372 -0.89853638 0.0075312527
94.367493 -135.90453 211.83876 0.42134136 0.12568526 -0.89815074 0.0073355869
8.2303448 -118.43961 210.24396 0.077019997 0.22143675 -0.97212845 0.013938607
6.3309655 -116.95274 210.29021 0.084243216 0.2120315 -0.97362506 0.015421147
8.2592707 -117.77576 210.1413 0.083576046 0.22453922 -0.97087449 0.012863997
5.7120719 -115.96955 210.3056 0.086851932 0.21251093 -0.97329128 0.016619856
13.94853 -112.15202 210.01401 -0.026742278 0.3742767 -0.92693138 0.012017958
15.225506 -112.2786 210.18085 -0.072405078 0.39059106 -0.91771245 0.012384616
11.403342 -110.48625 210.05272 -0.064230755 0.42614591 -0.90237135 0.011522644
13.151395 -110.71086 210.52403 -0.075412668 0.43474069 -0.89739263 0.011748364
15.038747 -110.9457 210.88394 -0.10793687 0.45579299 -0.88351703 0.012227261
16.866735 -110.73736 210.60533 -0.097246535 0.50163412 -0.85959667 0.013092552
18.199455 -110.45616 210.22102 -0.068823628 0.53943342 -0.83921093 0.013084322
11.704359 -109.40962 210.67099 -0.08339709 0.4674243 -0.88009059 0.010770295
12.871008 -109.16164 211.38882 -0.085807435 0.48933482 -0.86786431 0.0092998035
14.916176 -109.49368 211.755 -0.082007229 0.51104641 -0.85563213 0.0099813128
17.101307 -109.19588 211.34227 -0.053454991 0.53617412 -0.84241313 0.009807732
18.246931 -109.16393 210.57602 -0.065611228 0.53767294 -0.84059685 0.010900807
11.656792 -107.19006 211.94728 -0.046295732 0.52601641 -0.84921342 0.007249712
12.288628 -107.84412 211.89589 -0.059856903 0.518453 -0.85300863 0.0071373903
17.305653 -107.923 211.89841 -0.042356692 0.53800827 -0.84187466 0.0074211429
18.395288 -107.1584 211.66527 -0.050400231 0.53857028 -0.84107184 0.0073744645
71.337105 -158.7179 212.59047 0.40968612 0.018939817 -0.91202992 0.0029614093
72.875885 -158.94078 213.22514 0.40864024 0.010775992 -0.91263193 0.0041409926
69.643021 -156.99214 212.18462 0.40726912 0.0076105101 -0.91327649 0.001982643
71.011002 -157.01158 212.72437 0.40856588 0.012553305 -0.91264248 0.0020940888
72.933655 -157.01276 213.60957 0.40668061 0.0068062982 -0.91354507 0.0041415649
74.082542 -157.60609 213.91571 0.40743855 0.00056215358 -0.91323245 0.0056043039
69.375984 -154.99113 212.153 0.40695935 0.00856777 -0.91340601 0.0019128042
71.019577 -155.02858 212.67596 0.40772772 0.0057373331 -0.91308558 0.0032281659
72.913849 -155.07309 213.51541 0.40585583 -0.0003859514 -0.91393703 0.0051978119
74.573296 -154.52272 213.77863 0.40450162 -0.0073593156 -0.91450769 0.0073299659
69.443001 -152.854 212.05569 0.40615806 0.0062726447 -0.91378134 0.00079831254
71.032349 -153.40535 212.4498 0.40751716 0.0044784625 -0.91318661 0.0041331891
72.58609 -153.56041 212.89738 0.40552956 -0.0022965493 -0.91407901 0.0049651121
74.477272 -153.74799 213.60825 0.4035567 -0.009368469 -0.91490674 0.0080212355
95.33815 -148.93901 212.08061 0.37862831 0.16323085 -0.91104132 0.0039706156
97.759918 -148.96068 212.05675 0.3778604 0.16501553 -0.91103864 0.003991155
98.523582 -148.58311 212.20674 0.38024089 0.16388917 -0.9102512 0.0036937986
97.459236 -146.92937 212.33154 0.3886275 0.15490423 -0.90828043 0.0047828569
98.744232 -146.87105 212.5818 0.38448948 0.15428783 -0.91014457 0.0044644345
97.287056 -144.93571 212.56476 0.38492537 0.14131302 -0.91206527 0.0046016187
98.956261 -145.04089 213.22873 0.3844398 0.14112359 -0.91229934 0.0052362741
95.746849 -142.7608 212.13918 0.39021453 0.12793627 -0.91179216 0.004601548
96.959862 -142.99051 212.53998 0.39032078 0.13039544 -0.91139823 0.0055289436
98.739357 -143.13661 213.28558 0.39141235 0.13047047 -0.91091919 0.0052582207
100.29866 -142.51079 213.73157 0.39856821 0.12490705 -0.90859318 0.0061434056
95.45005 -140.81744 212.27953 0.3984372 0.11538888 -0.90990841 0.0060404358
97.026672 -141.03468 212.89465 0.39662838 0.11873765 -0.91026771 0.0062084482
98.647148 -140.96901 213.4552 0.40155092 0.12026377 -0.90790612 0.0061896234
100.34648 -141.43832 213.9395 0.40311116 0.12375984 -0.90674412 0.0058819847
93.747688 -138.72314 212.0363 0.41269904 0.10708492 -0.90455079 0.0079388907
95.110451 -138.95203 212.41373 0.40719962 0.11353095 -0.9062556 0.0075802496
96.940933 -139.05667 213.02426 0.41106373 0.11947387 -0.90374368 0.0081505505
98.573982 -139.11549 213.6889 0.41372022 0.12410828 -0.901905 0.0083666015
93.912376 -137.12386 212.17487 0.42168856 0.11693574 -0.89916897 0.0072035366
95.077736 -137.06296 212.66994 0.42432228 0.11790317 -0.89780259 0.0082322173
96.877388 -136.95651 213.22757 0.42458916 0.1197895 -0.89742666 0.0095632114
99.000359 -136.87076 213.77316 0.42146993 0.12024875 -0.89883441 0.010374099
100.51193 -136.84863 213.80016 0.41422886 0.11825684 -0.90245759 0.0084362924
95.104309 -135.96552 212.23128 0.42369786 0.12326184 -0.89737761 0.0074103153
13.463892 -108.44321 212.28252 -0.058979586 0.51995784 -0.85215336 0.0075593004
15.070682 -108.57519 212.41919 -0.034504183 0.53435522 -0.84455544 0.0082068415
16.615578 -108.41652 212.35324 -0.038301516 0.53774709 -0.8422358 0.007578006
11.788906 -106.58046 212.67598 -0.024149632 0.53555769 -0.84415329 0.0077267159
13.017027 -107.02276 212.99808 -0.024458559 0.53567171 -0.84407204 0.0070554987
14.913516 -107.04582 213.28047 -0.022274017 0.53809476 -0.84258997 0.0063197305
16.929972 -106.98678 212.69606 -0.030774856 0.53844023 -0.84210157 0.0072895573
18.169542 -106.5908 212.33801 -0.038987629 0.53898782 -0.84141076 0.0081409691
11.846128 -105.38557 213.31999 -0.015543026 0.53934503 -0.84194142 0.0061245952
12.774409 -105.64835 213.79796 -0.017784478 0.53975999 -0.841631 0.0061306781
15.287666 -105.92096 213.90442 -0.022063876 0.5390991 -0.84195334 0.0076765642
17.081541 -105.2719 213.66335 -0.025969949 0.53891188 -0.84196174 0.0084344437
18.130573 -104.92348 213.20107 -0.032080546 0.53790969 -0.84239185 0.0086827958
17.397507 -103.99876 213.90598 -0.03019934 0.53736967 -0.84280592 0.0086984709
18.180031 -103.60663 213.75696 -0.037466459 0.53470284 -0.84420913 0.0077994722
73.649292 -157.07973 214.07649 0.40653569 -0.0003719689 -0.91363484 0.0061712475
74.179207 -156.41997 214.30324 0.40649873 -0.0036602612 -0.91364402 0.0071616773
73.728088 -154.85858 214.22198 0.40469316 -0.0068538617 -0.91442686 0.0076296874
74.370728 -155.32886 214.2686 0.40540347 -0.005804643 -0.91411942 0.0077495249
99.008698 -144.65068 214.0712 0.38594317 0.13754992 -0.91221046 0.0047958829
99.440033 -142.65453 214.22002 0.39758283 0.12578158 -0.90890425 0.0056567001
100.10649 -142.10205 214.14447 0.39898038 0.12265765 -0.90871876 0.0057341019
99.627953 -140.99174 214.38855 0.40407324 0.1227511 -0.90645301 0.0062194914
100.37118 -140.69576 214.49532 0.40707183 0.1255835 -0.90472174 0.0065980954
97.768791 -138.3998 214.60315 0.41721371 0.1255807 -0.9000901 0.009191677
99.412323 -139.03242 214.88652 0.41145837 0.12678777 -0.90256685 0.0076007624
100.50122 -138.96983 215.03256 0.41053829 0.12766773 -0.90286171 0.0070475591
97.766724 -137.64972 214.40454 0.42040595 0.1227627 -0.89899284 0.010055593
98.802025 -137.5666 214.21916 0.42009041 0.12412782 -0.89895284 0.010517029
100.61399 -137.51202 214.46074 0.41447511 0.12250765 -0.90177721 0.0094296252
13.094876 -106.25877 214.20045 -0.018387742 0.53947198 -0.84180278 0.0066919583
11.854408 -104.45724 214.25092 -0.011009654 0.53829926 -0.84268183 0.0057388507
13.063338 -104.69642 214.61642 -0.015421167 0.538607 -0.84241605 0.0055754753
14.914206 -104.97267 214.6915 -0.020867644 0.53903598 -0.84202421 0.0063620852
16.569643 -104.55038 214.30331 -0.02589808 0.5387907 -0.84204155 0.0077497554
11.184782 -103.0284 214.8941 -0.0080914889 0.53795856 -0.8429324 0.0055049569
12.822938 -103.14795 215.41835 -0.012898745 0.53776968 -0.84299302 0.0044404152
15.1141 -103.44312 215.61508 -0.02018041 0.5370155 -0.84333092 0.0037415132
16.95579 -102.98942 215.04829 -0.030053686 0.53584087 -0.84378397 0.0046485788
18.261011 -102.63428 214.21198 -0.040394623 0.53443986 -0.84424067 0.0054998486
10.758052 -101.35587 215.5885 -0.0020459588 0.53739619 -0.84332746 0.0052044871
12.272238 -101.79367 215.87625 -0.0093079498 0.53717077 -0.84342217 0.004412015
17.212294 -101.43921 215.62419 -0.027987728 0.53639662 -0.84350187 0.0037456213
18.120865 -101.6162 214.73701 -0.035391755 0.53515112 -0.84401459 0.003371869
25.351036 -52.502151 215.08456 0.010633883 0.97811007 0.20781648 0.00025954586
26.826517 -52.516907 215.07722 0.010259628 0.98483396 0.17319557 0.00029644437
28.478462 -52.510204 214.96539 0.010272671 0.98454428 0.17483419 0.00038032315
39.710163 -26.230227 214.55173 nan nan nan nan
13.401169 -102.52657 216.27957 -0.01512999 0.537175 -0.84333515 0.003570592
14.989937 -102.50692 216.41199 -0.021530824 0.5363673 -0.84371001 0.0031001735
16.282122 -102.04443 216.04567 -0.026478654 0.53565544 -0.84402144 0.003172291
11.175272 -100.69928 216.51205 0.002074813 0.53804523 -0.84291339 0.0045156092
13.02227 -100.99608 216.99837 -0.0064295116 0.53805184 -0.84288728 0.004046164
15.109979 -100.93324 217.21811 -0.013471236 0.53874689 -0.84235996 0.0040029809
16.577488 -100.73209 216.52599 -0.021239746 0.53919894 -0.84191054 0.004483772
11.049215 -99.288094 217.33762 0.014086887 0.53868288 -0.84239089 0.0033750152
12.553164 -99.632614 217.75327 0.0081178434 0.53907567 -0.84221816 0.0037032883
15.448588 -99.495468 217.8428 -0.0039014376 0.54074848 -0.84117526 0.0041130548
16.668905 -99.154808 217.29289 -0.010876564 0.54170918 -0.84049559 0.0042903926
16.906197 -97.765892 217.68123 -0.00075316161 0.54217058 -0.84026814 0.0042064269
3.4737949 -136.21782 219.25383 -0.11263454 0.21250577 -0.97064656 0.016610654
4.3385253 -136.29836 219.53551 -0.11458842 0.21119384 -0.97070414 0.016957892
1.8480972 -134.50023 219.5157 -0.11461654 0.21203734 -0.97051698 0.014725506
2.9362252 -135.06401 219.69997 -0.11572385 0.21140169 -0.97052425 0.013309593
4.2212944 -135.45291 219.80721 -0.11844637 0.20845805 -0.97083253 0.014968874
7.3839779 -134.63657 219.8409 -0.13114078 0.19667113 -0.97165972 0.018752484
1.3328052 -133.07199 219.73874 -0.12207523 0.20635575 -0.97083211 0.013178787
2.7839339 -133.93089 219.94087 -0.1232113 0.20473227 -0.97103232 0.01147487
7.5308404 -132.82646 219.87668 -0.13968572 0.1930311 -0.97119868 0.016609287
8.6681738 -132.84956 219.25528 -0.1443034 0.18932843 -0.97125238 0.022154678
7.6234679 -131.00345 219.87146 -0.14449455 0.18958755 -0.97117347 0.012738816
8.6367931 -131.61656 219.31354 -0.14643574 0.18806794 -0.97117817 0.016432554
7.2984533 -129.30157 219.92441 -0.14836232 0.19255315 -0.97000617 0.01339008
13.247023 -100.29038 218.03424 0.0022205517 0.53932303 -0.84209603 0.0040016845
14.28272 -101.16219 218.1391 -0.0083842771 0.5388726 -0.8423456 0.0041462458
11.120955 -98.283813 218.28358 0.026585186 0.53999954 -0.84124535 0.0027267141
13.036639 -98.874336 218.53343 0.012512479 0.54022622 -0.84142673 0.0032597152
14.910007 -98.831383 218.46794 0.0053144838 0.54081488 -0.84112483 0.0037720653
16.175236 -98.358139 218.36951 0.0018009691 0.54170555 -0.84056646 0.0039931601
11.048324 -96.893913 218.98293 0.042968154 0.53964412 -0.84079605 0.0022463985
13.038395 -97.370003 219.46982 0.024281127 0.54094899 -0.84070492 0.0030721652
15.034642 -97.188477 219.33083 0.013938 0.54155082 -0.84055245 0.0030083219
16.496595 -96.905441 218.6951 0.0063746162 0.54226756 -0.84018159 0.0032410915
10.542067 -95.352737 219.73337 0.057192244 0.53889334 -0.84043026 0.0025978631
15.579511 -95.625916 219.88945 0.018641965 0.53931302 -0.84189904 0.0017759496
4.908803 -136.24364 220.33089 -0.11643854 0.2107148 -0.97058815 0.015401118
3.3446426 -134.48656 220.17409 -0.12159354 0.20803253 -0.97053462 0.011776295
5.112287 -134.90233 220.45979 -0.12474683 0.20462818 -0.97085822 0.0130942
6.7318711 -134.58345 220.32884 -0.13080502 0.19830276 -0.97137326 0.016572155
1.3424112 -132.49394 220.30479 -0.12380729 0.20545541 -0.97080368 0.012485377
3.0403271 -133.03737 220.58165 -0.12876417 0.20225859 -0.9708302 0.011729757
5.067987 -132.97778 221.11232 -0.13379909 0.19909509 -0.97080326 0.010931716
6.9160743 -132.9576 220.31192 -0.13778506 0.19483738 -0.97110951 0.014356406
8.5338068 -132.46646 220.17688 -0.14421169 0.18825273 -0.97147512 0.018147593
-0.34885061 -130.14857 220.71533 -0.11090803 0.21232586 -0.97088474 0.0085683288
1.0769814 -130.97563 221.05887 -0.12312067 0.20557976 -0.97086465 0.010274442
2.9296136 -130.95891 221.46581 -0.13040642 0.20190136 -0.97068536 0.010421715
4.9400616 -131.0811 221.1987 -0.13922867 0.19761941 -0.97034121 0.011545537
6.7392612 -131.01735 220.42181 -0.14355719 0.1930771 -0.9706248 0.013267607
-0.54445982 -128.83974 221.3689 -0.10598687 0.21190727 -0.97152567 0.008381593
0.77384931 -129.27538 221.61766 -0.1153854 0.21022056 -0.97082102 0.0072643263
3.4503078 -129.00171 221.62885 -0.12927164 0.20416902 -0.97036272 0.0098833153
4.9445887 -129.00278 221.27902 -0.13828231 0.19957253 -0.97007668 0.01163236
6.4955001 -129.17506 220.46288 -0.14666688 0.19584794 -0.96960425 0.013081804
-2.5560367 -126.38149 221.873 -0.08931955 0.2234063 -0.97062439 0.0067857443
-1.5224882 -127.62858 221.6049 -0.099069357 0.21551323 -0.97146249 0.008975531
3.5338588 -127.19923 221.78778 -0.12577599 0.2058087 -0.97047573 0.0079372162
4.8676481 -127.00774 221.30814 -0.13545951 0.20121166 -0.97013646 0.0096126748
6.0954952 -127.53577 220.6335 -0.14581071 0.19628473 -0.96964508 0.013082771
3.726176 -124.98476 221.69629 -0.12986651 0.20398517 -0.97032201 0.0080962535
4.7257066 -125.19608 221.33711 -0.13821548 0.19897337 -0.9702093 0.0084565673
3.6557162 -123.65733 221.80827 -0.12987596 0.20202044 -0.97073162 0.0080149546
4.2169204 -123.33659 221.73059 -0.13739052 0.19858976 -0.97040504 0.0076757385
11.885863 -96.171432 220.22986 0.044299796 0.53903359 -0.84111851 0.0016095677
13.025427 -96.395805 220.12953 0.032782998 0.53973871 -0.84119403 0.0016917129
14.738314 -96.42131 220.09023 0.021392666 0.54054558 -0.8410427 0.0022982291
9.7055454 -94.176262 220.14406 0.061756834 0.53821582 -0.84054136 0.0024888027
11.127806 -94.762108 220.70184 0.052492801 0.53800273 -0.84130704 0.002261874
12.979439 -95.012901 220.95573 0.040862922 0.53774369 -0.84211755 0.0020051599
14.806683 -94.901649 220.74829 0.028161809 0.53718013 -0.84299731 0.0016601005
16.087894 -94.654526 220.49922 0.020969899 0.53640074 -0.84370285 0.0018920426
9.647706 -92.979736 221.02339 0.053310167 0.53787178 -0.84133947 0.00056928257
10.91171 -93.242859 221.48094 0.045221318 0.53674579 -0.84253132 0.00088030548
13.059691 -93.605026 221.76187 0.034897238 0.53469503 -0.84432423 0.0014617317
15.095341 -93.339569 221.50873 0.023876878 0.53319663 -0.84565437 0.0021488841
16.090971 -93.573792 220.82684 0.018170817 0.53376085 -0.84544027 0.0016566648
9.4769554 -91.616806 221.78725 0.041625313 0.53693658 -0.84259504 0.00023387428
10.253282 -91.905106 221.97952 0.036229894 0.53674847 -0.84296411 0.00051033421
87.784348 -68.470642 221.72546 -0.30080763 0.13356574 -0.94428545 0.0043409108
88.860802 -68.372536 221.75905 -0.29940143 0.12972184 -0.94526774 0.0019175556
89.581566 -67.283417 221.71266 -0.29730523 0.12453867 -0.94662541 0.0017292562
91.014359 -66.823235 221.60457 -0.29312003 0.12508777 -0.94785744 0.0036490145
92.997467 -66.84272 220.86394 -0.29291499 0.12484571 -0.94795275 0.0064711892
94.785767 -66.56147 220.63518 -0.29311401 0.12130689 -0.94835055 0.0094981501
96.101677 -66.079636 220.10854 -0.2868478 0.11871649 -0.9505918 0.012310243
91.484184 -64.98262 221.76984 -0.29321072 0.11974267 -0.94851947 0.0050301505
93.116425 -64.947861 221.4025 -0.29264781 0.11627631 -0.94912446 0.0067052022
94.983055 -65.13327 220.89233 -0.2916224 0.11837581 -0.94918036 0.0097865099
96.071861 -64.852844 220.59937 -0.28782839 0.11884346 -0.95027941 0.010435526
89.694115 -62.7216 221.87061 -0.29425615 0.11651511 -0.94859773 0.00086013193
91.554253 -63.157749 221.56421 -0.29277849 0.11502512 -0.94923651 0.0067969617
92.89669 -63.094383 221.30861 -0.29257062 0.11038106 -0.94985181 0.0079944301
94.847763 -63.34481 221.08124 -0.29023013 0.11613705 -0.94988352 0.0095523149
93.198914 -61.89986 220.9467 -0.29213649 0.11120827 -0.94988889 0.0085229734
3.523797 -58.58429 221.92358 -0.049731329 0.29302633 -0.95481014 0.0085942335
5.0472631 -58.97485 221.79565 -0.056107715 0.29568258 -0.95363712 0.0082661398
7.086832 -58.567898 221.86664 -0.067598261 0.29216161 -0.95397699 0.0086652003
8.0803204 -58.259819 221.70927 -0.07552845 0.2905004 -0.95388943 0.009473078
8.1149187 -57.718105 221.49699 -0.077504426 0.28562507 -0.95520228 0.0092184525
1.7674056 -130.04146 222.09877 -0.12542777 0.2058538 -0.97051126 0.010510654
1.3549078 -128.62796 222.30479 -0.11787646 0.2090223 -0.97078055 0.0080615934
2.655458 -128.89656 222.15742 -0.12436594 0.20677814 -0.97045141 0.0088710301
-2.7273202 -126.14618 222.12576 -0.088401988 0.22464982 -0.97042131 0.0069550248
-0.9024477 -126.84682 222.30203 -0.10148779 0.21540205 -0.97123748 0.0080084763
1.0084835 -127.02827 222.74524 -0.11200282 0.21088421 -0.97107321 0.0094507448
2.7558479 -126.95994 222.33243 -0.12231647 0.20716624 -0.9706291 0.0080219517
-4.2850523 -124.39983 222.37642 -0.07459528 0.22960658 -0.97042078 0.0061880709
-2.8768642 -124.91029 222.5862 -0.087034352 0.22526307 -0.97040278 0.007869212
-1.0426162 -125.06112 223.13536 -0.10064133 0.21731858 -0.97089851 0.0076965867
1.0466975 -125.00146 222.99399 -0.11339738 0.20959614 -0.97119021 0.0090926643
2.873688 -125.04133 222.34229 -0.12361645 0.20583029 -0.97074854 0.0088367453
-4.7299609 -122.78233 223.01976 -0.067395687 0.23382564 -0.96993995 0.0057475595
-3.0996718 -123.09091 223.35539 -0.080481879 0.22835502 -0.97024566 0.0053079389
-0.9514156 -123.09801 223.61737 -0.095528178 0.22138879 -0.97049546 0.0053895302
1.089371 -123.00185 223.17474 -0.11138319 0.21310419 -0.97065979 0.0059794569
2.9022479 -122.91993 222.39227 -0.12532051 0.20461252 -0.97078758 0.0080053955
-6.4541125 -120.65827 223.50153 -0.053080712 0.24030532 -0.9692449 0.008841062
-5.0677333 -121.18065 223.59587 -0.066824302 0.23442556 -0.96983463 0.0071393261
-3.5662115 -121.62141 223.80022 -0.077295609 0.22997172 -0.97012287 0.0058812401
-0.58711445 -120.98226 223.76816 -0.096355274 0.21993724 -0.97074366 0.0066800448
1.1485612 -121.06156 223.23944 -0.11080945 0.21440218 -0.97043949 0.0069177765
2.7066894 -121.67499 222.44768 -0.12433627 0.20721756 -0.97036141 0.0072439066
-7.3286619 -119.31685 223.82109 -0.050541688 0.24078017 -0.9692629 0.0070364745
-5.2304153 -119.97408 223.94318 -0.066948831 0.23313536 -0.970137 0.0080770524
-0.56616288 -119.18526 223.84749 -0.095255204 0.2222745 -0.97031981 0.0067663374
0.68925667 -119.11973 223.44861 -0.10692739 0.21563627 -0.97060162 0.0076608695
2.0169899 -119.90676 222.61885 -0.11690303 0.21188836 -0.97027677 0.0066973977
-9.121851 -117.20154 223.96249 -0.039765924 0.24942791 -0.96757662 0.0076386542
-0.33373371 -117.11679 223.87624 -0.097457193 0.22047125 -0.97051251 0.006948309
0.25558534 -117.77224 223.5506 -0.10011902 0.22124617 -0.97006512 0.0058587091
-0.50380218 -115.87622 223.78986 -0.096663684 0.22016948 -0.97066039 0.010482105
11.288329 -92.52092 222.2343 0.034131669 0.53558898 -0.8437888 0.00099040184
12.868583 -92.665588 222.40236 0.027517579 0.53443104 -0.84476399 0.0017065469
14.600737 -92.507385 222.38734 0.02022787 0.53327197 -0.84570199 0.0020465392
9.6350279 -90.84317 222.50308 0.034489442 0.53609943 -0.84344995 0.00037166779
10.97413 -91.052307 223.02989 0.024812838 0.53521979 -0.84434831 0.00082341494
13.023121 -91.041565 223.36989 0.015639113 0.5342676 -0.8451708 0.001506859
14.958105 -91.072273 223.01257 0.012231945 0.53342181 -0.84576094 0.0021822308
9.5829592 -89.31353 223.46613 0.022923902 0.53645158 -0.84361964 0.0013647552
10.663057 -89.627945 223.74448 0.020003669 0.53549349 -0.84430248 0.001469519
12.385962 -89.843735 223.9093 0.013059407 0.53420055 -0.84525692 0.00041195319
15.155557 -89.430771 223.6778 0.0045150858 0.53346795 -0.84580815 0.001894719
81.738373 -69.379013 223.6866 -0.3083626 0.16628647 -0.93662232 0.0025405348
82.989838 -68.949219 223.58957 -0.30871409 0.16629815 -0.93650448 0.0021989869
85.066162 -68.694702 223.13126 -0.30717266 0.15345544 -0.93919986 0.0043312563
86.85675 -68.395531 222.48433 -0.30235869 0.13440429 -0.94367087 0.0049506845
88.438583 -68.142326 222.1796 -0.30080506 0.13190499 -0.9445197 0.0027016599
83.746536 -67.314865 223.72412 -0.30799717 0.1581465 -0.93815106 0.0018135479
85.063782 -67.106949 223.65709 -0.3078751 0.14850231 -0.93976593 0.0044631553
87.00856 -66.997322 223.00621 -0.302899 0.1353076 -0.94336843 0.0045644715
88.785095 -66.976067 222.5542 -0.30004752 0.12965077 -0.94507259 0.0024982146
90.527222 -66.561066 222.20268 -0.29323858 0.12397349 -0.94796711 0.0019811576
83.658653 -64.415276 223.93158 -0.30883729 0.1448594 -0.94001877 0.0018795072
85.265709 -64.988281 223.69489 -0.3077442 0.14287497 -0.94068074 0.0050253896
86.967812 -65.049782 223.27477 -0.30301407 0.13374799 -0.94355392 0.0035702677
88.911255 -65.062416 222.78391 -0.29883191 0.12717709 -0.94579351 0.0019660646
90.661667 -64.886002 222.2421 -0.29349491 0.12137644 -0.94822389 0.0030975475
92.445747 -65.006973 222.32076 -0.29334861 0.1174449 -0.94876415 0.0061191441
83.178772 -63.399853 223.85138 -0.30842149 0.14146943 -0.94067138 0.0029011976
85.001228 -63.299465 223.56259 -0.30839872 0.13698907 -0.9413417 0.0039944858
86.953125 -63.615585 223.19275 -0.30272517 0.13238141 -0.94383931 0.0029378515
89.023293 -63.471588 222.62236 -0.29731935 0.12481805 -0.94658417 0.0018274654
90.685608 -63.435966 222.22473 -0.29345083 0.11698798 -0.94878894 0.00344026
92.301987 -62.458969 222.05159 -0.2922658 0.10899112 -0.95010614 0.0080219768
1.6563382 -58.204483 222.17213 -0.043967403 0.29348806 -0.95495117 0.0052089151
3.0640016 -58.362907 222.15488 -0.048806664 0.2915751 -0.95530194 0.0080506615
4.9999781 -58.59655 222.18062 -0.057456419 0.29103702 -0.95498496 0.0088891182
6.3443809 -58.65303 222.38004 -0.062970839 0.29068631 -0.95474404 0.0076710144
-2.3991463 -56.331264 222.74329 -0.025028219 0.28994608 -0.95671564 0.0016618333
-0.87909222 -56.606441 222.91449 -0.036580142 0.28469104 -0.95792115 0.0028300639
1.0424039 -57.018791 223.07948 -0.042416777 0.2833077 -0.9580906 0.004310681
3.0320294 -57.042633 222.97031 -0.051101655 0.28132281 -0.9582516 0.0062433137
4.9378848 -57.017681 222.9827 -0.060376626 0.27823612 -0.95861328 0.0062323865
6.912653 -56.973118 222.67879 -0.070348211 0.27630231 -0.9584927 0.008032457
8.0623999 -56.922009 222.3875 -0.079861581 0.27516651 -0.95807379 0.0098645519
-6.1511798 -54.022358 223.43256 -0.014277553 0.28104687 -0.95958787 0.0081671989
-4.8730597 -54.578815 223.39709 -0.017259192 0.28273439 -0.95904291 0.0058111986
-2.9685011 -55.204723 223.46234 -0.025034064 0.28146148 -0.95924586 0.003871995
-0.87872499 -55.240658 223.59914 -0.040075056 0.27685049 -0.96007699 0.0039952351
1.5326519 -55.039368 223.46297 -0.048492141 0.27154091 -0.96120441 0.0074695693
2.8224347 -55.095562 223.57315 -0.052303519 0.26852667 -0.96185124 0.0075815641
4.8469224 -55.046509 223.46161 -0.06503997 0.26511914 -0.96201956 0.0044454313
6.9205184 -55.032124 223.22279 -0.07840009 0.2629948 -0.96160656 0.00208519
8.1096048 -55.583202 222.30858 -0.083005905 0.26597661 -0.96039909 0.0061037424
-6.8564501 -53.030293 223.75223 -0.010312047 0.27631664 -0.96101135 0.0063899583
-5.3887873 -53.488384 223.80893 -0.018221194 0.27666274 -0.96079427 0.0058609927
-2.2479148 -52.148304 223.71523 -0.037535541 0.26148254 -0.96447808 0.0048380215
-0.61470222 -53.63327 223.77669 -0.043918729 0.26752621 -0.96254921 0.0050156852
1.7840117 -53.34079 223.86224 -0.054843895 0.26240405 -0.96339828 0.0075561544
3.292459 -53.139095 223.84247 -0.061752342 0.25762078 -0.96427083 0.0071022287
4.6463346 -53.572083 223.83179 -0.069285482 0.25576991 -0.9642517 0.0054356707
6.6178374 -53.082733 223.6156 -0.087284729 0.25086913 -0.96407789 0.001648925
-9.0097008 -51.275322 223.83499 0.00066153763 0.27139977 -0.96246648 0.0034681493
-6.0990219 -50.97924 223.84518 -0.020187423 0.26230302 -0.96477443 0.0044232626
0.038016919 -51.186504 223.73495 -0.050141003 0.25353917 -0.96602476 0.0054102461
5.8167858 -51.955368 223.93027 -0.081322014 0.25140962 -0.96445835 0.004967947
6.4122539 -51.313011 223.80333 -0.083246469 0.25288934 -0.96390718 0.0040188674
27.995708 -38.24868 223.96896 -0.0081409812 0.23333973 -0.97236121 0.0060519492
-0.88938218 -124.75063 224.17859 -0.10195988 0.21731792 -0.97076112 0.0082998527
-2.7172616 -122.17008 224.157 -0.084398448 0.2257994 -0.9705109 0.0053316574
-1.2986742 -122.75614 224.38982 -0.09241996 0.22214311 -0.97062403 0.0051223161
-4.5241723 -120.55134 224.18892 -0.071296968 0.23222972 -0.97004443 0.0072044358
-2.9846978 -120.86113 224.39314 -0.080910757 0.22847077 -0.97018266 0.00586642
-1.5455338 -120.87766 224.34492 -0.089921981 0.22389755 -0.97045547 0.0060204794
0.43861544 -120.73836 224.18692 -0.10402169 0.21657491 -0.97070843 0.006695407
-8.2050867 -118.19185 224.08865 -0.045730982 0.24370855 -0.96876979 0.008970717
-6.7461576 -118.80881 224.42201 -0.055784836 0.23820265 -0.96961206 0.0061038542
-4.9501653 -118.99088 224.64211 -0.066525772 0.23356825 -0.97006196 0.0056119999
-3.058831 -119.02469 224.94176 -0.079701647 0.22778431 -0.9704442 0.0066131204
-1.2827079 -118.89783 224.40549 -0.09022776 0.22448255 -0.97029191 0.005725801
0.17411156 -119.12621 224.09811 -0.10148544 0.21829458 -0.97059172 0.007358863
-8.7379084 -116.81808 224.49072 -0.044124123 0.2461745 -0.96822059 0.0062424582
-6.936213 -116.98742 225.1264 -0.059127726 0.2368924 -0.96973497 0.0084432717
-4.9379807 -117.02564 225.44162 -0.071404263 0.23019816 -0.97052068 0.0073422855
-3.0273778 -117.02468 225.03552 -0.079330593 0.22728647 -0.97059131 0.0061686286
-1.2722495 -117.02816 224.57063 -0.090013221 0.22274706 -0.97071177 0.0076712049
-10.29389 -114.43515 225.19275 -0.044105083 0.24517953 -0.96847397 0.00745861
-8.9908867 -115.02776 225.34555 -0.048712272 0.24343239 -0.96869391 0.0055104569
-7.2334571 -115.30727 225.70779 -0.055768017 0.23993897 -0.96918488 0.0059688562
-4.6513863 -115.04137 225.81813 -0.071699604 0.23173444 -0.97013313 0.0074669789
-2.9307735 -115.01063 225.19839 -0.081768863 0.22603641 -0.97068089 0.0077082864
-1.4372739 -115.25372 224.59254 -0.089426897 0.22233559 -0.9708603 0.0075233178
-10.851679 -112.94433 225.74448 -0.046475466 0.24312349 -0.96888131 0.00902477
-9.4638491 -113.53247 225.76465 -0.052723907 0.24001607 -0.96933609 0.0082915369
-4.6284542 -113.15685 225.84247 -0.072511986 0.23067223 -0.97032589 0.0058627767
-2.9551258 -113.06261 225.25456 -0.083435409 0.2258985 -0.97057122 0.0078038494
-1.7566795 -113.24457 224.51881 -0.090783127 0.22173236 -0.9708724 0.0076685385
-13.182916 -110.22433 225.81206 -0.037159197 0.24911049 -0.96776199 0.011462145
-11.958492 -111.69373 225.8974 -0.04448333 0.24331941 -0.96892565 0.0082672685
-4.2389555 -111.33311 225.89017 -0.082345575 0.22477153 -0.97092587 0.0077247578
-3.274303 -111.27055 225.37733 -0.090022326 0.22027072 -0.97127587 0.0084868111
-4.2749586 -108.62276 225.94609 -0.093032889 0.2182676 -0.97144443 0.0072657419
-3.9823098 -109.735 225.86748 -0.088633642 0.21960962 -0.97155327 0.0052713351
-4.5655465 -107.8084 225.88344 -0.097282998 0.21489838 -0.97177917 0.0090353601
41.796234 -92.750488 225.69467 -0.024421781 0.49058902 -0.87104881 0.020175416
42.439594 -92.929375 225.79955 -0.030623006 0.49266139 -0.86968207 0.018278303
11.299659 -90.015755 224.05 0.018724 0.53514481 -0.84455276 0.0010892466
12.779099 -90.216454 224.15002 0.013459967 0.53461701 -0.84498733 0.0012955025
14.284214 -90.065826 224.09579 0.0080161365 0.53433627 -0.84523404 0.0017900785
41.285175 -91.75528 225.97241 -0.0050220876 0.48028171 -0.87709993 0.022801159
47.077103 -91.518105 225.99503 -0.045193709 0.50520021 -0.86181808 0.011221554
9.6427288 -88.410339 224.26672 0.011257905 0.53794253 -0.8429063 0.0015869488
11.031382 -88.865234 224.60272 0.010010375 0.53604716 -0.84412873 0.0011280833
13.011806 -88.895966 224.72537 0.0049998225 0.53441614 -0.84520674 0.0013983161
14.71644 -88.829407 224.40016 0.0018254005 0.53308523 -0.84605956 0.0018175043
9.5485878 -86.908852 225.24693 -0.0031551241 0.53888065 -0.84237623 0.0029948927
10.886538 -87.296432 225.4671 -0.0050989506 0.53691471 -0.84362113 0.0024073485
13.061871 -87.462257 225.48096 -0.0071924441 0.53500587 -0.8448177 0.0013918332
14.969923 -87.087509 225.23409 -0.01093839 0.53365564 -0.845631 0.0011639708
9.6063728 -85.795807 225.93152 -0.011411269 0.5385381 -0.84252393 0.0023847683
15.668886 -85.266655 225.73996 -0.026923351 0.53265077 -0.84590679 0.00074942433
73.853989 -70.982216 225.96042 -0.30767941 0.20392196 -0.92938107 0.0015248678
75.188095 -70.724068 225.58084 -0.30881 0.20381977 -0.92902845 0.0017425001
76.91169 -70.4702 225.17091 -0.30870324 0.19435745 -0.93108946 0.0024878641
78.661766 -70.133461 224.73601 -0.30865902 0.1830292 -0.933397 0.0029390191
75.312912 -69.824013 225.83426 -0.30876154 0.19920442 -0.93004519 0.0019640208
77.282639 -69.177658 225.50702 -0.30953598 0.18559851 -0.93259883 0.0030378096
79.019852 -68.894852 225.14996 -0.30881244 0.1766167 -0.93458086 0.0027531055
80.817978 -68.912727 224.58237 -0.308902 0.17134672 -0.93553185 0.0033680911
82.551765 -68.252182 224.17322 -0.30906683 0.16525255 -0.93657315 0.0024769634
77.527397 -67.512383 225.7532 -0.30985504 0.17937151 -0.93371075 0.0034554875
79.267937 -66.981651 225.64397 -0.30914709 0.17095494 -0.93552256 0.003261613
81.020348 -67.115845 225.08951 -0.30884355 0.16672499 -0.93638587 0.0025753235
82.737625 -66.880951 224.53966 -0.30866432 0.16113053 -0.93742371 0.0021569023
84.764427 -66.620323 224.13531 -0.30849034 0.14770664 -0.93968958 0.0035367187
77.631302 -64.392685 225.71635 -0.31046706 0.16467297 -0.93621212 0.0027983347
79.01963 -64.908958 225.59877 -0.30961603 0.16515461 -0.93640906 0.0036546777
80.950287 -65.115364 225.15924 -0.30893254 0.16197826 -0.93718928 0.002813407
83.048279 -65.012154 224.48849 -0.30811498 0.1517368 -0.93917048 0.0017613259
84.602539 -64.987434 224.30934 -0.3088493 0.14345263 -0.94023055 0.0035747176
81.608139 -63.868412 224.58403 -0.30794507 0.15436827 -0.9387973 0.00098699902
83.061752 -63.646717 224.35017 -0.3085174 0.14420529 -0.94022435 0.002094652
84.81028 -63.707752 224.27324 -0.30926418 0.13757545 -0.94097227 0.0040202565
2.1331215 -56.22501 224.01775 -0.046111505 0.27491516 -0.96036214 0.0061720088
-4.2787056 -54.226612 224.25026 -0.019767882 0.27705374 -0.9606511 0.0040786723
-3.0826483 -54.420895 224.25493 -0.027227871 0.27517667 -0.96100801 0.0047566271
-1.1351024 -54.726704 224.22289 -0.040092845 0.27381814 -0.96094555 0.0041011376
0.48626518 -55.034542 224.43024 -0.045569461 0.27285296 -0.96097589 0.0051535764
3.389467 -54.843739 224.21307 -0.056257073 0.26490158 -0.96263301 0.0067663272
5.5650382 -54.551769 224.36919 -0.073014706 0.25979501 -0.96289951 0.0022713074
-6.5987129 -52.698605 224.38528 -0.013903484 0.27192643 -0.96221757 0.0043965974
-4.9623499 -52.771805 224.642 -0.020869775 0.270345 -0.96253729 0.0047906139
-3.0374589 -53.072102 224.56224 -0.031681523 0.26607457 -0.96343172 0.0042423531
-0.9875434 -52.838184 224.49242 -0.043264329 0.2626797 -0.96391261 0.0046365415
0.9195202 -52.881954 224.50342 -0.05229817 0.26095685 -0.96393275 0.0054052174
2.9418182 -52.951847 224.20244 -0.060817853 0.25795197 -0.96424168 0.0068357382
4.9580092 -52.845539 224.42021 -0.075416252 0.25300121 -0.964522 0.0060114558
6.0794621 -53.485771 224.11105 -0.082272597 0.25208345 -0.96420181 0.0035890806
-8.7126579 -50.730923 224.79277 -0.0042292108 0.26600769 -0.96396154 0.0042053261
-7.0469604 -51.033333 224.99809 -0.015203539 0.26308146 -0.96465379 0.0049488633
-5.0624089 -50.965401 225.1804 -0.024040855 0.25839105 -0.96574128 0.0039347946
-3.0677001 -51.025723 224.97833 -0.035977338 0.2545428 -0.96639204 0.0026492963
-1.0367658 -50.946384 224.92256 -0.04593097 0.25178966 -0.96669143 0.0033412001
1.0623157 -50.967094 224.79819 -0.054631706 0.25171059 -0.9662593 0.0041057859
3.0301573 -50.97979 224.73315 -0.062775016 0.25350025 -0.96529627 0.005218924
4.9851069 -50.938545 224.58411 -0.073724926 0.25400782 -0.96438819 0.0041963556
6.2148123 -50.955162 224.16426 -0.080565996 0.25330734 -0.96402514 0.00330574
-10.399446 -48.805546 225.19942 0.00013314176 0.2623798 -0.96496469 0.006492991
-9.0178471 -49.133507 225.49075 -0.0090237753 0.25817686 -0.96605551 0.0056522
-6.9125414 -49.145962 225.70683 -0.02150288 0.25317943 -0.96718025 0.005925036
-4.8965569 -49.162804 225.44815 -0.028888647 0.24983741 -0.96785676 0.0048953765
-3.0487707 -49.070366 225.26157 -0.038387921 0.2453633 -0.9686709 0.0030959421
-1.0489706 -49.111664 225.4351 -0.04599509 0.24496716 -0.96843982 0.0021488168
1.0581043 -49.026123 225.29977 -0.05066698 0.24765262 -0.96752322 0.001615708
2.9734082 -48.917221 225.22868 -0.058015846 0.24711795 -0.96724707 0.0024693059
5.0248547 -49.003761 224.79298 -0.069506101 0.24741042 -0.96641439 0.0025035411
6.2111778 -48.261799 224.39188 -0.073172435 0.24395342 -0.96702248 0.00097746379
-12.448377 -46.239143 225.43217 0.0068841036 0.25173798 -0.96777093 0.0067955684
-11.197208 -47.210258 225.64319 -0.0024641436 0.25473621 -0.96700746 0.0066623762
-8.6849461 -47.548752 225.68172 -0.014886456 0.25026685 -0.96806246 0.0055818246
-6.8145962 -47.441219 225.88882 -0.025779277 0.24594177 -0.96894175 0.0046479097
-4.8001266 -47.294956 225.71443 -0.032176904 0.2427303 -0.96956009 0.0039678188
-2.7155297 -47.155373 225.58769 -0.039372481 0.24107744 -0.96970683 0.00087872316
-1.2616982 -47.156437 225.73219 -0.043115593 0.24199963 -0.96931791 0.0011327545
0.98230362 -47.047493 225.57776 -0.050376467 0.23916641 -0.96967095 0.0010871262
3.0688012 -46.962334 225.54405 -0.058539774 0.23705217 -0.96973163 0.0026773969
5.065321 -47.082428 225.466 -0.063571572 0.23997422 -0.96869552 0.0027548547
6.4359818 -46.813641 224.7972 -0.069781847 0.2412239 -0.96795738 0.0037505776
-12.813503 -45.350063 225.76636 0.0068422561 0.24896555 -0.96848816 0.0055181962
-11.508404 -45.417461 225.76068 -0.0054909349 0.24596514 -0.96926314 0.0063038296
-6.4296393 -45.996845 225.88866 -0.03116283 0.23898068 -0.97052419 0.0032139311
-3.2416966 -45.367245 225.88066 -0.036325369 0.23808801 -0.97056401 0.0017222966
-1.560317 -45.036343 225.80594 -0.042164866 0.2375268 -0.97046542 0.00049332908
1.2990832 -45.13501 225.83463 -0.05375798 0.2350969 -0.9704842 0.0028554047
3.0418284 -45.149738 225.82806 -0.055013344 0.23674658 -0.97001272 0.0035160712
5.1266766 -44.967316 225.76714 -0.059066679 0.23926267 -0.96915668 0.0025657588
7.0610552 -45.156166 225.43547 -0.067905314 0.24175732 -0.96795779 0.0027450386
8.8720436 -44.463436 225.05899 -0.078652866 0.24782659 -0.96560639 0.0029273431
10.381024 -44.092152 225.02583 -0.098362818 0.26093268 -0.96033269 0.0049544158
5.3358054 -43.711777 225.85132 -0.057968065 0.2419991 -0.96854335 0.0059957639
7.6696196 -43.681782 225.97229 -0.070079155 0.24651277 -0.9666025 0.0067042867
9.054678 -43.790749 225.67439 -0.078349404 0.25137606 -0.96471316 0.0030904342
10.471389 -43.575294 225.40454 -0.09815143 0.26468217 -0.95932776 0.0041113249
0.14838792 -41.126316 225.99933 -0.043133952 0.23546745 -0.97092462 0.0012325075
19.308842 -40.530514 225.48564 -0.058524076 0.23405428 -0.97046047 0.017474934
20.742184 -40.326817 225.08539 -0.013037267 0.22218487 -0.97491741 0.025664322
19.634556 -39.60807 225.7798 -0.025063245 0.21274215 -0.97678691 0.024210114
21.053053 -39.206081 225.63269 0.0082946932 0.20221834 -0.97930533 0.023158979
23.0121 -39.178802 225.44826 0.0029623476 0.21466027 -0.97668421 0.018026922
25.014122 -38.707607 225.45099 -0.00021433271 0.2254225 -0.97426111 0.011852835
27.02281 -38.258755 225.21371 -0.0062380107 0.2324235 -0.97259468 0.0069484389
28.424231 -38.134247 224.8447 -0.0080301128 0.23483594 -0.97200191 0.0058755889
21.514439 -37.606297 225.67993 0.019734861 0.19299243 -0.98100173 0.017953619
23.028467 -36.762127 225.79796 0.012481489 0.21430939 -0.976686 0.014536277
24.852331 -36.946354 225.72441 0.0026665297 0.224966 -0.97436297 0.010929367
27.420563 -37.763111 225.81433 -0.004974626 0.23093715 -0.97295594 0.0061302902
29.118523 -37.577465 225.63976 -0.0072737965 0.23768836 -0.97131425 0.0057970332
30.979187 -37.010998 225.59729 -0.011210644 0.24263945 -0.97005183 0.0070042298
32.360317 -36.321709 225.722 -0.012259045 0.24526247 -0.96937919 0.0078317057
23.821182 -35.820084 225.77414 0.0085520186 0.22239561 -0.97491896 0.010287718
24.93367 -35.068745 225.35219 0.0013718598 0.23036724 -0.97310281 0.008261702
33.323139 -35.508671 225.72383 -0.013736521 0.24386509 -0.96971184 0.0071045379
34.267014 -34.753075 225.77991 0.016823852 0.23255055 -0.97243881 0.0056700157
25.698866 -33.637283 225.64189 -0.0025879405 0.23847733 -0.97114468 0.0057166065
26.13048 -33.131424 225.82619 -0.0064187753 0.24077712 -0.97055918 0.0051881368
26.554394 -31.548166 225.93077 -0.012894465 0.24373497 -0.96975619 0.0043207388
-3.9241514 -118.39677 226.1662 -0.07132367 0.23075107 -0.97039521 0.0052079284
-5.1191411 -116.1293 226.03925 -0.071379751 0.22939086 -0.97071356 0.0065443413
-8.3511686 -114.29272 226.18474 -0.054957259 0.24033305 -0.9691335 0.0053838757
-6.6748719 -114.59584 226.23802 -0.060005561 0.23740414 -0.96955585 0.0060453797
-5.3127613 -114.96462 226.2357 -0.066663176 0.23434378 -0.9698655 0.0069722505
-10.732617 -112.47872 226.21466 -0.049457911 0.24091463 -0.96928537 0.0080106854
-8.9194775 -112.90863 226.35855 -0.05715334 0.23754425 -0.9696939 0.0093137641
-6.9801717 -113.00618 226.68323 -0.064436518 0.2344479 -0.96999079 0.0070390264
-5.0487633 -112.97138 226.24875 -0.071795732 0.23065312 -0.97038364 0.0052840849
-12.587337 -110.31995 226.3786 -0.042527128 0.2465311 -0.96820134 0.010566772
-11.002969 -110.99921 226.70876 -0.053066649 0.24017712 -0.9692775 0.0087344144
-9.0352793 -111.05172 227.1154 -0.06087498 0.23495305 -0.97009861 0.0092848223
-7.0429912 -110.99961 226.91534 -0.068946496 0.23073231 -0.97057152 0.0088117635
-5.1187444 -110.87514 226.40776 -0.077769659 0.22623359 -0.97096354 0.0074410792
-3.7216954 -111.2112 226.08701 -0.086605214 0.22264105 -0.97104603 0.0088989921
-14.467514 -108.4452 226.83589 -0.036614541 0.25449646 -0.96638036 0.0053213667
-13.075624 -109.00758 226.85625 -0.043364417 0.24954386 -0.96739209 0.0076612369
-11.158229 -109.10075 227.43367 -0.055889405 0.24171071 -0.96873754 0.0094665261
-8.8244057 -109.07333 227.56427 -0.067089833 0.23357809 -0.97002077 0.0095919389
-7.0849991 -109.00002 227.15247 -0.073067941 0.2298855 -0.97047091 0.0098712808
-5.1599045 -109.02236 226.42793 -0.082984619 0.22389065 -0.971075 0.0078988727
-16.006813 -106.21619 227.03456 -0.036532514 0.26246431 -0.96424991 0.011913951
-14.819808 -106.84773 227.40201 -0.047056176 0.25146678 -0.96672136 0.0063429261
-13.10723 -107.2332 227.67023 -0.055952303 0.24261309 -0.96850824 0.0040007746
-11.399526 -107.63714 227.84166 -0.06101251 0.23894694 -0.96911395 0.0062020724
-8.8465843 -106.9408 227.72705 -0.074649125 0.23066494 -0.97016549 0.0078110388
