# .PCD v0.7 - Point Cloud Data file format
VERSION 0.7
FIELDS x y z normal_x normal_y normal_z curvature
SIZE 4 4 4 4 4 4 4
TYPE F F F F F F F
COUNT 1 1 1 1 1 1 1
WIDTH 624
HEIGHT 1
VIEWPOINT 0 0 0 1 0 0 0
POINTS 624
DATA ascii
51.171867 -44.140636 509.08328 0.43854922 -0.34521177 -0.82976103 0.12029996
53.081661 -46.484383 512.10938 0.58728582 -0.25198996 -0.76915312 0.12243118
53.010136 -45.703114 512.10938 0.59460992 -0.24614784 -0.76540852 0.12405366
52.909164 -44.921875 512.10938 0.60316777 -0.25636399 -0.75529212 0.12535775
52.846519 -44.140636 512.10938 0.59330499 -0.26020816 -0.76176172 0.12178635
50.390633 -46.484383 510.3205 0.22923136 -0.42035797 -0.87792498 0.12464971
51.171867 -46.484383 510.43982 0.36914459 -0.37033734 -0.8523981 0.1201122
50.390633 -45.577049 509.76562 0.29731691 -0.40266293 -0.86571664 0.12628815
50.390633 -45.703114 509.84241 0.29391995 -0.40159193 -0.86737245 0.12410999
51.171867 -45.361908 509.76562 0.38243726 -0.35486275 -0.85312027 0.11430661
51.171867 -45.703114 509.96674 0.3835949 -0.37452903 -0.84414637 0.12657097
51.953136 -45.703114 510.20312 0.47653517 -0.31933403 -0.81910926 0.11430002
51.685928 -44.921875 509.76562 0.48263818 -0.32266408 -0.81421638 0.11793172
51.953136 -44.921875 509.88483 0.52120155 -0.30817106 -0.79585135 0.11521439
51.864506 -44.140636 509.76562 0.51628381 -0.3130132 -0.79716611 0.12110744
51.953136 -44.140636 509.83221 0.52698761 -0.30803922 -0.79208326 0.12295508
50.390633 -48.046886 511.28931 0.20263706 -0.45404056 -0.86763215 0.13713244
50.390633 -46.839951 510.54688 0.22873023 -0.41635576 -0.87996048 0.12167397
50.390633 -47.265617 510.8176 0.21974882 -0.43330359 -0.87404716 0.12528537
51.171867 -46.653957 510.54688 0.36499482 -0.3785387 -0.85058051 0.12401665
51.171867 -47.265617 510.9248 0.32263178 -0.39587557 -0.85976237 0.12615211
51.953136 -47.265617 511.06375 0.42263752 -0.3415623 -0.8394717 0.12176241
50.390633 -48.112274 511.32809 0.19152132 -0.44347966 -0.87558287 0.12823702
50.390633 -48.828125 511.74463 0.14729014 -0.46431792 -0.87333536 0.13328561
51.171867 -48.828125 511.827 0.23202004 -0.41462031 -0.87991858 0.11953889
51.953136 -48.828125 511.952 0.36067763 -0.3750692 -0.85395241 0.12239826
50.74194 -48.046886 511.32809 0.22902434 -0.43472147 -0.87095642 0.13223882
51.171867 -47.965942 511.32809 0.29592314 -0.41635633 -0.85969579 0.13205577
51.171867 -48.046886 511.37518 0.29586264 -0.41690511 -0.85945076 0.13408643
51.953136 -47.745792 511.32809 0.40552053 -0.35738134 -0.84132737 0.12660536
51.953136 -48.046886 511.50012 0.37324846 -0.36571944 -0.85260475 0.12104896
52.734375 -48.046886 511.74094 0.48976195 -0.32452101 -0.80920905 0.11746065
52.584084 -47.265617 511.32809 0.48508209 -0.3029891 -0.82030058 0.11374632
52.734375 -46.753407 511.32809 0.52701998 -0.28213596 -0.80165404 0.113925
52.734375 -47.265617 511.38611 0.5211857 -0.29479572 -0.80091262 0.11997156
51.576614 -46.484383 510.54688 0.4037033 -0.35615313 -0.84272099 0.12042236
51.953136 -46.315281 510.54688 0.44549996 -0.33618981 -0.82976276 0.11703017
51.953136 -46.484383 510.64365 0.43262932 -0.33639306 -0.83646375 0.11415164
52.734375 -46.484383 511.30469 0.53367651 -0.2788035 -0.79840964 0.1128578
52.121044 -45.703114 510.54688 0.50267178 -0.30308247 -0.80960613 0.11577525
52.224277 -44.921875 510.54688 0.52288699 -0.29425713 -0.8000012 0.11758663
52.226574 -44.140636 510.54688 0.53570235 -0.29408479 -0.79154098 0.11974038
50.390633 -49.451054 512.10938 0.11941278 -0.47293153 -0.87296987 0.13497403
50.390633 -49.609364 512.20386 0.10628062 -0.45637348 -0.88341814 0.1197449
51.171867 -49.338104 512.10938 0.22703956 -0.4188332 -0.87922221 0.12261298
51.171867 -49.609364 512.25909 0.21463355 -0.42412406 -0.87980181 0.12303959
51.953136 -49.129932 512.10938 0.35380155 -0.37254056 -0.85792667 0.12059357
51.953136 -49.609364 512.35571 0.31253663 -0.39255434 -0.86499828 0.11786367
52.734375 -49.609364 512.53113 0.40407723 -0.34885788 -0.84558845 0.11534505
52.583157 -48.828125 512.10938 0.43233255 -0.34256011 -0.83411103 0.11653199
52.734375 -48.75499 512.10938 0.44078532 -0.332104 -0.83391565 0.11239635
52.734375 -48.828125 512.14648 0.42942411 -0.32631427 -0.842089 0.10788234
53.515614 -48.828125 512.75714 0.51781207 -0.27575094 -0.80983466 0.10921187
52.924992 -48.046886 512.10938 0.5120886 -0.29802692 -0.80557138 0.11945526
53.515614 -48.046886 512.86646 0.5922929 -0.24066199 -0.76894146 0.11851741
53.05624 -47.265617 512.10938 0.5744521 -0.26624513 -0.77402729 0.1208049
169.29504 -49.609364 512.10938 -0.95856488 -0.13701615 0.24975958 0.10104942
169.14061 -49.190937 512.10938 0.92941904 0.19281664 -0.31464589 0.10176545
169.92191 -49.609364 512.74268 -0.98361391 -0.082684927 0.16020896 0.073362574
169.14061 -48.828125 512.40289 0.93191254 0.19006701 -0.30889088 0.10012879
169.14061 -49.609364 511.78647 0.93740779 0.17270097 -0.30239204 0.10476228
162.89064 -49.609364 504.51749 -0.19377151 0.59844238 -0.77737975 0.11200703
163.67188 -49.609364 504.32776 -0.10132047 0.60296142 -0.79131013 0.10997725
164.45312 -49.609364 504.60559 0.10548019 0.59823328 -0.79434931 0.12563257
165.23436 -49.609364 504.9433 0.26434416 0.57954389 -0.77087682 0.13922323
162.89064 -48.828125 505.05893 -0.20081396 0.59949774 -0.77477497 0.11860032
163.67188 -48.828125 504.82129 -0.1052004 0.61055613 -0.78495485 0.11257704
164.45312 -48.828125 504.96536 0.042626839 0.60225874 -0.79716206 0.11150767
166.38205 -49.609364 505.85938 0.46630073 0.51020801 -0.72266972 0.1446899
166.01566 -49.106865 505.85938 0.38078219 0.53977054 -0.75076807 0.13366464
166.79689 -49.609364 506.20413 0.54893845 0.4833481 -0.68193924 0.13665226
165.75339 -48.828125 505.85938 0.32756832 0.56568986 -0.75676543 0.1364567
165.23436 -48.237862 505.85938 0.20655499 0.59266931 -0.77851015 0.12841728
166.01566 -48.828125 506.08093 0.37353513 0.54782802 -0.74856925 0.13826567
162.89064 -47.671349 505.85938 -0.20972879 0.59600407 -0.7751084 0.11083712
163.67188 -47.317593 505.85938 -0.085886426 0.60283625 -0.79322886 0.099011414
164.97615 -48.046886 505.85938 0.15116665 0.59135818 -0.79211372 0.11942982
164.45312 -47.677727 505.85938 0.024658667 0.61346102 -0.7893399 0.11072019
165.23436 -48.046886 505.97675 0.21249063 0.59948111 -0.77166712 0.12757903
166.01566 -48.046886 506.4118 0.37433216 0.56939137 -0.73189408 0.12924042
162.89064 -47.265617 506.17938 -0.19031589 0.60147196 -0.77589393 0.11169534
163.67188 -47.265617 505.9061 -0.088132866 0.60071963 -0.79458702 0.097364873
164.45312 -47.265617 506.17087 0.029614983 0.60672128 -0.79436284 0.10362305
165.23436 -47.265617 506.63049 0.22974858 0.59790659 -0.76793438 0.12186348
163.67188 -46.484383 506.48779 -0.067749545 0.61974603 -0.78187263 0.10585919
165.36031 -49.609364 505.07812 0.27218392 0.5659579 -0.7782079 0.13566929
165.23436 -49.345734 505.07812 0.23584123 0.57768697 -0.78144526 0.13247077
166.01566 -49.609364 505.55807 0.38491356 0.54003316 -0.74846894 0.14189824
162.89064 -48.799484 505.07812 -0.20245759 0.6008659 -0.77328593 0.12017107
163.67188 -48.308609 505.07812 -0.085383974 0.61636662 -0.78281653 0.10737336
164.71704 -48.828125 505.07812 0.10830147 0.60210294 -0.79103911 0.12141266
164.45312 -48.668297 505.07812 0.035900097 0.60362202 -0.796462 0.11210215
165.23436 -48.828125 505.35446 0.20086898 0.58210832 -0.78790963 0.12762806
162.89064 -48.046886 505.54694 -0.18638059 0.59901029 -0.77874833 0.10981244
163.67188 -48.046886 505.19199 -0.093119428 0.61243188 -0.78501964 0.10775358
164.45312 -48.046886 505.56534 0.03141927 0.60182869 -0.79800701 0.10708757
167.27391 -49.609364 507.42184 0.63900197 0.44967291 -0.62407589 0.15943632
166.97177 -48.828125 507.42184 0.57518572 0.50377357 -0.64449477 0.15691668
166.79689 -48.193039 507.42184 0.5642224 0.50917822 -0.64991593 0.13684586
166.73926 -48.046886 507.42184 0.53448761 0.51481754 -0.67028797 0.13453184
166.79689 -48.046886 507.51202 0.55106753 0.50685251 -0.66289145 0.13500728
166.55937 -47.265617 507.42184 0.50516003 0.54084074 -0.67253596 0.12064284
166.01566 -46.530186 507.42184 0.36892566 0.57883203 -0.72721881 0.1105153
166.79689 -47.265617 507.64496 0.54625934 0.51859409 -0.65776968 0.12039019
163.38161 -46.484383 506.64062 -0.10703687 0.62253284 -0.77523929 0.1119247
162.89064 -46.484383 506.89566 -0.19108205 0.60390258 -0.7738148 0.10869873
164.01729 -46.484383 506.64062 -0.022977637 0.61585212 -0.78752673 0.10448486
163.67188 -46.285004 506.64062 -0.050427575 0.62410414 -0.77971208 0.11215375
164.45312 -46.484383 506.80911 0.020716287 0.61133319 -0.79110205 0.10124508
165.23436 -46.484383 507.18857 0.20618969 0.59710699 -0.77520895 0.11444913
163.67188 -45.703114 507.08188 -0.082846701 0.62034893 -0.77993822 0.10031178
164.45312 -45.703114 507.10535 0.049600568 0.62393105 -0.77990371 0.096824557
162.89064 -45.827301 507.42184 -0.18807264 0.60940623 -0.77022898 0.11104347
165.92636 -46.484383 507.42184 0.34880498 0.5825699 -0.73413038 0.11228292
165.23436 -46.136974 507.42184 0.21732353 0.61715847 -0.75623137 0.10977711
166.01566 -46.484383 507.45691 0.37395439 0.58320957 -0.72112739 0.11180367
163.06779 -45.703114 507.42184 -0.16102318 0.61379737 -0.77286756 0.10693661
162.89064 -45.703114 507.53741 -0.19033915 0.60268241 -0.77494836 0.11015837
163.67188 -45.381664 507.42184 -0.089282729 0.62449837 -0.77590615 0.10684571
164.84305 -45.703114 507.42184 0.12251675 0.62403482 -0.77173197 0.10274388
164.45312 -45.273869 507.42184 0.043871928 0.61950284 -0.78376746 0.088942297
165.23436 -45.703114 507.71576 0.23058777 0.61198932 -0.75650406 0.10835603
163.67188 -44.921875 507.88654 -0.074903496 0.63960713 -0.76504397 0.10933267
164.45312 -44.921875 507.70111 0.054275826 0.62763971 -0.7766096 0.09098053
167.02673 -49.609364 506.64062 0.60320228 0.4733144 -0.6419661 0.14782953
166.79689 -49.185902 506.64062 0.55884415 0.49227703 -0.66735035 0.14288819
166.43474 -48.828125 506.64062 0.46352085 0.52565128 -0.71332961 0.14638785
166.79689 -48.828125 507.07889 0.5602932 0.50955987 -0.65300864 0.15657666
166.19595 -48.046886 506.64062 0.39091679 0.552876 -0.73587507 0.1281074
166.01566 -47.730297 506.64062 0.34593269 0.55650407 -0.7554031 0.12173378
162.89064 -46.780647 506.64062 -0.21542904 0.59964794 -0.77072215 0.11139223
164.45312 -46.696156 506.64062 0.022843644 0.61269742 -0.78998733 0.098170236
165.25575 -47.265617 506.64062 0.23091513 0.59362769 -0.7708984 0.12044984
165.23436 -47.253578 506.64062 0.23187967 0.60026503 -0.76545006 0.1229761
166.01566 -47.265617 506.94226 0.36968309 0.57114023 -0.73289376 0.11427966
167.83955 -49.609364 508.98438 0.77620482 0.37424645 -0.50739104 0.16812602
167.75545 -48.828125 508.98438 0.75670654 0.41188481 -0.50768703 0.14180365
167.57812 -48.299194 508.98438 0.71080428 0.4479351 -0.54232037 0.14155473
167.49916 -48.046886 508.98438 0.70463747 0.47118062 -0.53054202 0.14369562
167.57812 -47.376572 508.98438 0.70414698 0.45759326 -0.54294145 0.12924303
167.57812 -48.046886 509.1088 0.71389574 0.45732263 -0.53029144 0.14148967
167.58719 -47.265617 508.98438 0.70922279 0.44964176 -0.54297823 0.12878513
167.57812 -47.235935 508.98438 0.70193225 0.44783109 -0.55383968 0.12898044
166.78098 -46.484383 508.20316 0.53548133 0.52668083 -0.66020226 0.11731458
166.01566 -45.759888 508.20316 0.39150923 0.58497405 -0.71029997 0.1138106
166.79689 -46.484383 508.2153 0.53556049 0.52367079 -0.6625284 0.11729771
162.89064 -44.945328 508.20316 -0.17602982 0.62533236 -0.76024526 0.11749066
165.94199 -45.703114 508.20316 0.38049299 0.58664894 -0.7148903 0.11161532
165.23436 -45.124382 508.20316 0.22620863 0.62316585 -0.74866146 0.10663708
166.01566 -45.703114 508.25125 0.39590397 0.58769232 -0.70560455 0.11464144
166.79689 -45.703114 508.69876 0.5220558 0.5467419 -0.65462273 0.11479574
162.9304 -44.921875 508.20316 -0.16432497 0.62104231 -0.76635748 0.11160456
162.89064 -44.921875 508.22122 -0.17448871 0.6204831 -0.76456159 0.11334302
163.67188 -44.593872 508.20316 -0.07053902 0.63161558 -0.77206612 0.10368315
165.01323 -44.921875 508.20316 0.18859485 0.624295 -0.75808161 0.10518923
164.45312 -44.483067 508.20316 0.040412348 0.63871801 -0.76837891 0.10189174
165.23436 -44.921875 508.3996 0.23373762 0.62301135 -0.74647409 0.11162008
162.89064 -44.140636 508.83829 -0.1694589 0.63497591 -0.75371701 0.11517743
163.67188 -44.140636 508.56732 -0.075370297 0.64318001 -0.76199657 0.10991915
164.45312 -44.140636 508.51016 0.048866969 0.64334702 -0.76401347 0.10250275
165.23436 -44.140636 508.7713 0.21746093 0.62176204 -0.75241125 0.10316528
167.23386 -46.484383 508.98438 0.6227653 0.49692985 -0.60433781 0.12596802
167.57812 -46.484383 509.65518 0.69170189 0.45434555 -0.56135428 0.13257658
166.01566 -44.969349 508.98438 0.3845551 0.58497506 -0.7140879 0.1121675
166.99049 -45.703114 508.98438 0.57235914 0.51584637 -0.6374225 0.12220495
166.79689 -45.380592 508.98438 0.52758878 0.54660112 -0.65029025 0.11458342
165.9455 -44.921875 508.98438 0.3847611 0.58778363 -0.71166658 0.11505394
166.01566 -44.921875 509.03308 0.40571749 0.58881146 -0.69906676 0.11817908
166.79689 -44.921875 509.53882 0.5332157 0.54994202 -0.64284116 0.12273888
162.89064 -43.997677 508.98438 -0.17606081 0.63116556 -0.75540233 0.11652681
163.67188 -43.723343 508.98438 -0.056358915 0.63946593 -0.76675087 0.10432933
164.45312 -43.685287 508.98438 0.064334266 0.64434975 -0.76201999 0.10686815
165.45424 -44.140636 508.98438 0.28720385 0.62119889 -0.72912681 0.11453465
165.23436 -43.858795 508.98438 0.24520177 0.63227856 -0.73491484 0.11119432
166.01566 -44.140636 509.59171 0.41187686 0.59655708 -0.68882293 0.12517078
167.51239 -49.609364 508.20316 0.70183891 0.423163 -0.57302296 0.17064793
167.57812 -49.609364 508.4082 0.72917479 0.41026461 -0.54771072 0.17847148
167.47775 -48.828125 508.20316 0.71021247 0.43921238 -0.55017334 0.14037824
167.57812 -48.828125 508.49658 0.72776568 0.43481979 -0.53036678 0.1393023
167.12645 -48.046886 508.20316 0.62432534 0.48710576 -0.61069286 0.14186327
167.11464 -47.265617 508.20316 0.60499299 0.50370127 -0.6166591 0.12257455
166.79689 -46.503662 508.20316 0.54694027 0.52811968 -0.64957368 0.11946273
167.57812 -47.265617 508.95871 0.70686305 0.44994366 -0.54579777 0.12806426
168.53699 -49.609364 510.54688 0.88582331 0.25838697 -0.38542587 0.13427287
168.35938 -48.946171 510.54688 0.84882045 0.30579212 -0.43127131 0.12989564
168.34399 -48.828125 510.54688 0.84473413 0.32068321 -0.42847002 0.1220641
168.35938 -48.828125 510.58054 0.83668125 0.32214704 -0.4429287 0.12284154
168.30453 -48.046886 510.54688 0.82565296 0.34186441 -0.44880486 0.10945233
168.35938 -48.046886 510.75726 0.82416946 0.33577147 -0.45607251 0.10941681
168.02844 -47.265617 510.54688 0.75807089 0.41183794 -0.50568563 0.12800676
167.61896 -46.484383 509.76562 0.69352949 0.4526659 -0.56045562 0.13309346
167.57812 -46.164097 509.76562 0.69652992 0.45505401 -0.55477196 0.12810437
167.48134 -45.703114 509.76562 0.65175033 0.47999164 -0.5872218 0.12048914
167.57812 -45.703114 509.91376 0.67837632 0.47356337 -0.56173247 0.1225732
166.94 -44.921875 509.76562 0.57020622 0.53654748 -0.62207848 0.12717427
166.79689 -44.689091 509.76562 0.55168778 0.54368281 -0.63249469 0.12623011
166.22231 -44.140636 509.76562 0.44538611 0.58718061 -0.6759069 0.12625207
166.01566 -43.835224 509.76562 0.4031665 0.60128385 -0.68986559 0.12481453
166.79689 -44.140636 510.27786 0.54647684 0.55169541 -0.63007563 0.1275117
167.91621 -46.484383 510.54688 0.72739124 0.42797101 -0.53641659 0.12938628
167.81297 -45.703114 510.54688 0.72381997 0.44135091 -0.53037155 0.12314656
167.57812 -44.924526 510.54688 0.66890424 0.47434437 -0.5723325 0.12145028
167.57664 -44.921875 510.54688 0.67251486 0.47454077 -0.56792152 0.12174186
167.57812 -44.921875 510.54852 0.67717063 0.47499236 -0.56198049 0.12226669
167.03256 -44.140636 510.54688 0.59874851 0.52583778 -0.60414809 0.12661108
166.79689 -43.819756 510.54688 0.55888641 0.54632628 -0.62383789 0.13122807
167.57812 -44.140636 511.16724 0.69348955 0.47585747 -0.54095459 0.12115729
168.20374 -49.609364 509.76562 0.84919643 0.3007715 -0.43405282 0.14445767
168.35938 -49.609364 510.2623 0.86186653 0.27794451 -0.42418495 0.1473344
168.08472 -48.828125 509.76562 0.80745518 0.3627997 -0.46518004 0.12690644
167.94101 -48.046886 509.76562 0.75894892 0.41197568 -0.50425446 0.12948753
167.79372 -47.265617 509.76562 0.72219443 0.436041 -0.53693891 0.1319876
168.08513 -46.484383 511.32809 0.77404314 0.39322242 -0.49621913 0.12063687
168.10587 -45.703114 511.32809 0.76560593 0.40885097 -0.49667731 0.11520981
168.35938 -45.703114 512.01776 0.7905857 0.37499779 -0.48409799 0.10815863
167.968 -44.921875 511.32809 0.73603958 0.43332714 -0.52007061 0.11477541
167.6701 -44.140636 511.32809 0.69079161 0.46917108 -0.55016863 0.11686076
167.57812 -43.929516 511.32809 0.68524247 0.47564912 -0.55154383 0.11911923
169.08505 -48.828125 512.10938 0.91346186 0.21758302 -0.34386784 0.099883325
168.83501 -48.046886 512.10938 0.87362742 0.28516269 -0.39428097 0.098552443
168.56172 -47.265617 512.10938 0.83603424 0.32628578 -0.44111714 0.10386808
168.35938 -46.709 512.10938 0.80505157 0.36742106 -0.46571848 0.11430482
168.31073 -46.484383 512.10938 0.79973972 0.36956447 -0.47311574 0.11433405
168.35938 -45.995533 512.10938 0.79380536 0.3755427 -0.47837296 0.10985636
168.35938 -46.484383 512.26788 0.80187601 0.36555693 -0.47261283 0.11465558
168.40562 -45.703114 512.10938 0.7973004 0.37237951 -0.47502172 0.10736804
168.35938 -45.301647 512.10938 0.78108662 0.38469842 -0.4918443 0.10504862
168.31961 -44.921875 512.10938 0.76400882 0.4009214 -0.50552207 0.10656846
168.35938 -44.921875 512.17859 0.7691021 0.39546049 -0.50208861 0.10690217
168.16357 -44.140636 512.10938 0.74766314 0.42189664 -0.5128383 0.10798328
168.35938 -44.140636 512.45422 0.76731139 0.40636861 -0.49608231 0.10567822
169.01495 -49.609364 511.32809 0.9170962 0.21096827 -0.33827066 0.10805482
168.78172 -48.828125 511.32809 0.88447869 0.26509812 -0.38395363 0.10323309
168.54318 -48.046886 511.32809 0.84784788 0.31248388 -0.42837805 0.10568934
168.35938 -47.517864 511.32809 0.81777757 0.34970483 -0.4571065 0.11296191
168.30644 -47.265617 511.32809 0.81153506 0.35940897 -0.46069074 0.11366651
168.35938 -47.265617 511.57068 0.81299245 0.35338545 -0.4627763 0.11459625
161.21796 -49.609364 505.85938 -0.47180402 0.51123101 -0.71836191 0.12015232
160.54688 -49.609364 506.54678 -0.58433783 0.48050708 -0.65395892 0.12450162
161.32811 -49.462914 505.85938 -0.44642666 0.521375 -0.7272355 0.12136351
161.80823 -48.828125 505.85938 -0.34308791 0.57272846 -0.74449497 0.11932275
161.32811 -48.828125 506.31833 -0.4611305 0.53547913 -0.70754558 0.1238131
162.10941 -48.436195 505.85938 -0.2970944 0.57751113 -0.76040506 0.11255538
162.45445 -48.046886 505.85938 -0.24431437 0.58557898 -0.77292156 0.11106993
162.10941 -48.046886 506.10571 -0.30536777 0.58310187 -0.75282311 0.11724092
162.10941 -49.609364 505.07159 -0.31639791 0.5703119 -0.758048 0.11742872
162.10941 -46.484383 507.272 -0.32628259 0.58124399 -0.74544954 0.11555095
161.16145 -46.484383 508.20316 -0.46093681 0.54750222 -0.69841146 0.1179737
160.54688 -46.484383 508.74268 -0.56397575 0.52876073 -0.63430548 0.12958682
161.32811 -46.285809 508.20316 -0.44698891 0.56265831 -0.69542545 0.1198651
162.00951 -45.703114 508.20316 -0.32990915 0.59408188 -0.73363942 0.12261182
161.32811 -45.703114 508.54199 -0.41838384 0.57726479 -0.70122772 0.12225465
162.10941 -45.637577 508.20316 -0.31257018 0.59353465 -0.74163097 0.12134645
162.10941 -44.921875 508.74734 -0.31333807 0.60185295 -0.73456949 0.12039153
162.10124 -49.609364 505.07812 -0.31776437 0.5712347 -0.75678045 0.11810301
161.32811 -49.609364 505.74814 -0.45390502 0.52267939 -0.7216484 0.12177705
162.10941 -49.599468 505.07812 -0.31092471 0.56767935 -0.76227683 0.113942
162.8609 -48.828125 505.07812 -0.20126064 0.59639025 -0.77705389 0.11748169
162.10941 -48.828125 505.58145 -0.30342236 0.56781638 -0.76519239 0.1107738
161.91408 -46.484383 507.42184 -0.34558275 0.57033521 -0.7451781 0.11194861
161.32811 -46.484383 508.0629 -0.44187686 0.55798775 -0.70242047 0.11783914
162.10941 -46.323925 507.42184 -0.31937352 0.58144516 -0.74827939 0.11213422
162.10941 -45.703114 508.15005 -0.309683 0.59347492 -0.74288887 0.12036939
160.37199 -46.484383 508.98438 -0.59138 0.51885152 -0.61730278 0.12905668
160.54688 -46.234997 508.98438 -0.56488615 0.52673614 -0.63517928 0.12412591
160.92113 -45.703114 508.98438 -0.48856646 0.56764311 -0.66263425 0.12498098
160.54688 -45.703114 509.44101 -0.57208687 0.53782028 -0.6192463 0.13173233
161.32811 -45.201511 508.98438 -0.44825885 0.58242732 -0.67811686 0.12246079
161.72716 -44.921875 508.98438 -0.39395833 0.59666497 -0.69913352 0.11945698
161.32811 -44.921875 509.20087 -0.44391331 0.58525747 -0.67853862 0.12304554
162.10941 -44.655235 508.98438 -0.3456755 0.60961479 -0.71335709 0.12032073
162.66147 -44.140636 508.98438 -0.20568982 0.62150091 -0.75592875 0.11122593
162.10941 -44.140636 509.49417 -0.35678613 0.60811424 -0.7091549 0.12020523
160.46921 -49.609364 506.64062 -0.58642095 0.47200748 -0.65827 0.1237914
160.54688 -49.484165 506.64062 -0.56698483 0.47646505 -0.67194432 0.12045459
161.00671 -48.828125 506.64062 -0.49881732 0.5144875 -0.69748396 0.12076004
160.54688 -48.828125 507.13278 -0.55787539 0.48380548 -0.67431992 0.11881503
161.32811 -48.368664 506.64062 -0.44117439 0.54898018 -0.70991963 0.12178153
161.53636 -48.046886 506.64062 -0.39575937 0.55545372 -0.73133147 0.11387266
161.32811 -48.046886 506.88504 -0.42402583 0.54599667 -0.72255772 0.1152386
162.10941 -47.40432 506.64062 -0.31611073 0.58811581 -0.74444193 0.1181314
162.25961 -47.265617 506.64062 -0.29747695 0.5916248 -0.74932474 0.11730338
162.10941 -47.265617 506.7514 -0.31215286 0.58476132 -0.74874216 0.11782801
159.08989 -49.609364 508.20316 -0.79778844 0.34425607 -0.49499634 0.12556499
158.98439 -49.609364 508.32523 -0.8241201 0.32646015 -0.46287137 0.12894148
159.76562 -48.896759 508.20316 -0.71741319 0.41871443 -0.55677342 0.13497138
158.98439 -48.828125 508.93765 -0.81502438 0.3512243 -0.46084359 0.12621517
159.81033 -48.828125 508.20316 -0.71717083 0.42318442 -0.55369753 0.13661985
159.76562 -48.828125 508.26062 -0.7133739 0.41813934 -0.5623675 0.13361219
160.16898 -48.046886 508.20316 -0.6342963 0.48247355 -0.60405916 0.13218871
159.76562 -48.046886 508.8306 -0.71282697 0.43952852 -0.54652762 0.13561139
160.54688 -47.331928 508.20316 -0.56953716 0.51641864 -0.63948357 0.13065623
160.6041 -47.265617 508.20316 -0.55296957 0.51677269 -0.65358299 0.12623823
160.54688 -47.265617 508.25787 -0.57171947 0.51317954 -0.64014339 0.13076684
158.98439 -46.484383 510.50861 -0.77301389 0.41900977 -0.47631952 0.11526532
159.87894 -46.484383 509.76562 -0.6645835 0.47967172 -0.57292563 0.12491337
159.76562 -46.484383 509.91083 -0.70409614 0.46566844 -0.53609842 0.12712495
160.29927 -45.703114 509.76562 -0.62159443 0.5113551 -0.59341085 0.12809221
160.54688 -45.335411 509.76562 -0.55440098 0.54942989 -0.62511313 0.12776236
160.80919 -44.921875 509.76562 -0.50742245 0.56127113 -0.65383261 0.12275144
160.54688 -44.921875 510.14804 -0.58211619 0.54840624 -0.600326 0.13158821
161.32811 -44.426025 509.76562 -0.44688335 0.58993042 -0.67251569 0.12098577
161.8 -44.140636 509.76562 -0.39648256 0.60031623 -0.69456613 0.11997832
161.32811 -44.140636 510.10989 -0.45058447 0.58477908 -0.67454207 0.12626491
162.10941 -43.8298 509.76562 -0.37445679 0.62106258 -0.68852258 0.12513204
158.33536 -49.609364 508.98438 -0.87515694 0.27270758 -0.39966342 0.11092891
158.20316 -49.609364 509.07452 -0.89575124 0.25813165 -0.36193618 0.11075006
158.75122 -48.828125 508.98438 -0.82095647 0.34393314 -0.45578554 0.12027472
158.20316 -48.828125 509.0961 -0.85677409 0.3108913 -0.41144231 0.10226928
158.98439 -48.768253 508.98438 -0.80588824 0.3449401 -0.48120734 0.12263951
158.20316 -48.046886 509.53348 -0.8582375 0.33061436 -0.39258435 0.10261398
159.61322 -48.046886 508.98438 -0.72284079 0.42345244 -0.54606706 0.12979281
158.98439 -48.046886 509.57275 -0.80122626 0.37420887 -0.46690911 0.12314747
159.76562 -47.852516 508.98438 -0.70525926 0.4379175 -0.55752802 0.13329829
160.07117 -47.265617 508.98438 -0.64241457 0.48421711 -0.59400111 0.12999487
159.76562 -47.265617 509.42804 -0.69771159 0.45717683 -0.55153221 0.12954944
159.86411 -49.609364 507.42184 -0.68209732 0.41316533 -0.60335523 0.12681951
159.76562 -49.609364 507.54904 -0.69133526 0.40968639 -0.59515762 0.12654105
160.34755 -48.828125 507.42184 -0.59887499 0.47428867 -0.6452899 0.12479326
160.54688 -48.467426 507.42184 -0.57132232 0.4916392 -0.65717703 0.12633841
160.85097 -48.046886 507.42184 -0.512366 0.51743603 -0.68537658 0.12448241
160.54688 -48.046886 507.7197 -0.57055444 0.50345129 -0.64884859 0.12880883
161.32811 -47.413319 507.42184 -0.43789229 0.55562967 -0.70677155 0.12529151
161.42545 -47.265617 507.42184 -0.42207199 0.5625838 -0.71088296 0.12359569
161.32811 -47.265617 507.54785 -0.4443498 0.55825096 -0.70064908 0.12410338
158.47859 -49.609364 512.10938 -0.99508601 0.038890366 -0.091056474 0.13544874
158.20316 -48.965603 512.10938 -0.9903174 0.089753598 -0.10590391 0.10725917
158.16721 -48.828125 512.10938 -0.98509067 0.10435287 -0.13677299 0.10238207
158.20316 -48.195541 512.10938 -0.9691996 0.16250226 -0.18505423 0.11050733
158.20316 -48.828125 512.16901 -0.98946112 0.096076354 -0.10833327 0.10962447
158.22801 -48.046886 512.10938 -0.96639162 0.17116624 -0.19180581 0.11574279
158.20316 -47.986 512.10938 -0.96593153 0.17195038 -0.193415 0.11230684
158.07584 -47.265617 512.10938 -0.94431025 0.23359834 -0.23175408 0.096102335
158.20316 -47.265617 512.45575 -0.95740139 0.20756993 -0.20074201 0.10497881
158.07953 -46.484383 512.10938 -0.92267358 0.27811393 -0.26706946 0.093841106
158.20316 -46.119423 512.10938 -0.89717841 0.31949672 -0.30494717 0.097867295
158.20316 -46.484383 512.67114 -0.93735439 0.2673749 -0.22333214 0.097241953
158.79419 -45.703114 512.10938 -0.85038507 0.37406585 -0.37002695 0.11853652
158.98439 -45.355858 512.10938 -0.82608414 0.4016383 -0.39531207 0.12017911
159.35048 -44.921875 512.10938 -0.78143609 0.43707621 -0.44533363 0.12647624
158.98439 -44.921875 512.45721 -0.83223867 0.39720514 -0.38679048 0.11679577
159.76562 -44.327229 512.10938 -0.72170585 0.49226779 -0.48663446 0.1356931
159.83948 -44.140636 512.10938 -0.70156533 0.50074196 -0.50701439 0.13625515
159.76562 -44.140636 512.25629 -0.71348417 0.49439043 -0.49650627 0.13646108
158.5255 -49.609364 511.32809 -0.97813952 0.096113086 -0.18440557 0.14132649
158.24124 -48.828125 511.32809 -0.96248758 0.16586861 -0.21472108 0.11891276
158.20316 -48.662453 511.32809 -0.96306348 0.16828966 -0.21020785 0.11497709
158.20316 -48.828125 511.51068 -0.97035831 0.1493343 -0.19001025 0.11463539
158.15422 -48.046886 511.32809 -0.9369716 0.23260295 -0.26072994 0.10533958
158.20316 -47.757656 511.32809 -0.92520523 0.25460267 -0.2813766 0.10452753
158.20316 -48.046886 511.97516 -0.96329546 0.17819618 -0.20076843 0.11395478
158.51965 -47.265617 511.32809 -0.89525735 0.3105939 -0.31944615 0.11831463
158.20316 -46.597122 511.32809 -0.88002568 0.33370143 -0.33793229 0.10035286
158.20316 -47.265617 511.64795 -0.92217314 0.26327574 -0.28334191 0.10329379
158.17467 -46.484383 511.32809 -0.86603051 0.34241849 -0.36433622 0.095554903
158.20316 -46.413837 511.32809 -0.86573291 0.34184697 -0.3655777 0.096274033
158.98439 -46.103954 511.32809 -0.80800539 0.39668167 -0.43562704 0.11999483
159.27145 -45.703114 511.32809 -0.7754038 0.43622097 -0.45657447 0.12597305
158.98439 -45.703114 511.83463 -0.83026814 0.39296201 -0.39526662 0.120489
159.76562 -45.020191 511.32809 -0.69322664 0.49335128 -0.52539641 0.13412926
159.83876 -44.921875 511.32809 -0.69381219 0.49293432 -0.52501476 0.13392313
159.76562 -44.921875 511.51859 -0.70897102 0.48571175 -0.51131612 0.13282844
160.2157 -44.140636 511.32809 -0.6175431 0.5328573 -0.57853574 0.12871265
160.54688 -43.599903 511.32809 -0.58567208 0.55730397 -0.58855802 0.12980047
158.94339 -46.484383 510.54688 -0.78798938 0.41509467 -0.45471886 0.11578541
158.20316 -46.484383 511.20264 -0.86575073 0.34375051 -0.36374596 0.097064205
158.98439 -46.438454 510.54688 -0.78028399 0.41578633 -0.46720296 0.11658461
159.76562 -45.726002 510.54688 -0.70571262 0.47977099 -0.52133423 0.12657413
159.78113 -45.703114 510.54688 -0.68908679 0.48057377 -0.54240966 0.12587701
159.76562 -45.703114 510.56433 -0.70267016 0.48266372 -0.52277184 0.12938389
160.30267 -44.921875 510.54688 -0.6090126 0.53051877 -0.58962148 0.12896737
160.54688 -44.53817 510.54688 -0.576783 0.55428326 -0.6000762 0.12893157
160.88107 -44.140636 510.54688 -0.52950329 0.55966961 -0.63749212 0.12875074
160.54688 -44.140636 510.89389 -0.56912833 0.54973882 -0.61145741 0.12773983
161.32811 -43.598354 510.54688 -0.43830144 0.59735787 -0.6716066 0.12513044
158.01683 -49.609364 509.76562 -0.93635917 0.20360756 -0.28596404 0.10863956
158.05104 -48.828125 509.76562 -0.90319973 0.26219809 -0.33982709 0.10233139
158.12627 -48.046886 509.76562 -0.85581964 0.32550666 -0.40201774 0.099939696
158.20316 -47.886997 509.76562 -0.85516244 0.32783303 -0.40152547 0.1002623
158.98439 -47.845333 509.76562 -0.8033371 0.37380508 -0.46359378 0.12312964
159.47548 -47.265617 509.76562 -0.76179367 0.41286016 -0.4992162 0.12811531
158.98439 -47.265617 510.13071 -0.79714704 0.39346069 -0.45797959 0.12176403
159.76562 -46.738388 509.76562 -0.70968652 0.46430802 -0.52987093 0.12983018
158.11488 -49.609364 510.54688 -0.96715182 0.14164974 -0.21107511 0.11328437
158.20316 -49.609364 510.84326 -0.96959227 0.13592182 -0.20350915 0.11875356
158.10201 -48.828125 510.54688 -0.93434638 0.21093446 -0.28723425 0.10529163
158.20316 -48.828125 511.25043 -0.96304905 0.16779505 -0.21066895 0.11721651
158.09068 -48.046886 510.54688 -0.90579003 0.27341315 -0.3237125 0.10310828
158.20316 -47.500549 510.54688 -0.87270916 0.32020816 -0.36857215 0.10063945
158.54767 -47.265617 510.54688 -0.83727986 0.35057694 -0.41959298 0.11263148
45.703114 -37.890614 505.07242 -0.039396994 -0.49470779 -0.86816591 0.11224389
46.484383 -37.890614 505.0444 0.031771868 -0.48290682 -0.87509519 0.1132033
47.265617 -37.890614 505.06485 0.062712014 -0.47923812 -0.87544155 0.11803945
45.703114 -40.234386 506.47903 -0.11743281 -0.53176582 -0.83871007 0.12782124
46.484383 -40.234386 506.39682 -0.016672479 -0.49686295 -0.86766881 0.12206352
47.265617 -40.234386 506.38538 0.042547416 -0.49193618 -0.86959106 0.13325942
48.046886 -40.234386 506.44363 0.10433882 -0.47020367 -0.87636858 0.1329549
48.828125 -40.234386 506.53677 0.20953993 -0.4411923 -0.87260664 0.12820785
44.921875 -38.983761 505.85938 -0.11518751 -0.51052755 -0.85211122 0.10861051
44.921875 -39.453117 506.16486 -0.13073321 -0.52821988 -0.83898306 0.12431709
45.703114 -39.217293 505.85938 -0.072684482 -0.51277471 -0.85544091 0.12222067
45.703114 -39.453117 505.99289 -0.062312592 -0.50420189 -0.86133486 0.1142484
46.484383 -39.325417 505.85938 0.00087260688 -0.50367469 -0.86389297 0.12323128
46.484383 -39.453117 505.93393 0.0067061209 -0.4975771 -0.86739391 0.11851916
47.265617 -39.267181 505.85938 0.060448259 -0.47807431 -0.87623686 0.11897524
47.265617 -39.453117 505.96945 0.054536112 -0.48410332 -0.87330961 0.11987044
48.046886 -39.173096 505.85938 0.13470049 -0.46846753 -0.87315178 0.12161641
48.046886 -39.453117 506.01865 0.12465485 -0.46481827 -0.87658727 0.12084401
48.828125 -38.954376 505.85938 0.19834481 -0.43616745 -0.87773412 0.11547504
48.828125 -39.453117 506.11288 0.19326608 -0.44354233 -0.87516761 0.12025457
49.609364 -39.453117 506.31171 0.2938374 -0.4123379 -0.86234397 0.11663523
44.624149 -38.671883 505.85938 -0.12436728 -0.51979446 -0.84519017 0.11463522
44.140636 -38.244873 505.85938 -0.13942352 -0.52083927 -0.84219205 0.11332475
44.140636 -38.671883 506.21234 -0.15307865 -0.52421767 -0.83771282 0.11226203
49.139828 -38.671883 505.85938 0.22656021 -0.43646532 -0.87072867 0.12167535
49.609364 -38.671883 506.04449 0.30651775 -0.40477774 -0.86151147 0.1158279
49.427032 -37.890614 505.85938 0.27112722 -0.43166083 -0.8603248 0.12163373
49.609364 -37.890614 505.98557 0.28698981 -0.42191297 -0.86001527 0.11683773
44.921875 -38.671883 505.66113 -0.1091432 -0.51627553 -0.84943938 0.11835069
45.703114 -37.89994 505.07812 -0.044527702 -0.50370049 -0.86273003 0.1187745
45.703114 -38.671883 505.55121 -0.034906957 -0.49067464 -0.87064344 0.10994992
46.484383 -37.953465 505.07812 0.0312916 -0.48352382 -0.87477165 0.115169
46.484383 -38.671883 505.47253 -0.0063354042 -0.50046837 -0.86573166 0.12229062
47.265617 -37.914127 505.07812 0.061811414 -0.48100433 -0.87453651 0.11835166
47.265617 -38.671883 505.50092 0.088945396 -0.4772526 -0.87425321 0.11401131
48.046886 -38.671883 505.57684 0.13357967 -0.45698723 -0.87938565 0.11383908
48.828125 -38.671883 505.72092 0.1973269 -0.43651852 -0.87778902 0.11066444
44.140636 -37.315845 505.07812 -0.12541828 -0.50933278 -0.85138142 0.11503726
44.140636 -37.890614 505.56021 -0.14387567 -0.52154964 -0.84100282 0.11704169
45.640438 -37.890614 505.07812 -0.041985955 -0.49013606 -0.8706342 0.10770755
44.921875 -37.785919 505.07812 -0.070315763 -0.49817619 -0.86421996 0.10803153
44.921875 -37.890614 505.14627 -0.074279569 -0.50393683 -0.86054069 0.11349139
47.399403 -37.890614 505.07812 0.090459511 -0.46743655 -0.87938625 0.11156157
48.046886 -37.782433 505.07812 0.16195123 -0.45603678 -0.87510127 0.11746165
48.046886 -37.890614 505.14197 0.15437672 -0.46341398 -0.87259114 0.11765143
48.828125 -37.419289 505.07812 0.20776391 -0.44085363 -0.87320226 0.11678474
48.828125 -37.890614 505.32889 0.21907426 -0.4450655 -0.8682875 0.11931796
45.703114 -42.578133 507.99973 -0.2553533 -0.53205472 -0.80728704 0.119257
46.484383 -41.86237 507.42184 -0.11417681 -0.51615256 -0.84885228 0.13058421
46.484383 -42.578133 507.88062 -0.14975534 -0.51079655 -0.8465578 0.12809767
47.265617 -41.903824 507.42184 -0.013723666 -0.49529222 -0.86861801 0.13633583
47.265617 -42.578133 507.8125 -0.047274046 -0.5055123 -0.86152327 0.13796678
48.046886 -41.918278 507.42184 0.083015107 -0.46881485 -0.87938684 0.13367665
48.046886 -42.578133 507.80212 0.070331551 -0.47702548 -0.87607086 0.13702022
48.828125 -41.835098 507.42184 0.20719184 -0.44213656 -0.87268949 0.13297467
48.828125 -42.578133 507.84576 0.18140276 -0.4446407 -0.87714744 0.13921385
49.609364 -42.578133 507.93414 0.2882916 -0.40897599 -0.86580986 0.12875672
44.921875 -41.220604 507.42184 -0.24390921 -0.53737241 -0.80730373 0.12290455
44.921875 -41.796864 507.87198 -0.29603365 -0.54870772 -0.78184646 0.12643354
45.981705 -41.796864 507.42184 -0.19832288 -0.52839488 -0.82551008 0.12606844
45.703114 -41.76104 507.42184 -0.20228422 -0.52853799 -0.82445657 0.12231241
45.703114 -41.796864 507.44522 -0.19350852 -0.51907331 -0.83253658 0.11654215
48.997612 -41.796864 507.42184 0.23312432 -0.43000218 -0.8722105 0.13101974
49.609364 -41.636974 507.42184 0.29157931 -0.4048833 -0.86663198 0.12232055
49.609364 -41.796864 507.49887 0.28819782 -0.40892488 -0.86586511 0.12635876
44.803799 -41.015625 507.42184 -0.24566914 -0.53934789 -0.80545056 0.12375779
50.209343 -41.015625 507.42184 0.36750066 -0.38342696 -0.84730577 0.12026101
46.484383 -41.796864 507.38025 -0.12139287 -0.52213711 -0.84417814 0.13380593
47.265617 -41.796864 507.3595 -0.0058250511 -0.50290173 -0.86432403 0.14026813
48.046886 -41.796864 507.35187 0.085109763 -0.46727794 -0.88000435 0.12949941
48.828125 -41.796864 507.40015 0.21077915 -0.43907425 -0.87337625 0.13048042
44.921875 -41.015625 507.26498 -0.22874255 -0.53292543 -0.81465775 0.11899427
45.703114 -40.503681 506.64062 -0.12082454 -0.5216158 -0.84458178 0.12722184
45.703114 -41.015625 506.94592 -0.15413713 -0.53851759 -0.82839638 0.13053195
46.484383 -40.623249 506.64062 -0.060269054 -0.50638974 -0.86019593 0.12677479
46.484383 -41.015625 506.88815 -0.068808295 -0.501854 -0.86221111 0.12853672
47.265617 -40.658325 506.64062 0.027385348 -0.47376618 -0.8802247 0.12390944
47.265617 -41.015625 506.86646 0.0008650471 -0.48294955 -0.87564772 0.12657826
48.046886 -40.578812 506.64062 0.091953024 -0.46497184 -0.88053721 0.12860611
48.046886 -41.015625 506.89685 0.10440704 -0.46384439 -0.87974286 0.12717986
48.828125 -40.425957 506.64062 0.21482879 -0.43855345 -0.87265074 0.13072649
48.828125 -41.015625 506.96664 0.21456403 -0.44789267 -0.86795992 0.13316007
49.609364 -41.015625 507.1283 0.336456 -0.40382481 -0.85071909 0.12773627
44.216187 -40.234386 507.42184 -0.26495016 -0.54389834 -0.79622614 0.12135433
44.140636 -40.139885 507.42184 -0.25280356 -0.53568751 -0.80568546 0.11532501
44.140636 -40.234386 507.52133 -0.25975269 -0.53790772 -0.80198741 0.11754663
45.053246 -40.234386 506.64062 -0.17307785 -0.54026371 -0.82350427 0.12384959
44.921875 -40.183575 506.64062 -0.18631852 -0.54349285 -0.81847471 0.1269455
44.921875 -40.234386 506.67471 -0.18499415 -0.54651749 -0.81675935 0.12757362
49.254833 -40.234386 506.64062 0.26152897 -0.43373162 -0.86225253 0.13141407
49.609364 -40.072472 506.64062 0.29401764 -0.41282183 -0.86205089 0.12204219
49.609364 -40.234386 506.72769 0.29896027 -0.4173544 -0.85815972 0.1246191
44.336586 -39.453117 506.64062 -0.20432881 -0.53152806 -0.82202661 0.11537885
44.140636 -39.230556 506.64062 -0.20149222 -0.53198451 -0.82243133 0.11290608
44.140636 -39.453117 506.81262 -0.21070196 -0.53360468 -0.81906688 0.11625162
49.875229 -39.453117 506.64062 0.33477142 -0.39832515 -0.85397017 0.11982877
50.026535 -38.671883 506.64062 0.32127416 -0.41022563 -0.85352093 0.11984561
49.968601 -37.890614 506.64062 0.29735088 -0.42697364 -0.85397661 0.12262575
45.242668 -43.359367 508.98438 -0.35566846 -0.54320645 -0.7605437 0.12753651
44.921875 -43.033062 508.98438 -0.36815372 -0.53574729 -0.75989312 0.11793129
44.921875 -43.359367 509.33658 -0.42430478 -0.55074751 -0.71877861 0.12607269
44.741035 -42.578133 508.98438 -0.37905848 -0.54880214 -0.74507105 0.126175
44.402599 -41.796864 508.98438 -0.34918663 -0.55554795 -0.75460923 0.1276778
44.140636 -41.328995 508.98438 -0.33554158 -0.56230932 -0.75579101 0.1310762
44.140636 -41.796864 509.64676 -0.38221467 -0.55619001 -0.73794621 0.12795284
45.703114 -42.859673 508.20316 -0.27036768 -0.53817338 -0.7982924 0.12722801
45.703114 -43.359367 508.56476 -0.29265514 -0.53810179 -0.79044259 0.12874119
46.484383 -43.083698 508.20316 -0.1723876 -0.5332253 -0.82822293 0.13104126
46.484383 -43.359367 508.37643 -0.19043343 -0.53072083 -0.82587558 0.12870085
47.265617 -43.206631 508.20316 -0.094406523 -0.51120281 -0.85425937 0.13312949
47.265617 -43.359367 508.30084 -0.098359689 -0.50562078 -0.85713059 0.1300094
48.046886 -43.240101 508.20316 0.033455059 -0.47495908 -0.87937176 0.13314977
48.046886 -43.359367 508.27734 0.040972024 -0.48739478 -0.87221998 0.13617751
48.828125 -43.21286 508.20316 0.15013473 -0.45930877 -0.87549698 0.13910022
48.828125 -43.359367 508.28427 0.16179939 -0.45357227 -0.87640923 0.13982835
49.609364 -43.080688 508.20316 0.2975899 -0.41124445 -0.86157894 0.13372034
49.609364 -43.359367 508.34805 0.27365232 -0.40685484 -0.8715409 0.12850027
45.405178 -42.578133 508.20316 -0.32370341 -0.53537917 -0.78011864 0.12718251
44.921875 -42.181194 508.20316 -0.3246541 -0.54779136 -0.77105397 0.12675777
44.921875 -42.578133 508.55298 -0.3575663 -0.54685396 -0.7570318 0.12616017
44.738174 -41.796864 508.20316 -0.30735219 -0.54939574 -0.77698064 0.12463609
44.305889 -41.015625 508.20316 -0.29666811 -0.55167186 -0.77951664 0.12496947
44.140636 -40.771633 508.20316 -0.30540407 -0.55465513 -0.77400649 0.12580882
44.140636 -41.015625 508.52359 -0.32828549 -0.55589586 -0.76368082 0.12888671
44.613121 -43.359367 510.54688 -0.44273776 -0.55527949 -0.70402271 0.13579896
44.258656 -42.578133 510.54688 -0.43370551 -0.55742198 -0.70794088 0.13993235
44.140636 -42.332233 510.54688 -0.42680234 -0.55418372 -0.71464682 0.13584544
44.140636 -42.578133 511.24005 -0.45614183 -0.56512731 -0.68743414 0.14366108
44.792027 -43.359367 509.76562 -0.39886823 -0.54715705 -0.73588276 0.12436926
44.470222 -42.578133 509.76562 -0.3851538 -0.54268956 -0.74642116 0.13101035
44.140636 -41.87891 509.76562 -0.38792074 -0.55688047 -0.73443967 0.12978283
44.371487 -43.359367 512.10938 -0.45138255 -0.55341768 -0.69998771 0.14243363
44.140636 -42.781471 512.10938 -0.454927 -0.56227863 -0.69056803 0.14905918
44.490784 -43.359367 511.32809 -0.44223258 -0.55977249 -0.70077467 0.14260595
44.140636 -42.60099 511.32809 -0.44181514 -0.56111318 -0.69996524 0.14181152
50.400734 -40.234386 507.42184 0.39314437 -0.38784307 -0.8336758 0.12491557
50.451817 -39.453117 507.42184 0.39807475 -0.38046235 -0.83473647 0.11817335
50.495892 -38.671883 507.42184 0.38415983 -0.39206022 -0.83588874 0.12093813
50.441116 -37.890614 507.42184 0.34420481 -0.41574195 -0.84183228 0.12628005
50.390633 -37.452995 507.42184 0.32554197 -0.43530676 -0.83936316 0.13159083
50.390633 -42.578133 508.14594 0.38158759 -0.36710343 -0.84830773 0.11843404
50.390633 -41.796864 507.71976 0.37232307 -0.37622496 -0.84842813 0.11858676
50.390633 -40.409267 507.42184 0.38419378 -0.38260236 -0.84024429 0.11965704
50.390633 -41.015625 507.49768 0.38391745 -0.37475345 -0.84390002 0.12054468
50.390633 -40.234386 507.39865 0.39993078 -0.38972384 -0.82956058 0.12901321
50.390633 -39.453117 507.23691 0.38496843 -0.38548455 -0.83857083 0.11803935
50.390633 -38.671883 507.10004 0.36081353 -0.40340355 -0.84087992 0.12336795
50.390633 -37.890614 507.276 0.34031343 -0.41896778 -0.84181517 0.12629032
51.316051 -43.359367 508.98438 0.4510709 -0.32781354 -0.83010441 0.11060775
51.343918 -42.578133 508.98438 0.48381335 -0.3339994 -0.80893081 0.12165572
51.314384 -41.796864 508.98438 0.47212359 -0.34019744 -0.81324351 0.12006228
51.322399 -41.015625 508.98438 0.45268038 -0.35041311 -0.81993359 0.12216298
51.281364 -40.234386 508.98438 0.44932041 -0.35702935 -0.81892693 0.12455043
51.171867 -39.576977 508.98438 0.43388125 -0.37262082 -0.82030529 0.13228709
51.139088 -39.453117 508.98438 0.43275142 -0.37591025 -0.81940079 0.13654532
51.171867 -39.453117 509.03558 0.4409886 -0.3768889 -0.81454515 0.13803686
51.013977 -38.671883 508.98438 0.40014699 -0.40020069 -0.82445234 0.1398697
51.171867 -38.671883 509.34787 0.42590743 -0.39834815 -0.81235564 0.14539117
50.964325 -37.890614 508.98438 0.37451228 -0.42007235 -0.82660741 0.14178121
51.171867 -37.890614 509.59402 0.39352468 -0.42165744 -0.8169108 0.14859241
50.820171 -40.234386 508.20316 0.42247665 -0.37810451 -0.82374167 0.13152978
51.171867 -40.234386 508.69458 0.43625703 -0.36371088 -0.82303959 0.12394706
50.751358 -39.453117 508.20316 0.39767683 -0.39536995 -0.82797086 0.13406274
50.743282 -38.671883 508.20316 0.39290151 -0.40170109 -0.82720286 0.13304625
50.708263 -37.890614 508.20316 0.3836357 -0.40587324 -0.82951218 0.13729432
52.183182 -43.359367 510.54688 0.54147452 -0.300221 -0.78528517 0.12280055
52.155346 -42.578133 510.54688 0.53894895 -0.30493897 -0.78520459 0.12610935
52.048176 -41.796864 510.54688 0.53180677 -0.32089382 -0.78371471 0.13091768
51.953136 -41.299255 510.54688 0.52718443 -0.33843142 -0.77944905 0.14052182
51.872044 -41.015625 510.54688 0.52618736 -0.34191489 -0.778602 0.14153145
51.953136 -41.015625 510.70724 0.52875477 -0.34097353 -0.77727437 0.14097334
50.390633 -42.700737 508.20316 0.38860324 -0.36561605 -0.84576142 0.12008414
50.390633 -43.359367 508.49365 0.37755328 -0.37083846 -0.84848821 0.11989515
51.171867 -43.359367 508.76892 0.44976297 -0.33566821 -0.82767159 0.11875654
50.466537 -42.578133 508.20316 0.39267376 -0.36700082 -0.84327799 0.12107571
51.171867 -42.578133 508.63748 0.45819426 -0.34251505 -0.82020825 0.12052438
50.780743 -41.796864 508.20316 0.40161857 -0.3582907 -0.84281093 0.11632783
51.171867 -41.796864 508.59851 0.44914249 -0.34858063 -0.8226558 0.11913559
50.909908 -41.015625 508.20316 0.43899342 -0.35667285 -0.8246631 0.1224213
51.171867 -41.015625 508.54431 0.4474102 -0.34941453 -0.82324576 0.12066051
51.814823 -40.234386 510.54688 0.49258399 -0.34234253 -0.80010164 0.14565305
51.953136 -40.234386 511.00922 0.49240983 -0.35185415 -0.79607236 0.15054506
51.735878 -39.453117 510.54688 0.47477746 -0.36791801 -0.79951406 0.14600427
51.953136 -39.453117 511.18494 0.50759518 -0.36272073 -0.7815246 0.15933938
51.537247 -38.671883 510.54688 0.4410392 -0.40634322 -0.80023092 0.15817933
51.402657 -37.890614 510.54688 0.42982376 -0.43144533 -0.79316235 0.15658504
52.017807 -40.234386 511.32809 0.51523542 -0.35415399 -0.78045338 0.15272169
51.989346 -39.453117 511.32809 0.50042433 -0.36118662 -0.78684157 0.15905182
51.953136 -39.232971 511.32809 0.49298573 -0.3640863 -0.7901938 0.15784264
51.841648 -38.671883 511.32809 0.47203529 -0.40291634 -0.78411812 0.16537169
51.953136 -38.671883 511.62683 0.47467452 -0.39150569 -0.78829402 0.16776034
51.626118 -37.890614 511.32809 0.43293253 -0.44853774 -0.78190994 0.16648217
52.779137 -43.359367 512.10938 0.58206302 -0.27083278 -0.76671523 0.12796471
52.734375 -43.024658 512.10938 0.5889014 -0.27984732 -0.75820875 0.13337491
52.659542 -42.578133 512.10938 0.57034796 -0.28771165 -0.76936674 0.13688569
52.734375 -42.578133 512.30524 0.57071364 -0.28467432 -0.77022493 0.13706097
52.564739 -41.796864 512.10938 0.5691067 -0.30287218 -0.7644515 0.13987868
52.734375 -41.796864 512.63153 0.59733605 -0.28898218 -0.74811697 0.14972608
52.404671 -41.015625 512.10938 0.56362629 -0.32889384 -0.75772965 0.15168884
52.225677 -40.234386 512.10938 0.54312569 -0.35735795 -0.75980908 0.15441422
52.156361 -39.453117 512.10938 0.52577198 -0.37326878 -0.76435226 0.16416556
52.096516 -38.671883 512.10938 0.49193159 -0.38803813 -0.77937776 0.16747099
51.953136 -38.079174 512.10938 0.47285026 -0.42941591 -0.76942474 0.17569555
51.901966 -37.890614 512.10938 0.47197133 -0.42499939 -0.77241093 0.1725705
51.953136 -37.890614 512.23871 0.47423047 -0.42706642 -0.76988304 0.17460813
52.461834 -43.359367 511.32809 0.57106423 -0.29103947 -0.76758164 0.12987603
52.734375 -43.359367 511.96652 0.5672552 -0.27565345 -0.77603918 0.12534364
52.395313 -42.578133 511.32809 0.56996804 -0.29538509 -0.76673597 0.13662276
52.309124 -41.796864 511.32809 0.57929754 -0.30802304 -0.75467622 0.13834727
52.144112 -41.015625 511.32809 0.54310352 -0.3300575 -0.77207553 0.14225757
51.557602 -40.234386 509.76562 0.46799812 -0.35857198 -0.80771518 0.13995907
51.435799 -39.453117 509.76562 0.4520489 -0.3787736 -0.80757809 0.14003931
51.286667 -38.671883 509.76562 0.4202835 -0.41074717 -0.80910355 0.14636706
51.213055 -37.890614 509.76562 0.37696916 -0.42357612 -0.82369745 0.14513433
51.171867 -37.421227 509.76562 0.38292825 -0.43092519 -0.81711042 0.14981073
51.890163 -43.359367 509.76562 0.5113762 -0.3077248 -0.80237138 0.11720318
51.953136 -43.359367 509.83917 0.50373483 -0.30676073 -0.8075574 0.11234419
51.849693 -42.578133 509.76562 0.51146019 -0.32338634 -0.79613423 0.12307963
51.953136 -42.578133 509.90903 0.52512437 -0.32378113 -0.78702617 0.12350082
51.658184 -41.796864 509.76562 0.4974941 -0.33233973 -0.80128014 0.12839182
51.953136 -41.796864 510.26385 0.52278668 -0.328592 -0.78658849 0.13264006
51.568508 -41.015625 509.76562 0.47165278 -0.34450084 -0.81170362 0.13052465
43.972225 -37.890614 505.85938 -0.14268778 -0.52229708 -0.84074128 0.11453049
43.920666 -39.453117 507.42184 -0.23847708 -0.54330033 -0.80495548 0.12082096
43.649048 -38.671883 507.42184 -0.20295064 -0.54736143 -0.81191534 0.12195361
43.359367 -37.991314 507.42184 -0.17918897 -0.55258751 -0.81396455 0.12271531
43.329002 -37.890614 507.42184 -0.18443152 -0.55907929 -0.80834115 0.12880865
43.809681 -40.234386 508.98438 -0.30333811 -0.57001138 -0.76359218 0.13703518
43.491722 -39.453117 508.98438 -0.29124755 -0.56779581 -0.76992393 0.14077128
43.359367 -39.095074 508.98438 -0.24459964 -0.55964416 -0.79181397 0.1310081
43.256371 -38.671883 508.98438 -0.23591213 -0.57470232 -0.78362149 0.13753399
43.051956 -37.890614 508.98438 -0.20059559 -0.58838469 -0.78330386 0.13702336
43.403564 -40.234386 512.10938 -0.32994258 -0.60034341 -0.72850919 0.16969301
43.359367 -40.079086 512.10938 -0.32425222 -0.61123753 -0.72197586 0.17088747
