# .PCD v0.7 - Point Cloud Data file format
VERSION 0.7
FIELDS x y z normal_x normal_y normal_z curvature
SIZE 4 4 4 4 4 4 4
TYPE F F F F F F F
COUNT 1 1 1 1 1 1 1
WIDTH 622
HEIGHT 1
VIEWPOINT 0 0 0 1 0 0 0
POINTS 622
DATA ascii
37.283264 -71.403839 525.34473 -0.78203189 0.43335617 -0.44791561 0.1199395
38.865986 -70.71035 524.88 -0.67963457 0.54155922 -0.49478322 0.10339311
40.625008 -70.258812 524.60938 -0.54379988 0.61747521 -0.56833619 0.10050362
51.953136 -71.48439 524.47223 0.87195504 -0.38128018 -0.30711553 0.24814445
52.736649 -70.744164 525.07019 0.7460081 -0.52898335 -0.40453514 0.24043632
39.332211 -69.921883 525.69385 -0.63392109 0.5888167 -0.50143683 0.093141727
41.282082 -69.568085 525.13983 -0.52102989 0.62783712 -0.57822871 0.088256009
43.106354 -68.763123 525.02679 -0.43513548 0.60995483 -0.66227806 0.09878543
44.140636 -68.26149 524.4928 -0.41021696 0.57676655 -0.70644355 0.0978733
53.81884 -69.921883 525 0.65795267 -0.67096132 -0.34191978 0.2228511
55.20192 -69.268364 525.10931 0.57871902 -0.75578451 -0.30638888 0.18419623
57.031242 -68.842094 525 0.53114611 -0.79427242 -0.29498321 0.13086221
59.061062 -68.397827 525.06305 0.47846612 -0.81530774 -0.32610363 0.10072188
60.756042 -68.180824 524.92188 0.43241671 -0.81898439 -0.37720075 0.088558242
45.091183 -67.076721 525.00592 -0.46006355 0.49593523 -0.73647112 0.11813798
46.456528 -66.276039 524.40741 -0.47113279 0.30966508 -0.82591856 0.15440661
62.962326 -67.614838 524.9184 0.42788798 -0.81095296 -0.3990829 0.10155085
65.024895 -66.632828 524.85217 0.49155337 -0.72404921 -0.48386773 0.12151898
66.319313 -66.09446 525.09216 0.52563655 -0.68517929 -0.5042178 0.12829866
45.703114 -65.725449 525.39062 -0.56824845 0.39289138 -0.72300076 0.15448152
46.588299 -64.836823 524.90985 -0.64045918 0.2166945 -0.73678726 0.14636669
67.106071 -65.061554 524.68066 0.56642526 -0.51179856 -0.64592928 0.13215941
68.63356 -64.711937 525.44281 0.59614879 -0.53742397 -0.59647471 0.13966145
47.11359 -63.01112 524.95068 -0.79078972 0.11274988 -0.60161376 0.11977213
67.07502 -62.507603 524.47784 0.58395588 -0.073010229 -0.80849558 0.13684352
69.088783 -62.946434 525.14569 0.60764003 -0.15803987 -0.77832961 0.14245142
70.703117 -62.5 525.88129 0.64679736 -0.13937457 -0.74981868 0.14857554
47.272503 -60.859455 524.94788 -0.8984974 0.051386476 -0.4359608 0.088483587
63.755737 -60.462971 524.54089 0.65126419 0.18740706 -0.73534596 0.14003457
64.976013 -60.821556 524.88245 0.6274516 0.17607668 -0.75848633 0.150617
66.681648 -61.227791 525.28046 0.60402822 0.15366614 -0.78200799 0.16150227
68.880203 -61.297642 525.60986 0.56981474 0.15525748 -0.80697346 0.14742357
70.703117 -61.328114 525.88525 0.58080781 0.14643027 -0.80076247 0.13736527
47.011707 -58.984379 525 -0.95040202 -0.02031436 -0.3103599 0.068756334
61.873764 -58.203133 524.60938 0.71029758 0.39642924 -0.58165395 0.075032741
62.939907 -59.052986 525.05554 0.70219606 0.35068911 -0.61962718 0.11694948
64.453125 -59.765636 525.85938 0.70411199 0.37470293 -0.60317826 0.17504327
46.575809 -56.886372 525 -0.98116857 -0.079909496 -0.1758485 0.043788727
61.188091 -56.882153 524.85413 0.70715714 0.50199151 -0.49792907 0.053147893
62.109383 -57.607445 525.59338 0.7067492 0.49305445 -0.50734884 0.068337865
46.2057 -55.078125 525 -0.98954415 -0.12163067 -0.077513576 0.024183793
59.764893 -54.446606 524.8714 0.79931694 0.46297851 -0.38307089 0.030531503
60.490658 -55.438911 525.11584 0.75638169 0.50500625 -0.41575879 0.037813414
45.948162 -52.734375 525 -0.98854744 -0.15011059 0.015514084 0.0084034959
46.030685 -53.515614 525 -0.98993587 -0.1411074 -0.010760942 0.012522781
59.0457 -53.076515 524.94556 0.84075373 0.43109325 -0.32755417 0.02035572
45.725048 -51.107792 524.96179 -0.98883939 -0.13839859 0.055158757 0.0053616194
57.844414 -50.390633 525 0.89995372 0.3621752 -0.24271883 0.0095214555
58.284737 -51.496681 524.89679 0.88232088 0.38588214 -0.2694529 0.013259941
45.774292 -48.828125 524.90668 0.99211609 0.086350843 -0.090825126 0.0089000007
57.016857 -48.846779 524.90979 0.9219631 0.31941915 -0.21898732 0.0065338225
162.89064 -48.012615 524.60938 0.0025953033 0.64822501 -0.76144439 0.08355093
45.722973 -46.945633 524.96021 0.9928475 0.06805972 -0.098090395 0.021291444
55.870071 -46.398224 524.60938 0.93584615 0.29457363 -0.19343811 0.016116656
56.207687 -47.005207 525.13019 0.93421197 0.29312226 -0.20329139 0.0060309358
162.55296 -46.757164 524.99927 0.079095669 0.69834703 -0.71137565 0.09958528
45.346722 -44.921875 525 0.99062455 0.037148189 -0.13146523 0.038825095
55.737152 -45.057648 525.1189 0.91930932 0.35966393 -0.15972584 0.045942858
160.65518 -44.140636 524.43921 0.4711526 0.69861895 -0.53846705 0.13904715
162.17839 -45.627743 525.2334 0.17675425 0.72862947 -0.6617077 0.11323634
166.01566 -44.140636 524.15021 -0.25832504 0.81325716 -0.52142221 0.14224696
45.040691 -42.802811 524.90277 0.97230083 -0.046848759 -0.22898956 0.083405666
55.253635 -42.795498 524.79468 0.88900369 0.44702762 -0.099190898 0.086578675
160.72919 -42.578133 524.75525 0.49287519 0.76878512 -0.40748426 0.15453959
165.75542 -43.359367 525.39062 -0.1622052 0.87533903 -0.45548999 0.13265507
166.9008 -42.780132 525.05414 -0.27645487 0.88698375 -0.36990863 0.14311253
44.675949 -41.264107 524.85492 0.94853741 -0.10166083 -0.29990315 0.080025867
46.987801 -40.859482 525.10083 0.22442895 -0.60658157 -0.76268637 0.13101561
55.006126 -41.05061 525.18933 -0.80686581 -0.58868241 -0.049199201 0.11068622
159.9234 -40.234386 524.60938 -0.58872116 -0.80523169 0.070777431 0.16714439
160.44177 -41.307796 525.08838 0.49199334 0.83236468 -0.25516999 0.15862027
167.35428 -41.309639 525.37219 -0.27376366 0.94273674 -0.19052781 0.15309095
168.59019 -40.699154 525.03265 -0.43989798 0.89381385 -0.087100416 0.15496977
43.900162 -39.453117 524.60938 0.97312558 -0.021123385 -0.22930436 0.039082497
44.140636 -39.768784 524.60938 0.97545248 -0.018381234 -0.21944162 0.037182312
46.340626 -39.625515 524.42352 0.25558206 -0.60875314 -0.75106418 0.13020594
54.694736 -39.0625 525.01123 -0.63092804 -0.72002912 -0.28894305 0.12945628
159.6571 -39.226345 524.98572 -0.54242903 -0.83878094 -0.047088776 0.15855232
169.29961 -39.479816 525.12823 -0.52520758 0.8491087 0.056315519 0.15035473
171.1225 -39.020454 524.96881 -0.67288816 0.71704805 0.18183413 0.13859212
54.769726 -37.890614 524.60938 -0.48554584 -0.76813138 -0.41739601 0.13116869
159.12776 -36.935596 525.19208 -0.45693859 -0.83688742 -0.30137447 0.13130574
171.6965 -37.578117 524.56934 0.64741081 -0.69722414 -0.30779496 0.12604488
172.25957 -36.669266 525.22113 0.5279144 -0.76306242 -0.37288332 0.11248562
143.35939 -34.532936 525.57971 -0.3403264 -0.61356175 -0.71254468 0.02104431
144.9572 -34.738621 525.41205 -0.29435882 -0.62941825 -0.71915603 0.022496441
146.87502 -34.892918 525.25427 -0.2304455 -0.64005095 -0.73295957 0.018704986
148.82812 -35.04229 525.11444 -0.1497398 -0.66556561 -0.7311638 0.01459049
151.21834 -35.084438 525.01819 -0.15783642 -0.69460285 -0.70186508 0.022975612
153.11316 -35.068901 525.01562 -0.23806997 -0.71600997 -0.65624112 0.047417287
155.00002 -34.887619 525.05103 -0.33650538 -0.71533883 -0.61241686 0.065855913
157.0947 -34.812717 524.88818 -0.40951598 -0.73239851 -0.54395688 0.087874465
158.52654 -35.504093 524.90857 -0.44559067 -0.77296388 -0.45163664 0.11284832
172.989 -35.106918 524.8468 0.44838637 -0.74953192 -0.48698202 0.087283492
174.84586 -34.650066 525.5365 0.3253009 -0.76424825 -0.55686963 0.055486776
176.95312 -34.099453 525.39062 0.27655455 -0.73642808 -0.61740685 0.023938978
141.60144 -32.992348 525.41516 -0.39882597 -0.54896855 -0.73455518 0.021810491
142.88979 -33.220531 524.82635 -0.35640007 -0.55141336 -0.75426948 0.021799015
145.02318 -33.674156 524.54645 -0.29315364 -0.56988311 -0.7676549 0.02027595
146.87503 -33.984364 524.38501 -0.2311358 -0.5806483 -0.78065598 0.019241437
148.4375 -33.984364 524.13782 -0.17952186 -0.58476114 -0.7910918 0.018271197
173.82816 -33.984364 524.2713 0.39889118 -0.72268587 -0.56445634 0.064997099
174.91086 -33.937698 524.67426 0.33513528 -0.7327081 -0.59230322 0.048799466
176.95312 -33.567184 524.6875 0.28330162 -0.72346514 -0.62955403 0.022155035
178.88747 -33.594826 524.99939 0.26174212 -0.72728777 -0.63446325 0.007066126
180.91518 -33.296349 525.01685 0.28134328 -0.72919524 -0.62379509 0.0054260478
183.2285 -32.826466 524.98438 0.37347981 -0.70646721 -0.60117966 0.013242421
185.08778 -32.523335 525.30975 0.48263881 -0.6689114 -0.56534708 0.019484576
141.2074 -30.905651 525.06702 -0.42608127 -0.45998284 -0.77901894 0.023555951
142.57816 -31.640619 524.16443 -0.36973754 -0.47916326 -0.79605073 0.021202216
185.38237 -31.665005 524.45697 0.49855423 -0.6413511 -0.58319157 0.019200694
186.90599 -30.800247 525.02753 0.58417583 -0.59493959 -0.55207384 0.018327037
141.06882 -28.906256 525.06525 -0.4507013 -0.36578581 -0.81429052 0.022300247
187.84721 -29.146296 524.75812 0.64086223 -0.53942525 -0.54618317 0.016734445
188.29895 -28.710945 525.33197 0.67000473 -0.52146274 -0.52836561 0.015939116
141.62314 -27.421871 524.68579 -0.44234449 -0.28038502 -0.85188949 0.017412324
142.57816 -27.34375 524.12762 -0.40341872 -0.27345321 -0.87319911 0.017434133
188.80919 -26.963882 524.98407 0.71075463 -0.45794696 -0.53395909 0.013113932
189.41496 -25.069078 525.09412 0.7621271 -0.38083696 -0.52357 0.0085542826
189.55872 -23.247879 524.60498 0.79841685 -0.30124959 -0.52132446 0.0069007389
190.15234 -22.656246 525.54626 0.83202595 -0.26320136 -0.48832139 0.0052330196
189.84094 -21.484375 524.60938 0.8320359 -0.22083947 -0.50886756 0.0058331452
37.350086 -80.382904 526.89459 0.62066954 0.77205938 -0.13672458 0.12707809
38.998898 -80.952003 527.02161 0.44311097 0.86434132 -0.23783788 0.11723585
41.035557 -80.819153 526.9884 0.25706699 0.90817028 -0.33036849 0.11598826
43.040764 -80.550613 526.62634 0.071800612 0.9128806 -0.40186259 0.1064198
44.215176 -80.166695 526.23737 -0.022184702 0.91616923 -0.40017709 0.13233663
35.116665 -78.940849 526.93469 0.71807611 0.67909914 -0.15228626 0.1289148
36.328136 -79.804626 526.95312 0.73873955 0.67023283 -0.071076274 0.12935215
41.796864 -79.872009 527.73438 0.19457713 0.9007163 -0.38839403 0.12977484
42.963409 -79.294151 527.73047 0.087362818 0.89637119 -0.43461055 0.15727252
44.966606 -79.135193 526.97052 -0.27151507 0.81555128 -0.51103389 0.14298117
46.733669 -78.491966 526.25909 -0.57270861 0.71602428 -0.39914158 0.18628092
33.770161 -76.815254 526.95312 -0.95457971 -0.26279438 -0.140416 0.13172124
34.255424 -77.734383 526.95312 -0.91920245 -0.38492149 -0.083079897 0.13386543
46.793213 -77.72467 526.94189 -0.58925045 0.68774402 -0.42401892 0.20313115
48.946678 -76.98793 526.91168 -0.7315014 0.61164165 -0.30133069 0.16425671
50.681271 -76.228065 526.63086 -0.81293869 0.54342103 -0.20934263 0.13778672
33.711937 -74.904396 526.75958 -0.96806848 -0.01186137 -0.25040516 0.12963371
51.486748 -75.439987 527.2522 -0.8004632 0.56170338 -0.20915996 0.12204782
52.665501 -74.726357 526.86835 -0.80047661 0.57384771 -0.17302032 0.11752745
33.918217 -73.458206 527.36212 -0.95038342 0.13612263 -0.27971756 0.13171248
34.742989 -72.615005 526.63562 -0.90049255 0.25697929 -0.35082027 0.12717398
53.448357 -72.95919 526.78284 -0.76083928 0.64041078 -0.10486956 0.14470412
35.319561 -71.255653 527.51135 -0.8623535 0.36089635 -0.35510588 0.12706746
36.792446 -70.793648 526.64124 -0.80087656 0.44203892 -0.40397802 0.12214313
53.24564 -70.942436 526.56702 -0.71671373 0.69551277 0.050826423 0.20854035
54.205463 -70.313332 527.47394 -0.62933761 0.77470344 -0.061390068 0.17479914
37.533138 -69.853279 527.38434 -0.76710796 0.5018 -0.39967763 0.12059914
38.967381 -69.27243 526.97174 -0.68430126 0.57585108 -0.44735602 0.10795403
40.788361 -68.602165 526.80627 -0.58405268 0.62080592 -0.52295566 0.08667364
42.44371 -68.221252 526.17188 -0.51845729 0.6367293 -0.57076943 0.07839562
53.842484 -69.921883 526.17188 -0.65004027 0.74405235 0.15438189 0.21864994
55.008713 -69.272446 526.94244 -0.56504589 0.82449043 0.030638032 0.17518519
57.034557 -68.430496 527.11859 -0.50247669 0.86459064 -0.00036900979 0.12538691
58.785225 -68.210144 526.45154 0.48498031 -0.80889958 -0.33237854 0.10653568
60.546875 -68.045586 526.17188 0.45342612 -0.86654961 -0.20855805 0.094385684
41.616074 -67.667549 527.75159 -0.58647847 0.63004053 -0.50901073 0.087890401
43.047905 -67.037155 527.06891 -0.52771395 0.65129352 -0.54528403 0.073840313
44.329697 -66.303467 526.45477 -0.54072863 0.58335328 -0.60606223 0.12113187
58.984375 -67.875107 527.73438 -0.46647593 0.88437849 -0.016582333 0.10284344
60.983089 -67.673927 527.33521 -0.45672312 0.88904506 0.031670172 0.099485375
62.817776 -67.473068 526.87805 -0.35716137 0.79806131 -0.48531842 0.10783131
64.816566 -66.760651 526.91754 0.47889191 -0.76154053 -0.43671337 0.12754351
66.558517 -66.166222 526.89612 0.51523209 -0.78410715 -0.34599403 0.13647848
45.184692 -64.93306 526.94171 -0.66659349 0.53525567 -0.51880097 0.17609091
67.38282 -65.667343 527.14844 0.20161009 0.4136968 -0.88781095 0.14331312
69.011581 -64.897667 526.86304 0.58651614 -0.72421384 -0.36264747 0.14762548
70.275002 -64.329704 527.47394 0.61145312 -0.73057956 -0.30393851 0.15441737
45.686985 -63.29929 527.54315 -0.83633721 0.46613035 -0.28855264 0.18132102
46.453331 -62.627674 526.68848 -0.88289022 0.28781351 -0.37103653 0.14927277
71.218567 -63.235828 526.68176 0.68633091 -0.41965839 -0.5940007 0.15057027
72.608292 -62.568928 527.27228 0.72908133 -0.37914804 -0.56981319 0.15320711
46.642708 -60.97654 527.0575 -0.94463092 0.21867174 -0.24465294 0.11529747
67.09272 -60.489437 526.17963 0.58916795 0.35716361 -0.7247864 0.18082686
69.281883 -60.524696 526.17035 0.54673487 0.30911511 -0.77815729 0.15447731
71.185631 -60.863762 526.18512 0.56007582 0.21345592 -0.80046964 0.13461445
72.866959 -60.8745 527.25861 0.65097457 0.12790759 -0.74824578 0.15009147
46.899227 -58.984383 526.95312 -0.97998822 0.093220308 -0.17587799 0.071259022
63.643211 -58.476898 526.44269 0.74621451 0.46857938 -0.47286072 0.13986583
64.860413 -58.975754 526.9425 0.70724142 0.52125883 -0.47759694 0.17954649
66.7845 -59.394932 527.3028 0.56000853 0.61120456 -0.55930269 0.19463068
69.140625 -59.393421 527.35883 0.46685532 0.58057404 -0.66706812 0.17007025
71.044464 -59.345192 527.37317 0.48911896 0.49128321 -0.72069651 0.15117544
72.757019 -59.70739 527.66089 0.54866308 0.38906851 -0.73999631 0.14696245
46.626518 -56.848583 526.85547 -0.99669486 0.010221384 -0.080590807 0.037294421
61.829895 -56.640625 526.17188 0.67582768 0.59410328 -0.43623206 0.046993542
62.910492 -57.126465 527.04315 0.7146197 0.57946026 -0.39184764 0.08854463
46.322006 -55.203297 527.08691 -0.99932635 -0.036610123 0.0025554404 0.020089386
61.056564 -54.984337 526.80774 0.74081838 0.57760042 -0.34287891 0.032736763
62.084789 -55.894974 527.78351 0.67769212 0.65775216 -0.32877892 0.052018065
46.388054 -53.103039 527.11377 -0.99407136 -0.092633046 0.056931473 0.0078368234
59.462612 -52.866356 526.80273 0.82735956 0.48361027 -0.28565234 0.017653076
60.397854 -53.555836 527.47394 0.78646028 0.54136151 -0.29733476 0.023700997
45.998604 -51.171867 526.17188 0.9894923 0.12374794 -0.074776143 0.0040508979
46.517345 -51.171875 526.99554 0.99010712 0.1036359 -0.094591573 0.0042578592
57.653114 -50.327972 526.75781 0.8932265 0.38350162 -0.23467632 0.009789113
58.374527 -51.372654 526.9826 0.86929518 0.42394873 -0.25415221 0.012364763
46.39238 -49.01062 527.03583 0.99105912 0.089159682 -0.099259026 0.012632384
57.137737 -49.022221 527.06293 0.91079628 0.3520695 -0.21563201 0.0079291761
45.755764 -46.516979 526.8623 0.99201727 0.058068264 -0.11193617 0.012822038
46.110794 -47.265617 527.34375 0.99166656 0.06942603 -0.10852432 0.013825843
56.598495 -46.910461 526.98547 0.93220961 0.30365613 -0.19692196 0.0053004911
45.389503 -44.921875 526.95312 0.99163204 0.036583822 -0.12380468 0.016956668
55.878273 -44.481606 526.38971 0.91860747 0.36368501 -0.15457523 0.044789195
56.149414 -45.052078 527.21356 0.92352873 0.34088239 -0.17576678 0.027509341
162.10941 -44.892891 526.14136 0.1758265 0.77703744 -0.60439879 0.11088026
45.002895 -42.774933 526.95312 0.98894411 0.0089316126 -0.14801967 0.023903118
55.777813 -43.112534 527.0885 0.90475458 0.40829381 -0.12130681 0.062588736
161.34822 -42.933662 526.46271 0.27670941 0.85166991 -0.44507343 0.12971798
44.56358 -41.536449 526.43231 0.984936 -0.0052747256 -0.17283858 0.02860564
47.153687 -41.27924 526.82294 0.22690628 -0.62271821 -0.74882281 0.11166036
55.618698 -41.299671 527.09467 -0.39599124 -0.82242936 -0.40841264 0.089726634
160.9801 -40.918434 527.00586 0.28689983 0.93324941 -0.21618067 0.13470061
163.67188 -40.234386 527.88446 0.093433015 0.97865331 -0.18305176 0.10840289
55.240215 -39.453117 526.17188 -0.66694134 -0.69900763 -0.25802651 0.12258206
159.6078 -39.217529 526.95312 -0.36049345 -0.93163657 -0.045802981 0.13598008
167.37787 -39.127941 526.74316 -0.18619868 0.98113984 0.051909696 0.13609017
169.21942 -38.687115 526.87189 -0.36065942 0.92512435 0.11861604 0.13051932
170.97826 -38.610168 527.03125 -0.89152938 -0.37848642 -0.24884401 0.12533168
172.26559 -38.563255 526.95374 0.42721123 -0.86295146 -0.26982465 0.11904413
142.96324 -36.353474 527.51886 -0.35086113 -0.72153777 -0.59689164 0.025607398
144.88481 -36.727947 527.33557 -0.28445458 -0.7513122 -0.59549606 0.024197849
146.87502 -36.823776 527.23578 -0.20977797 -0.77457619 -0.59667826 0.0200909
148.88393 -36.752876 527.02753 -0.11798293 -0.78731042 -0.60516304 0.013561425
151.17188 -36.706284 526.96265 -0.1124248 -0.80497396 -0.58256125 0.021760842
153.11522 -36.800434 527.33771 -0.17651042 -0.83055931 -0.52821892 0.044973079
154.87958 -36.402603 527.3269 -0.22657901 -0.84132141 -0.49075475 0.062364843
157.03125 -36.386505 527.65765 -0.22919001 -0.89056426 -0.39289594 0.083720237
158.6671 -37.193146 527.05054 -0.30629206 -0.90961307 -0.28069428 0.10952347
168.35938 -37.90435 527.75098 0.21786602 -0.96387088 -0.15325566 0.11446615
173.16374 -37.092258 526.96375 0.37209627 -0.84193987 -0.3907451 0.095415048
174.99097 -36.323708 527.74304 0.25950119 -0.83231103 -0.48981375 0.058139719
176.17188 -36.017239 527.73438 0.2294634 -0.81869602 -0.5263871 0.040440049
141.41428 -35.014858 527.18774 -0.40656519 -0.65877604 -0.63302356 0.027176995
142.71132 -35.254822 526.4588 -0.35879263 -0.65648401 -0.66354847 0.022997884
144.90022 -35.552925 526.16479 -0.2938728 -0.67621619 -0.67555201 0.023232119
146.87503 -35.80764 526.17188 -0.22438946 -0.70615381 -0.67156243 0.021188276
148.04688 -35.958023 526.17188 -0.16114931 -0.72979993 -0.6643967 0.017895943
153.125 -35.926521 526.17188 -0.21223627 -0.77311397 -0.59770435 0.044839155
155.34622 -35.628387 526.29138 -0.28212553 -0.79171425 -0.54184288 0.066412054
157.10876 -35.615242 526.45416 -0.30846813 -0.83045489 -0.46388793 0.087630503
158.20316 -35.850643 526.17188 -0.34228173 -0.84235692 -0.41626677 0.1016558
173.84265 -35.553165 526.16364 0.36119777 -0.80464643 -0.47125387 0.079809748
175.05293 -35.452965 526.67963 0.28235373 -0.80242378 -0.52573049 0.055953357
176.97453 -35.180317 526.75861 0.2534942 -0.7729798 -0.58158654 0.028752767
178.90625 -35.1856 526.92969 0.26854792 -0.75428027 -0.59911877 0.0095166843
180.9151 -35.091724 527.0733 0.30596894 -0.75093424 -0.58521855 0.0074946084
182.9917 -34.825775 527.22711 0.37503272 -0.74796343 -0.54763228 0.01445473
184.853 -34.469139 527.61829 0.47905362 -0.71924764 -0.50318044 0.018480193
139.62088 -32.583611 527.5733 -0.49071515 -0.5691179 -0.65977532 0.030822683
140.59084 -33.437008 526.77441 -0.43890706 -0.59222478 -0.67574435 0.027829405
183.26433 -33.920006 526.23047 0.37809896 -0.72699416 -0.57316732 0.013996565
185.27243 -33.593227 526.77094 0.49807468 -0.69251049 -0.52187252 0.018720783
186.62587 -32.736504 527.06012 0.57189596 -0.65150034 -0.49847996 0.017910246
139.2065 -30.80534 527.16284 -0.52465332 -0.48577949 -0.69911176 0.031073596
140.19016 -31.452238 526.16913 -0.46408287 -0.50464743 -0.72798216 0.0275589
187.63159 -31.279694 526.81586 0.62758434 -0.60100317 -0.49490723 0.016924297
188.44196 -30.209343 527.34241 0.67525589 -0.56715417 -0.47155663 0.015285869
139.60901 -29.296875 526.30725 -0.52028763 -0.39699736 -0.75610441 0.028967999
188.94516 -28.900118 527.01343 0.70428932 -0.52014035 -0.48314652 0.012051313
189.51459 -27.128815 526.70001 0.75093353 -0.45090348 -0.48247799 0.0093171801
190.21445 -26.438267 527.67969 0.79133224 -0.41612151 -0.44792426 0.0059934943
189.85388 -25.390625 526.17188 0.78918707 -0.38122457 -0.48150977 0.0086304285
190.35873 -25.002686 526.99438 0.81224436 -0.35832101 -0.46028808 0.0055390107
190.63428 -23.67021 526.8584 0.84010845 -0.2985076 -0.45289177 0.0036818737
37.85339 -80.092216 528.53644 0.50784051 0.81710422 -0.27283439 0.1197655
38.882874 -80.089325 528.44342 0.42074281 0.85185438 -0.31196085 0.12232669
40.234386 -80.078125 528.01501 0.32490712 0.88263792 -0.3396849 0.12800974
35.09853 -78.577896 529.00647 0.78993982 0.5999496 -0.12671024 0.12673563
36.931488 -79.363083 529.03021 0.62597072 0.74683809 -0.22448508 0.12795052
39.120182 -79.385475 529.1712 0.40363178 0.84620601 -0.34787461 0.13724568
40.900513 -78.981781 528.78674 0.27280095 0.87556058 -0.39871454 0.16144396
43.063416 -78.534737 528.44751 0.039831735 0.86264819 -0.50423372 0.18227082
33.769817 -76.754379 528.98462 -0.97385192 -0.04507979 -0.22266617 0.13567862
34.350037 -77.734383 528.90625 0.87665415 0.47798494 -0.05484423 0.13084519
41.015625 -77.837585 529.46185 0.2661626 0.84925652 -0.45598331 0.20141152
42.873272 -77.725433 529.28833 0.041788723 0.78711522 -0.61538881 0.20054826
46.9132 -76.862946 528.88995 -0.52074218 0.70448071 -0.48221838 0.13897189
48.487804 -76.350304 528.82159 -0.6426791 0.66762662 -0.37581697 0.12881926
33.193405 -75.072136 528.87231 -0.98424369 -0.14238314 -0.10483953 0.13210419
49.592411 -75.47438 529.08105 -0.69055986 0.64259547 -0.33196098 0.11601488
51.143089 -74.929657 528.93439 -0.72945565 0.61780429 -0.29361919 0.093851954
52.481354 -74.433792 528.51562 -0.75071567 0.60858208 -0.25700945 0.088320948
33.613369 -72.95285 528.88153 -0.9679774 0.12594086 -0.21716064 0.13278587
53.318264 -73.258957 529.0437 -0.70238101 0.65927845 -0.26835224 0.084556468
54.022072 -72.265625 529.29688 -0.66534293 0.69547772 -0.27134749 0.086037114
33.981899 -71.481133 529.29053 -0.92797208 0.25720796 -0.26965153 0.1337325
34.837578 -70.791718 528.79974 -0.88203138 0.35115024 -0.31418815 0.13097672
53.925426 -71.48439 528.51562 -0.66749579 0.7200371 -0.18972595 0.12921999
54.229877 -70.775192 529.10809 -0.63279283 0.73496777 -0.2437122 0.11883055
35.472282 -69.864143 529.21106 -0.84331763 0.41962114 -0.335758 0.12615134
37.030251 -69.132492 528.93347 -0.7839067 0.49071908 -0.38037494 0.12226114
38.856075 -68.328423 528.60321 -0.70568419 0.56795955 -0.42359388 0.11056442
55.254402 -69.280098 528.84406 -0.55189908 0.80071503 -0.23294432 0.12875843
56.392754 -68.253387 528.90625 -0.47212669 0.84601426 -0.24770191 0.11538605
39.202442 -67.685532 529.47076 -0.69261748 0.57488704 -0.43564436 0.10660064
40.987484 -67.160881 528.87177 -0.61036658 0.63544887 -0.47292432 0.086635351
42.677441 -66.201988 528.68726 -0.50142205 0.73810965 -0.4514091 0.12376228
57.541637 -67.695297 529.19153 -0.40920955 0.87403655 -0.26193064 0.097932875
59.074944 -67.56517 528.841 -0.43379566 0.88683003 -0.1592285 0.092561848
60.937492 -67.244637 528.90625 -0.44621706 0.88822865 -0.10927127 0.096502528
62.993473 -66.863945 529.00903 -0.42897564 0.89981282 -0.079478882 0.11316428
64.997375 -66.197235 529.06006 -0.43431884 0.89791065 -0.071579523 0.13755316
66.050804 -66.028427 528.55365 -0.44931367 0.89333695 0.008141309 0.14067756
43.28862 -65.388802 528.99255 -0.51740831 0.75514561 -0.40254658 0.15531085
44.236668 -64.685692 528.86475 -0.58180666 0.74678439 -0.32220185 0.18553324
67.159958 -65.48024 529.1181 -0.44742346 0.89295536 -0.049426679 0.15021588
69.201324 -64.763046 528.98663 -0.50908822 0.85938787 0.047766447 0.15165266
70.420975 -64.230148 528.51562 -0.57828444 0.79864532 0.16659164 0.1550151
45.265781 -62.993656 528.95459 -0.78739643 0.59441853 -0.16332002 0.19391339
71.424568 -63.784485 528.98438 -0.46026641 0.88077587 -0.11130446 0.15546171
72.936005 -62.747871 528.90625 0.75857246 -0.44536838 -0.47562036 0.15844895
45.703114 -61.990322 529.29688 -0.88191664 0.4706749 -0.026235122 0.191385
46.36145 -60.671448 528.79395 -0.96496105 0.261776 -0.017988652 0.15338506
73.828133 -61.616253 528.6311 0.79245943 -0.41582814 -0.4462007 0.16380496
74.493408 -60.951527 529.09625 0.80662906 -0.13008355 -0.57656556 0.16315506
46.772305 -58.984379 528.90625 -0.98925352 0.14379667 0.026458848 0.10785239
65.553757 -58.203133 528.31458 0.63949257 0.66873825 -0.37926027 0.18380283
66.894531 -58.294781 528.87122 0.48960075 0.7525388 -0.44042763 0.19227768
69.140625 -58.297749 528.96216 0.35943869 0.75455135 -0.54905015 0.17454091
71.17189 -58.312294 528.84766 0.34695029 0.71438241 -0.60768676 0.15818852
73.041168 -58.747234 528.93402 0.48129645 0.56023014 -0.6741631 0.15627535
74.484901 -59.465137 529.19818 0.63448822 0.37616912 -0.67521954 0.16075368
46.859772 -57.031242 528.90625 -0.99595433 0.085383587 0.02801099 0.049987726
63.513023 -56.425934 528.67493 0.75525069 0.60934168 -0.24145216 0.12296729
64.746223 -57.266285 529.02295 0.72433811 0.63856137 -0.25994927 0.16682094
66.015633 -57.593643 529.53394 0.57622737 0.74405187 -0.33815509 0.19042306
70.703117 -57.983578 529.29688 0.30473664 0.753048 -0.5831418 0.15667622
46.935669 -54.94775 528.90698 -0.99792314 -0.0061843311 0.064118639 0.022807477
61.314381 -54.524456 528.96204 0.74710697 0.60242438 -0.28092015 0.044520728
62.644211 -55.663357 528.96326 0.71131259 0.65594465 -0.25252962 0.090731867
47.12389 -53.23056 529.01617 0.99378574 0.06110302 -0.093039304 0.011117987
59.484413 -53.136475 528.88092 0.8082903 0.5203104 -0.27557921 0.020300159
60.546875 -53.623199 528.51562 0.77518147 0.56008458 -0.29223108 0.025541721
46.907085 -51.171875 528.90625 0.99029326 0.096499838 -0.10003632 0.0049932175
58.355911 -50.95388 528.94098 0.86223733 0.44274122 -0.24602269 0.013182485
46.469917 -48.91185 528.90625 0.99028218 0.088748626 -0.10707449 0.0061314851
57.491138 -48.710873 528.9798 0.90158474 0.37255216 -0.21988611 0.0090455003
45.93903 -46.484383 529.29688 0.99132341 0.062589437 -0.11558753 0.010455923
46.111801 -47.005207 528.77606 0.99123031 0.06640055 -0.11425192 0.0096508479
57.017906 -46.875 528.90625 0.92402387 0.32014841 -0.20900954 0.0060932944
45.526844 -45.254436 529.00684 0.99139535 0.045436643 -0.12276296 0.013899316
56.56707 -45.106503 528.94531 0.93130082 0.30489182 -0.19929813 0.01175044
44.996552 -43.008049 528.64355 0.99113476 0.0038326562 -0.13280548 0.022416919
55.859386 -42.578133 528.12006 0.90816498 0.40019727 -0.12279471 0.062055536
56.318584 -43.046875 529.09406 0.92216098 0.34732273 -0.17025316 0.040055972
162.10941 -42.818058 528.44409 0.12772097 0.92995375 -0.34478033 0.10756063
56.076496 -41.796864 528.51562 0.9067322 0.40701741 -0.11033376 0.067405827
161.48196 -40.610634 528.82721 0.15195166 0.97440028 -0.16569515 0.10805762
162.69942 -40.585758 528.86102 0.12484913 0.97386712 -0.18972488 0.097229071
167.26669 -40.285988 529.2478 -0.096352652 0.9941107 -0.049597967 0.094045177
173.82816 -40.234386 529.6792 0.20439436 -0.93463403 -0.29100221 0.076569267
145.07812 -38.455093 529.46344 -0.2549538 -0.84460759 -0.47078297 0.022381056
146.84413 -38.500954 529.06512 -0.18132892 -0.85949874 -0.47789297 0.020228619
148.82812 -38.509876 528.99701 -0.10091148 -0.87368995 -0.47590214 0.015759645
151.0139 -38.568806 529.22723 -0.069305561 -0.89088637 -0.44890776 0.018166956
152.9948 -38.390488 529.43524 -0.11961374 -0.90956706 -0.39797041 0.038702652
159.41373 -39.002556 528.99615 -0.20447816 -0.97386271 -0.098894872 0.10020731
160.54688 -39.742722 528.90625 0.17027229 0.98446804 -0.042777963 0.10978459
163.67188 -39.767967 528.90625 0.095458791 0.98708791 -0.12862754 0.093716376
164.30569 -38.671883 529.18884 0.063322835 0.9974826 -0.031917535 0.084284112
167.41763 -39.274715 528.69531 -0.12100091 0.99244553 0.020267257 0.10331821
169.92191 -38.386314 528.96936 0.23613374 -0.95330095 -0.18830343 0.10285169
171.10986 -38.806511 528.8299 0.25701654 -0.93992531 -0.22468399 0.10335274
172.86169 -38.957012 529.01367 0.24625054 -0.92116356 -0.30136079 0.089332096
174.60939 -38.40913 529.58777 0.21688396 -0.89898157 -0.38051739 0.060650244
141.73041 -36.392967 528.82825 -0.39564297 -0.7419371 -0.54129106 0.02627027
143.01814 -37.345707 528.94476 -0.34627709 -0.78198916 -0.51825207 0.024905717
144.98033 -37.84309 528.5849 -0.26643318 -0.81070167 -0.52132148 0.022414351
146.87503 -37.890614 528.33179 -0.18911171 -0.83137691 -0.52254111 0.020255256
148.82812 -37.890614 528.29639 -0.10576559 -0.85040158 -0.51539391 0.015411936
151.40643 -37.900364 528.47681 -0.087908886 -0.86920708 -0.48657063 0.022404352
153.125 -37.782654 528.66345 -0.14561158 -0.88578945 -0.44065213 0.043878008
155.06161 -37.498028 528.90485 -0.15793842 -0.90839118 -0.38714448 0.059662759
157.16043 -37.43874 528.98395 -0.16505046 -0.94005769 -0.29841235 0.079879418
158.27003 -37.842049 528.82922 -0.19266428 -0.95313615 -0.23326372 0.090456374
164.88455 -37.544037 529.22833 0.13698213 0.97771859 -0.15906693 0.080201142
167.38028 -37.468716 529.10156 0.099979654 -0.98445857 -0.14437918 0.091473818
169.14322 -37.398209 529.03888 0.20913531 -0.95654732 -0.20317371 0.09806411
170.27846 -37.890614 529.29688 0.21810332 -0.94602764 -0.23971383 0.097816356
173.79521 -37.850758 528.55469 0.25960618 -0.8885603 -0.37823954 0.07844615
175.03391 -37.416107 528.87573 0.2288626 -0.86731142 -0.44203258 0.055305645
176.89732 -36.985203 528.93127 0.20750652 -0.84011501 -0.50114638 0.031976067
178.9084 -36.793766 528.91101 0.25571623 -0.79892689 -0.54435748 0.0129858
180.85883 -36.640903 528.93689 0.32511365 -0.77967471 -0.53517145 0.0091170548
183.05807 -36.408676 529.24396 0.40725178 -0.77281344 -0.48672929 0.014502293
140.59933 -35.1852 528.86353 -0.44365343 -0.69736576 -0.56289661 0.027875995
183.67307 -35.604225 528.4408 0.42356718 -0.75768036 -0.496499 0.016571458
185.28683 -35.172401 529.03259 0.51188433 -0.7292909 -0.45399252 0.017299861
186.32814 -34.395794 529.25507 0.56391013 -0.70328337 -0.43289468 0.017365878
139.23698 -33.189129 528.99805 -0.51948249 -0.62108994 -0.58684343 0.032013722
187.271 -33.100723 528.84918 0.61077118 -0.65833378 -0.4399491 0.016465528
138.63414 -31.70372 528.45795 -0.55086935 -0.54857177 -0.628977 0.033842135
188.75801 -30.877214 529.06891 0.69529128 -0.58066267 -0.42355737 0.012557837
189.5157 -29.201843 528.81537 0.74033505 -0.52086407 -0.42497593 0.0094562136
190.16402 -28.353899 529.48029 0.77974099 -0.48298225 -0.39841196 0.0061820042
190.54124 -26.912432 528.88043 0.80382657 -0.42889675 -0.41220188 0.0047254395
191.07597 -25.084475 528.61957 0.84260494 -0.35082778 -0.40857905 0.002820692
35.38533 -78.280479 530.27344 0.7538957 0.62889785 -0.19007555 0.12593897
37.011723 -78.588242 530.40906 0.61594635 0.74075896 -0.26811597 0.13562205
39.14463 -78.582092 530.14484 0.40274763 0.8366344 -0.37126431 0.15270838
33.738594 -76.397301 530.85938 0.90733486 0.4099507 -0.093187533 0.13277602
34.734364 -77.456589 530.9989 0.81607062 0.55151087 -0.17281343 0.12783988
37.282986 -77.422119 531.45679 0.63027835 0.7141937 -0.30442807 0.16148821
39.09296 -77.286728 531.06604 0.43349758 0.8049708 -0.40509477 0.19077824
40.885418 -76.754341 530.92694 0.20416501 0.78254652 -0.58816451 0.21061003
42.776634 -76.922768 530.9682 -0.05993592 0.71161443 -0.70000899 0.15509681
45.155334 -76.885185 531.00671 -0.30304834 0.73437303 -0.60733676 0.014932925
46.942711 -76.282089 530.82257 -0.42469171 0.71001643 -0.56170607 0.022719946
33.031925 -75.26474 530.85938 0.65416503 0.6963203 -0.29530683 0.13353056
46.95414 -75.411484 531.33142 -0.41819367 0.69693512 -0.58257657 0.050967898
48.697704 -74.827324 530.73621 -0.56381685 0.67826813 -0.47123551 0.066588737
50.633751 -74.52211 530.09894 -0.67195988 0.64161319 -0.36986828 0.061905667
33.103359 -72.937675 530.74158 -0.99133676 0.031524625 -0.12750575 0.13497472
49.594868 -73.818184 531.62372 -0.57878071 0.65075958 -0.49145186 0.038498696
51.153584 -73.169525 531.07837 -0.66271114 0.62552303 -0.41174614 0.053758927
52.984764 -72.826851 530.46155 -0.66634601 0.65120381 -0.36320329 0.064109392
33.554817 -71.038177 530.92712 -0.94865257 0.2302092 -0.21693777 0.13303597
34.093113 -70.703117 530.07812 -0.91696888 0.29394826 -0.26974541 0.1355249
51.747105 -71.056854 531.6319 -0.64799631 0.60917705 -0.45716968 0.074015662
53.174252 -71.04406 531.10876 -0.6266976 0.65018886 -0.42953992 0.071511693
54.26347 -70.824104 530.39716 -0.60342592 0.6988185 -0.38409615 0.084074669
33.944042 -69.87326 531.5788 -0.90728593 0.32887107 -0.26206124 0.12703952
35.105595 -69.195976 530.86304 -0.85569811 0.41147602 -0.31379637 0.1256313
36.74255 -68.346672 530.40344 -0.79220587 0.49290004 -0.35980463 0.12204274
51.953136 -69.921883 531.90485 -0.55233502 0.63406277 -0.5411936 0.12995963
53.232475 -69.677933 531.617 -0.5822463 0.64530259 -0.49454409 0.072723769
55.078285 -68.964035 530.94928 -0.50167549 0.72841352 -0.46662128 0.082729913
37.262341 -67.453041 531.35175 -0.76827723 0.53051949 -0.3581886 0.11385999
39.052567 -66.763542 531.02332 -0.70306426 0.58820558 -0.39964333 0.10474826
40.841354 -66.294106 530.37592 -0.58592224 0.6826548 -0.43666634 0.097775228
55.598965 -67.693169 531.80328 -0.40087315 0.73089784 -0.55234873 0.064412683
56.979618 -67.323166 531.07922 -0.35068685 0.8022548 -0.48312116 0.069067925
59.057732 -66.875694 530.91736 -0.31135982 0.85393476 -0.41695383 0.059459269
60.971733 -66.678169 530.63745 -0.39512357 0.87349075 -0.28441387 0.085879937
62.816982 -66.228455 531.04285 -0.41341993 0.8672635 -0.27737686 0.1117774
64.408211 -66.031471 530.33063 -0.42516726 0.88127911 -0.20634888 0.1363571
41.237282 -65.366814 531.4104 -0.50261527 0.77975535 -0.37330869 0.11732128
42.834923 -64.705551 530.69714 -0.44178766 0.83564407 -0.3263782 0.16808954
44.140636 -64.061729 530.07812 -0.56091177 0.79877001 -0.2175879 0.20059937
63.671886 -65.853775 531.64062 -0.42337641 0.84884542 -0.31656578 0.12622295
65.015022 -65.598267 531.11981 -0.42243925 0.8619138 -0.2804454 0.14455722
66.749947 -65.164742 530.80768 -0.40035707 0.88195229 -0.24874543 0.15432869
68.982315 -64.44278 530.83105 -0.40995178 0.88600713 -0.21663538 0.15671736
43.422932 -63.692261 531.67157 -0.45140406 0.84842891 -0.27641052 0.1814705
44.632832 -62.872231 530.84534 -0.65374672 0.74580044 -0.12805031 0.20399716
69.921883 -63.949078 531.64062 -0.37491202 0.88384885 -0.27973601 0.15739799
71.070625 -63.63892 530.83368 -0.47937512 0.86590159 -0.14287762 0.1564959
72.972885 -62.634304 530.79926 -0.57991827 0.81281388 -0.055031665 0.15573348
45.609146 -61.436256 530.95526 -0.87622797 0.47683704 0.069649041 0.20194878
46.097458 -60.546875 530.85938 0.92434758 -0.31649554 -0.21310134 0.19051778
73.828133 -61.878101 531.25 -0.58358443 0.80624968 -0.096905634 0.15971595
74.91851 -60.981636 530.9903 -0.68538553 0.72793418 -0.018935395 0.1597742
46.673103 -59.199501 530.81866 0.9755584 -0.14231175 -0.16743129 0.15921701
75.320465 -58.843674 530.68658 0.58046538 0.52375501 -0.62349081 0.16461758
47.311089 -56.982281 530.75653 0.98564482 -0.0095331231 -0.16856262 0.093309596
48.030777 -57.421864 531.66669 0.97550994 0.075751692 -0.20649964 0.13282359
63.28125 -56.270287 531.64062 0.88006663 0.46636924 -0.089344442 0.19499514
64.974052 -56.450249 530.73218 0.71981823 0.67009062 -0.181219 0.18131918
66.744743 -57.101566 530.82947 0.47285566 0.81127053 -0.34387144 0.19213794
69.140625 -57.305187 530.76874 0.28775522 0.82064086 -0.4937059 0.17302497
71.093758 -57.105579 530.94855 0.23592439 0.81051844 -0.53609657 0.15154907
72.99128 -57.330883 530.91754 0.28679276 0.77039194 -0.56942624 0.14926393
74.99646 -57.439678 531.43628 0.40523824 0.71355605 -0.5715065 0.15908325
47.432632 -55.078125 530.77539 0.99028885 0.01459466 -0.13825749 0.043558575
58.988819 -54.81321 531.13269 0.95761567 0.23407112 -0.16787755 0.14951986
61.159195 -54.489456 530.87646 0.84268522 0.49431095 -0.21339725 0.10539141
62.644482 -55.571648 530.77484 0.84840459 0.50634843 -0.15433966 0.15503509
47.256145 -53.142735 530.85938 0.9939785 0.036902357 -0.10317494 0.015740475
59.566326 -52.861633 530.69379 0.81732583 0.5117197 -0.26480445 0.035625629
60.523785 -53.341816 531.32196 0.79899037 0.54043835 -0.26370588 0.055660587
47.050442 -51.250008 530.96838 0.99102318 0.082422771 -0.10525911 0.0077994308
59.006962 -51.206345 531.01196 0.83259881 0.48677438 -0.26425335 0.018976493
46.489029 -48.856949 530.94623 0.98933524 0.095996849 -0.1095466 0.0057881558
57.804455 -48.307301 530.33856 0.89618462 0.37777704 -0.232675 0.0099063143
58.302296 -49.067432 530.93652 0.87570751 0.41445705 -0.24771304 0.012537015
45.835461 -46.388203 531.11981 0.99129444 0.077196226 -0.106658 0.0090255095
46.070816 -47.070305 530.85938 0.9908824 0.078310527 -0.10963393 0.0081802318
57.448986 -46.948254 530.7724 0.91204476 0.33405182 -0.23787355 0.0084184781
58.203133 -47.96946 531.64062 0.88961816 0.38534158 -0.24513547 0.011966944
45.451469 -45.361347 530.56641 0.99205452 0.061904248 -0.10952509 0.011988379
57.191582 -44.905327 531.01385 0.92784685 0.28163376 -0.24450493 0.005794324
56.737022 -43 530.27344 0.93532562 0.28070128 -0.21534327 0.016923049
148.82812 -40.102123 531.64062 -0.074810915 -0.93340975 -0.35092673 0.018314639
150.39066 -40.090263 531.64062 -0.032410096 -0.93622464 -0.34990439 0.015076254
161.48265 -40.180882 530.33856 0.10339803 0.99249667 -0.065263435 0.081271715
162.2487 -40.354244 530.8299 0.091967382 0.99185127 -0.088165194 0.074409135
167.65588 -41.138206 530.7135 -0.052239977 0.99721676 -0.053195495 0.075691313
168.40083 -40.614521 531.02942 -0.055456512 0.9983831 0.012477979 0.073082283
171.43866 -40.309956 531.59467 0.069155455 -0.98078573 -0.18241979 0.066301815
173.18362 -40.584042 531.02142 0.12438439 -0.96077752 -0.24786097 0.065986343
175.04398 -40.708061 531.12653 0.15238383 -0.93404955 -0.32300255 0.046828941
176.17188 -40.149078 531.74316 0.1361689 -0.92294163 -0.36005116 0.03223424
143.51782 -38.290836 531.05469 -0.3231959 -0.85242921 -0.41098517 0.02383847
144.91399 -38.951916 530.91986 -0.25413582 -0.87806803 -0.40547681 0.022523697
146.79996 -39.525898 530.77832 -0.16418926 -0.90486354 -0.39276442 0.021425573
148.82812 -39.541874 530.37488 -0.084522486 -0.91283739 -0.39947933 0.018075259
151.2429 -39.529289 530.67401 -0.044788539 -0.92890406 -0.36760211 0.018484389
153.18169 -39.203304 530.8623 -0.079008818 -0.94142818 -0.32782727 0.033625171
155.09854 -38.66153 530.84735 -0.084297314 -0.95582575 -0.28158653 0.048303764
157.04791 -38.480099 531.11389 -0.070005819 -0.97551352 -0.20850071 0.061926082
158.95686 -38.71806 530.85736 -0.10459059 -0.98570645 -0.13207442 0.069729872
160.57381 -39.703861 530.95703 0.092512183 0.99570036 -0.0047359769 0.075098313
163.38802 -39.427189 530.99872 0.086116634 0.99495208 -0.05152081 0.065566696
164.14253 -38.932293 530.59894 0.077579118 0.99614632 -0.040912863 0.066989928
167.84644 -38.867191 530.66406 -0.0640487 0.99597013 0.062780328 0.073900945
169.18886 -38.971218 531.04913 0.10094198 -0.97912759 -0.17640796 0.073609211
170.99399 -39.506115 530.72815 0.12266981 -0.97373158 -0.19183084 0.079259604
172.26562 -39.78334 530.46875 0.14864306 -0.96006107 -0.23703983 0.077795431
175.07565 -39.12487 530.37451 0.18599309 -0.91018492 -0.37009436 0.049484674
177.00877 -38.98941 530.99371 0.1679043 -0.89213651 -0.41940513 0.029058402
178.74672 -38.842575 531.23389 0.21534622 -0.87384057 -0.43592274 0.021219365
180.67325 -38.559204 531.40466 0.33358318 -0.84254855 -0.42288804 0.014844492
182.42189 -38.187057 531.64062 0.4159928 -0.81899899 -0.39520943 0.015435478
141.4057 -36.640736 531.02643 -0.42857477 -0.79049695 -0.4375366 0.026168559
142.6591 -37.680744 530.74774 -0.36532116 -0.82262808 -0.43568739 0.024619985
164.8259 -37.394932 530.80469 0.061102122 0.997935 0.019807905 0.061570197
166.01566 -36.814243 531.25 -0.0066276644 -0.99702674 -0.076770961 0.058776163
169.29085 -37.093655 530.89703 0.099774092 -0.97439229 -0.20150651 0.075465031
170.06461 -37.890614 530.07812 0.16706373 -0.96348602 -0.2092474 0.087969311
177.73441 -37.905754 530.06323 0.18044887 -0.85722756 -0.48228532 0.024106354
178.73442 -37.856312 530.11633 0.22927898 -0.8403284 -0.491202 0.017286286
181.09308 -37.77372 530.43427 0.34797776 -0.80915505 -0.47347605 0.011752473
183.28116 -37.372704 530.83521 0.44170055 -0.79334646 -0.4189297 0.014861026
184.9641 -36.46804 531.05389 0.51282018 -0.7670266 -0.38559774 0.015868112
139.56667 -34.618946 531.00958 -0.52541441 -0.71167266 -0.46632797 0.028610934
140.29526 -35.46949 530.96124 -0.48428032 -0.74695969 -0.45554778 0.027166722
169.14061 -35.846233 530.46875 0.1280034 -0.95645452 -0.26231644 0.079527274
185.64487 -35.65295 530.46875 0.53815347 -0.74147058 -0.40076452 0.016224373
186.56052 -34.950706 531.12195 0.58393121 -0.72039753 -0.37423477 0.015049134
138.74142 -33.421364 530.66425 -0.56996411 -0.65631229 -0.49436343 0.030777048
187.57314 -33.572968 530.63489 0.63343441 -0.67271751 -0.38237688 0.013899772
188.5148 -32.505314 531.16376 0.68353343 -0.63229668 -0.36466822 0.011230515
189.30124 -30.957235 530.75201 0.72838908 -0.57658899 -0.37012777 0.009438551
190.10446 -30.078114 531.64062 0.77681482 -0.53486329 -0.33238536 0.006247649
189.94203 -29.296875 530.07812 0.75976712 -0.52148986 -0.38833272 0.0080026183
190.51143 -28.917961 531.09686 0.79528999 -0.49679872 -0.347426 0.0053940364
191.06955 -27.257557 530.5575 0.8274104 -0.43329841 -0.35727397 0.0036386899
33.974789 -76.179779 532.43854 0.88589209 0.43687299 -0.15600368 0.13148679
35.13596 -76.536888 532.91302 0.79874742 0.55356014 -0.23574078 0.13451581
36.832745 -76.432121 532.77716 0.71101695 0.63471717 -0.3026368 0.16358522
38.833939 -76.160713 532.31958 0.44993109 0.77150333 -0.44982731 0.21006203
41.499744 -76.147743 532.38336 0.064705789 0.70722651 -0.70401978 0.19334811
42.578133 -76.171875 532.79175 -0.15274897 0.73270345 -0.66318434 0.1319661
45.030685 -76.15554 532.71063 -0.30263886 0.73241419 -0.60990089 0.007283207
33.323971 -75.166191 533.22443 0.92101926 0.36510107 -0.13573788 0.13031109
35.15625 -75.567291 533.98438 0.84303296 0.4838666 -0.23487991 0.1448825
37.205742 -75.45491 533.85107 0.73405522 0.60262227 -0.31306443 0.18284918
38.94466 -75.499329 533.55457 0.40100414 0.75804698 -0.51435429 0.21082829
41.230175 -75.625435 533.42059 0.054922882 0.69769889 -0.71428263 0.18565497
42.583401 -75.462883 533.77759 -0.17312522 0.6758036 -0.7164616 0.13013433
44.887058 -75.599464 533.68744 -0.30536425 0.728266 -0.61349922 0.0089968778
46.802891 -74.928688 532.75403 -0.38975018 0.68827671 -0.61185783 0.012629383
32.698963 -73.046875 533.20312 -0.99739087 0.0073321308 -0.071816266 0.13137652
46.922539 -73.736786 533.37329 -0.37172225 0.62420171 -0.68716425 0.07395678
48.761589 -73.000175 532.94543 -0.49883842 0.61476994 -0.6109159 0.039177936
50.23584 -72.265625 532.31726 -0.5967679 0.60079736 -0.53189337 0.034890845
32.999352 -70.9534 532.96185 -0.97510546 0.16232117 -0.15106657 0.12875591
49.503979 -71.245552 533.58893 -0.41339445 0.52868104 -0.74135101 0.11323025
50.670391 -71.17572 532.47693 -0.55101591 0.5831098 -0.59696281 0.087503813
33.516308 -69.180344 533.36462 -0.9263804 0.31074762 -0.21273279 0.12196656
34.550076 -68.544273 532.61975 -0.87657863 0.401324 -0.26561043 0.12348258
49.683807 -69.921883 533.98438 -0.17739983 0.47727531 -0.86066115 0.15335777
51.023407 -69.154205 533.05676 -0.17078038 0.58541745 -0.79254043 0.15621199
52.969025 -68.570457 532.33142 -0.50378394 0.62757868 -0.59358799 0.070888259
35.24564 -67.453522 533.3562 -0.8387962 0.46361926 -0.28544378 0.11931107
36.957798 -66.511345 533.05304 -0.77418828 0.54794252 -0.31684607 0.11152412
38.722588 -66.038094 532.45605 -0.71242982 0.59925866 -0.3651478 0.10236562
51.485504 -66.878769 533.53888 0.12337197 0.59472656 -0.79440528 0.14363469
53.109692 -66.798721 532.78247 -0.17331085 0.65356165 -0.73676354 0.11298029
54.93922 -66.775887 532.49786 -0.36236861 0.68697023 -0.62988955 0.055946454
57.031242 -66.135216 532.48566 -0.25599769 0.75219518 -0.60718012 0.03839609
58.984379 -66.04718 532.44556 -0.21815868 0.79723823 -0.56286591 0.037644219
60.831993 -66.029106 532.39752 -0.25691903 0.82583767 -0.50198084 0.058601253
37.630199 -65.738564 533.72394 -0.74516243 0.59019345 -0.31049111 0.1061886
39.130615 -65.134148 533.48572 -0.66479146 0.67091829 -0.32851329 0.099822067
40.785515 -64.621132 532.82886 -0.50684309 0.7909106 -0.34288558 0.11053308
51.948788 -65.228691 533.98071 0.18343256 0.6504485 -0.737068 0.13601504
53.112484 -65.14695 533.64996 0.061302092 0.64886612 -0.75842917 0.12628457
55.117496 -65.042313 533.31226 -0.20660792 0.68572748 -0.69791901 0.062619001
56.977863 -64.995407 533.30975 -0.2105177 0.73961437 -0.63925958 0.040302604
59.099022 -64.918671 533.39722 -0.20714042 0.75764287 -0.61892658 0.050316367
60.916458 -65.013962 533.48071 -0.27987269 0.76936364 -0.57423937 0.090464436
62.973129 -65.272835 533.24719 -0.37207043 0.79094213 -0.48577172 0.1227996
64.932785 -64.99971 533.06226 -0.39827025 0.81184566 -0.42695132 0.14547227
66.774857 -64.451439 533.03503 -0.3644228 0.83991665 -0.40216419 0.15427113
68.359375 -64.174744 532.42188 -0.34033707 0.86205781 -0.37553576 0.15661928
41.39452 -63.645275 533.75208 -0.44637564 0.83871418 -0.31194106 0.11497848
42.957932 -63.279873 533.19666 -0.39349487 0.86536956 -0.31031814 0.15524314
44.273403 -62.504784 533.02173 -0.46861288 0.85229445 -0.2323709 0.19650023
53.575531 -63.745335 533.98438 0.11609808 0.69068593 -0.71377462 0.11875667
55.092422 -63.245579 533.93115 -0.044816218 0.70228308 -0.71048576 0.097474955
56.768147 -63.756817 533.98438 -0.18976447 0.71515197 -0.67271614 0.059841529
58.342125 -63.70887 533.97998 -0.23124827 0.71425003 -0.66058391 0.072664462
67.57814 -63.847424 533.98438 -0.32185948 0.8497867 -0.41745546 0.15378153
69.198227 -63.64135 533.25763 -0.32440957 0.86813259 -0.3756384 0.15391226
71.086403 -62.956367 533.34906 -0.3395302 0.8753112 -0.34431013 0.15177496
72.752121 -62.394993 533.09808 -0.46209148 0.84800291 -0.25954306 0.1457749
45.293579 -60.94392 533.17145 -0.6890623 0.7229321 -0.050618701 0.2212036
73.828133 -61.679775 533.20312 -0.5142312 0.82572067 -0.23184396 0.14814408
75.005127 -60.902973 533.14435 -0.59617811 0.77811044 -0.1977769 0.15119644
46.765579 -59.063259 533.16162 0.96501148 -0.15498406 -0.21150096 0.20827998
48.097004 -58.284668 533.48956 0.95047456 0.19265713 -0.24388814 0.19741067
75.89994 -59.765636 533.20312 -0.65652996 0.73285526 -0.17858231 0.15820809
76.228409 -58.706768 533.22571 -0.46567124 0.81924075 -0.33465639 0.16366518
47.51371 -57.279305 532.42188 0.97724599 0.033533096 -0.20944151 0.1468046
48.114971 -57.026917 533.20386 0.96607441 0.13162819 -0.22220322 0.16150594
63.148632 -56.911591 533.30145 -0.93366575 -0.35797769 0.010964535 0.24667017
64.286163 -56.687183 533.39844 -0.30475616 0.31552917 -0.89864618 0.24799737
67.089851 -56.406036 532.75452 0.37792751 0.87172598 -0.31187272 0.20067355
69.0625 -56.407738 532.70911 0.23038374 0.85479838 -0.46501938 0.17486797
70.963539 -56.237061 532.68231 0.18740416 0.83399111 -0.5189783 0.15067135
73.270088 -56.375988 532.55048 0.1965539 0.82782578 -0.52542454 0.14582101
75.165314 -56.680893 532.71454 0.30626279 0.7792998 -0.54671288 0.15398966
76.282059 -57.017742 533.54688 0.28277203 0.78952193 -0.54469723 0.16237999
47.587437 -55.078129 533.20312 0.9869085 0.030733099 -0.15832624 0.09902107
58.984367 -54.25708 532.401 0.97139502 0.084674865 -0.22185993 0.17429052
61.854362 -54.296883 532.42188 0.88955027 0.42708555 -0.1621674 0.16029297
62.795261 -55.174587 533.29553 0.91959572 0.36980346 -0.13262418 0.21098822
65.097061 -55.799835 533.33252 0.67018259 0.73290557 -0.11706744 0.22845773
66.415459 -55.81284 533.73334 0.45104107 0.87278593 -0.18656529 0.22323157
