# .PCD v0.7 - Point Cloud Data file format
VERSION 0.7
FIELDS x y z normal_x normal_y normal_z curvature
SIZE 4 4 4 4 4 4 4
TYPE F F F F F F F
COUNT 1 1 1 1 1 1 1
WIDTH 799
HEIGHT 1
VIEWPOINT 0 0 0 1 0 0 0
POINTS 799
DATA ascii
66.512306 19.503637 35 -0.0033902901 0.00983408 -0.99994588 0.00019219122
67.50164 19.498699 35 -0.0050501418 0.0086018322 -0.99995029 0.00020331262
68.499832 19.500198 35 -0.00021849082 0.014536001 -0.99989432 0.00016334874
69.49987 19.499449 35 1.6015209e-08 5.2369738e-05 -1 0
70.490402 19.499121 35 0.00030351916 -5.198337e-05 -1 0
71.500679 19.497501 35 -0.00030075651 -5.1873802e-05 -1 0
72.505066 19.504095 35 0.00030096091 5.1961084e-05 -1 0
73.508102 19.504725 35 -0 -0 -1 0
74.509552 19.501328 35 -1.5944845e-08 0.00010472575 -1 0
75.502998 19.499256 35 -0.00020999664 -5.1039746e-07 -1 0
76.49659 19.501545 35 -0.00030496836 0.00010456696 -0.99999994 0
77.498329 19.501602 35 -0.00020927674 7.5636861e-05 -1 0
78.503387 19.499336 35 -0.00030248039 9.4823911e-08 -1 0
79.500809 19.501513 35 0.00020868194 -5.0482481e-07 -0.99999994 0
80.496796 19.499628 35 0.00020977926 -7.5833384e-05 -1 0
81.504105 19.503103 35 0.00020990791 2.864985e-07 -1 0
82.495018 19.496815 35 0.0003548385 9.9372555e-05 -1 0
83.498833 19.501595 35 -0 -0 -1 0
84.430977 19.570898 35 0.00083765999 -0.00024761667 -0.99999964 0
85.1306 19.872124 35 0.00046479076 -0.00031482559 -0.99999988 0
19.859188 20.857922 35 0 0 -1 0
20.549189 20.552244 35 -0.00014874378 -0.0001473367 -1 0
21.495604 20.499006 35 -1.4084599e-05 -9.5093426e-05 -1 0
22.495523 20.502399 35 -8.5425847e-05 8.39308e-06 -1 0
23.497356 20.497845 35 -7.5549295e-05 -0.00010466046 -1 0
24.499037 20.502207 35 7.562009e-05 -1.5838328e-08 -1 0
25.500374 20.501602 35 -0 -0 -1 0
26.507944 20.497374 35 -7.5918659e-05 -4.7705083e-08 -1 0
27.496105 20.49877 35 -0.0001050422 1.6764601e-07 -1 0
28.494925 20.499683 35 7.6270779e-05 -5.2453361e-05 -1 0
29.496323 20.503313 35 0.00030293933 -4.1334113e-07 -1 0
30.502831 20.501966 35 0 0 -1 0
31.491455 20.49758 35 0 0 -1 0
32.492508 20.497644 35 0 0 -1 0
33.506897 20.499109 35 0 0 -1 0
34.510914 20.500731 35 1.3508043e-07 0.00010504489 -1 0
35.511314 20.502665 35 -0.0011825813 0.0075742858 -0.99997056 2.7679482e-05
36.502487 20.504974 35 -0.0016152626 0.0082147522 -0.99996495 1.8033568e-05
37.509308 20.497971 35 0.0055288984 0.0050243582 -0.99997211 0
38.496769 20.499846 35 0.0040243608 0.0046894941 -0.99998093 0
39.486683 20.482512 35.04261 0.0021766038 0.0071703321 -0.99997193 0
66.509003 20.481569 35.07093 -0.0024376207 0.022234226 -0.99974984 0.00021382721
67.500496 20.500378 35 -0.012853128 0.020663481 -0.99970382 0.00024511237
68.500755 20.500425 35 -0.010353014 0.017684251 -0.99979007 0.00026645901
69.498718 20.499973 35 -0.0055082398 0.0090211732 -0.99994409 0.00019826779
70.485947 20.501375 35 0.0017614572 0.013110251 -0.9999125 0.00020709938
71.497238 20.500656 35 0.00030002676 5.1814899e-05 -1 0
72.506577 20.504984 35 -0.00030358252 -2.2245133e-07 -1 0
73.503448 20.50034 35 -0.00030414006 -8.9284146e-07 -1 0
74.493835 20.500896 35 0 0 -1 0
75.501274 20.498522 35 -0.00020999584 -1.2757465e-07 -1 0
76.495758 20.501688 35 -0.00020920503 -3.1709746e-08 -1 0
77.500595 20.501516 35 1.5826599e-08 -7.5746102e-05 -1 0
78.497932 20.497309 35 -7.8810878e-09 -5.2204326e-05 -1 0
79.501938 20.501163 35 -0 -0 -1 0
80.507927 20.507807 35 -0.00030393014 0.00010426556 -1 0
81.499031 20.500574 35 0 0 -1 0
82.49501 20.497208 35 0.000209437 -7.5541961e-05 -0.99999994 0
83.500183 20.497953 35 7.8754265e-06 6.6262211e-05 -1 0
84.499008 20.501139 35 -1.4829672e-05 6.4021347e-05 -1 0
85.437828 20.564596 35 -0.00037225435 0.0002197922 -0.99999988 0
86.143112 20.86244 35 -0.00031262421 7.9158403e-05 -0.99999988 0
18.904816 21.88135 35 0 0 -1 0
19.576185 21.567709 35 0 0 -1 0
20.500286 21.500851 35 -1.3932463e-05 -6.2532992e-05 -1 0
21.499079 21.499695 35 -7.4937576e-05 9.4824602e-05 -1 0
22.50256 21.493896 35 5.2347885e-05 -8.1288604e-08 -1 0
23.500723 21.503502 35 5.2457912e-05 -0.00015222951 -1 0
24.500509 21.498577 35 0.00010472588 -7.60603e-05 -1 0
25.501102 21.499756 35 -7.5558804e-05 5.2405609e-05 -1 0
26.49955 21.499485 35 -7.5682132e-05 -5.2337178e-05 -1 0
27.505623 21.499161 35 -2.7812346e-08 5.2275289e-05 -1 0
28.504095 21.497097 35 -2.8284225e-07 5.2417447e-05 -1 0
29.5 21.495613 35 0.00010480475 7.5672622e-05 -1 0
30.497746 21.507769 35 -0.00010510299 -0.00015154979 -1 0
31.492355 21.500668 35 0.0001051326 -7.5571763e-05 -1 0
32.495567 21.4984 35 0.00010443031 6.2405405e-07 -1 0
33.490574 21.499987 35 0.00016190636 0.0024679296 -0.99999702 5.8309361e-05
34.491737 21.497438 35 0.0036840369 0.0063489405 -0.99997312 3.7642727e-05
35.505013 21.49991 35 0.002288596 0.007259958 -0.99997103 3.7992424e-05
36.508343 21.500589 35.000168 0.00049862522 0.010313782 -0.99994665 1.854969e-05
68.512444 21.473507 35.076908 -0.013156827 0.03126787 -0.9994244 0.00030314663
69.501434 21.498543 35 -0.0093170339 0.02370595 -0.99967551 0.00026643887
70.490715 21.502724 35 -0.011180732 0.020429252 -0.9997288 0.00028533587
71.503983 21.502239 35 -0.0069268746 0.010973946 -0.99991584 0.0001702981
72.498749 21.502958 35 1.5918891e-06 0.0013117165 -0.99999917 0
73.501648 21.500551 35 -0.00060901715 -1.2785077e-06 -0.99999982 0
74.499001 21.499317 35 -0.00020977337 7.5254306e-05 -1 0
75.49852 21.499737 35 0.00041876044 6.3494241e-08 -0.99999994 0
76.494377 21.502312 35 1.2653774e-07 -5.2323361e-05 -1 0
77.497154 21.500532 35 -0.000605195 -5.121703e-05 -0.99999982 0
78.498642 21.501188 35 1.5825277e-08 -5.2223415e-05 -1 0
79.503189 21.503717 35 0 0 -1 0
80.500198 21.500607 35 0.00060806586 5.3694108e-05 -0.99999982 0
81.491341 21.496599 35 0.00030395261 5.0980049e-07 -1 0
82.499832 21.500393 35 0.00020864948 -7.5909855e-05 -0.99999994 0
83.500702 21.497383 35 7.9204433e-08 -5.2338288e-05 -1 0
84.500778 21.500212 35 -0.00070042856 -0.00013183475 -0.9999997 0
85.499199 21.498962 35 -0.00049352192 1.8962392e-05 -0.99999988 0
86.441902 21.560034 35 -0 -0 -1 0
87.127502 21.845463 35 -0.00115991 0.00088477269 -0.99999893 0
17.924673 22.913475 35 -0.00013518115 -9.0413647e-05 -1 0
18.599611 22.583355 35 -0.00016348566 -2.8327097e-05 -1 0
19.509222 22.498562 35 -1.5559966e-05 -9.429788e-05 -1 0
20.509768 22.501358 35 -6.704832e-05 8.1065336e-06 -1 0
21.508049 22.503119 35 -7.1530728e-08 -0.00015139478 -1 0
22.500965 22.492868 35 -5.250673e-05 7.580885e-05 -1 0
23.499588 22.500513 35 -7.9318298e-08 0.00015129172 -1 0
24.502321 22.498177 35 0 0 -1 0
25.50107 22.498508 35 -0 -0 -1 0
26.501305 22.497438 35 5.228215e-05 -5.1587701e-08 -1 0
27.506392 22.499712 35 7.5768476e-05 5.2262982e-05 -1 0
28.497118 22.501156 35 -0.00015204503 5.5682495e-08 -1 0
29.499392 22.494478 35 -0 -0 -1 0
30.501427 22.500483 35 0.00015205699 5.2242765e-05 -1 0
31.488615 22.505169 35 -0.00015180254 -5.1973733e-05 -1 0
32.497532 22.49762 35 0.0011977166 0.018142404 -0.99983466 0.00011420313
33.499741 22.499928 35 0.0073585538 0.017874448 -0.9998132 0.00012643392
34.49369 22.498463 35 0.0081744483 0.0069694957 -0.99994224 1.8526815e-05
35.481758 22.482162 35.053593 0.0038645165 0.0091126459 -0.999951 2.6088923e-05
70.510689 22.485586 35.091908 -0.017293392 0.019336468 -0.99966347 0.00023376755
71.504837 22.504145 35 -0.014005255 0.0092248768 -0.99985933 0.00019864502
72.499352 22.49913 35 -0.013744368 0.018228829 -0.99973941 0.00035695269
73.500221 22.498009 35 -0.00045181857 0.016766779 -0.99985933 0.00025912776
74.501434 22.502529 35 0.00030395135 -0 -1 0
75.494896 22.498499 35 -0.00030395782 0.00010485791 -1 0
76.503662 22.500042 35 0.00030176027 -5.3100466e-05 -0.99999994 0
77.507957 22.500755 35 -0.00030303089 3.4904079e-07 -1 0
78.50135 22.506685 35 0.00062787847 -8.5697695e-07 -0.99999982 0
79.499817 22.500628 35 0.00021017318 5.1020646e-07 -1 0
80.500076 22.500059 35 0.00030414219 1.1159426e-06 -1 0
81.495857 22.497286 35 0.00030266351 -1.2668383e-07 -1 0
82.502396 22.501266 35 0.0002088555 -9.4869634e-08 -1 0
83.502335 22.499554 35 0.000208421 0.00015085921 -1 0
84.500084 22.497969 35 -0 -0 -1 0
85.501556 22.502083 35 -0.00027491793 -0.00012082813 -1 0
86.496574 22.500963 35 0.00024638037 3.3559289e-05 -1 0
87.41256 22.57342 35 -0 -0 -1 0
88.061081 22.914742 35 0.0004123128 -0.0001786886 -0.99999988 0
16.962048 23.958029 35 0 0 -1 0
17.616713 23.604034 35 5.4061791e-05 -0.00014625549 -1 0
18.501062 23.499256 35 3.131359e-05 -0.00017495437 -1 0
19.502239 23.499786 35 -7.4466734e-05 9.3710907e-05 -1 0
20.499504 23.501757 35 -5.2245086e-05 7.526276e-05 -1 0
21.497496 23.499502 35 0.00022707068 -0.00015571968 -1 0
22.500446 23.49766 35 5.2313742e-05 1.1432544e-07 -1 0
23.502716 23.505833 35 -6.3282911e-08 -5.2164894e-05 -1 0
24.499876 23.497221 35 -5.2338048e-05 0.00015125866 -1 0
25.497057 23.493755 35 -2.3799309e-08 -7.5769065e-05 -1 0
26.497492 23.501436 35 0.00015122902 -1.739355e-07 -1 0
27.501663 23.498922 35 -1.1899208e-08 -5.229305e-05 -1 0
28.502211 23.499386 35 7.5945951e-05 -0.00015680587 -1 0
29.498884 23.496593 35 0.00010480009 -1.9850006e-07 -1 0
30.498693 23.499399 35 -1.8392934e-07 5.2551812e-05 -1 0
31.49732 23.502438 35 0.0088513494 0.010951608 -0.99990088 0.00034052055
32.496635 23.500919 35 0.0090757431 0.013566533 -0.99986678 0.00028358729
33.496914 23.48912 35.01754 0.0098953024 0.021798622 -0.99971348 0.00011572002
72.505615 23.49645 35.008976 -0.0045254314 0.01366556 -0.99989641 0.00021840053
73.499451 23.496996 35 -0.0053320001 0.014280923 -0.99988383 0.00021992474
74.500404 23.500153 35 -0.0071909963 0.010180771 -0.99992234 0.00023834685
75.491943 23.499077 35 -5.2293956e-07 0.00031433417 -0.99999994 0
76.500412 23.502308 35 0.00030175064 -3.1567174e-07 -1 0
77.49968 23.499695 35 0.00060545426 -0.00010529088 -0.99999982 0
78.500542 23.50157 35 -7.9758692e-08 -7.5930264e-05 -1 0
79.499466 23.501942 35 0.00030380173 -5.1822146e-05 -1 0
80.492661 23.498476 35 0.00030325382 5.2435182e-05 -1 0
81.500671 23.499924 35 0.00020881601 -7.5610842e-05 -1 0
82.499985 23.500584 35 1.3406763e-07 -5.2175968e-05 -1 0
83.499283 23.498531 35 -3.9523766e-08 5.2202991e-05 -1 0
84.505783 23.505367 35 0.00030325126 -0.00010384405 -1 0
85.503838 23.502174 35 0.00030405572 5.2816926e-05 -1 0
86.497444 23.495117 35 -0.00028786727 -0.00020175871 -0.99999994 0
87.499786 23.501131 35 2.5672087e-05 -0.00012699068 -1 0
88.352837 23.60989 35 -0.00081661268 0.00014275392 -0.99999964 0
16.723991 24.629169 35 0.00011339489 2.9537119e-05 -1 0
17.503145 24.497892 35 0.00010815276 8.1043778e-05 -1 0
18.501648 24.494074 35 0.00021155966 -1.7955215e-05 -1 0
19.496321 24.503855 35 -2.5482473e-07 7.5919852e-05 -1 0
20.501959 24.512871 35 -1.8111689e-07 7.601735e-05 -1 0
21.498262 24.50839 35 -5.2360159e-05 -0.00015159052 -1 0
22.50145 24.498299 35 5.211489e-05 -7.5680677e-05 -1 0
23.501352 24.50371 35 0.00015143331 -5.2165295e-05 -1 0
24.504044 24.500486 35 7.538576e-05 -5.1877014e-05 -1 0
25.504654 24.498604 35 -5.2181309e-05 7.527446e-05 -1 0
26.505375 24.496792 35 -0.00010443378 -7.5531381e-05 -1 0
27.501341 24.502892 35 5.2236777e-05 -7.5743133e-05 -1 0
28.506035 24.498081 35 -0 -0 -1 0
29.502691 24.498806 35 2.0420041e-06 0.0020499572 -0.99999791 0
30.502514 24.494204 35 0.01423982 0.0071967202 -0.99987274 0.00024372125
31.501097 24.502371 35 0.011806368 0.0083110686 -0.99989569 0.00013731672
32.482792 24.476818 35.088638 0.0099367853 0.01108697 -0.99988919 0.0001623291
73.516243 24.47846 35.083282 -0.0082663707 0.010278268 -0.99991304 0.00011995011
74.496223 24.495142 35 -0.0099728415 0.0096739577 -0.9999035 0.00010755799
75.504868 24.50304 35 -0.014041718 0.0047865817 -0.99988997 0.00023539849
76.503853 24.500805 35 -1.0707618e-06 0.00078653474 -0.99999964 6.1560175e-05
77.501183 24.498838 35 -0.00030371064 -5.2862088e-05 -1 0
78.503319 24.50082 35 0 0 -1 0
79.502548 24.499743 35 0 0 -1 0
80.494705 24.501444 35 0.00030339806 -0.00010461346 -1 0
81.500389 24.499424 35 -0.00060606212 8.2190775e-07 -0.99999982 0
82.498993 24.498798 35 3.9581618e-08 -5.2279403e-05 -1 0
83.504509 24.50625 35 -0.00020977091 -0.00015179242 -1 0
84.502724 24.503531 35 -0.00020985323 -7.6910561e-05 -1 0
85.49205 24.496317 35 0.00030427173 -5.1445986e-05 -1 0
86.497894 24.499798 35 -0.00091134798 5.2936892e-05 -0.99999958 0
87.499298 24.501038 35 2.7566966e-06 -6.5639775e-05 -1 0
88.50058 24.500467 35 -0.033139609 0.0024702556 -0.9994477 0.0013152083
89.281662 24.656073 35 -0.031582277 0.013951069 -0.99940372 0.0015347565
15.820844 25.748783 35 -0.00010455229 -0.00014077568 -1 0
16.511141 25.509434 35 0.00020305514 0.00014096242 -1 0
17.501043 25.498281 35 8.7278619e-05 4.9505802e-06 -1 0
18.501785 25.501074 35 9.2873197e-06 -0.00011121311 -1 0
19.502716 25.486086 35 3.383179e-07 -0.00015198832 -1 0
20.495573 25.503891 35 -0 -0 -1 0
21.499176 25.501484 35 -0.00010486149 4.317591e-07 -1 0
22.499212 25.503006 35 1.3213797e-07 -7.6493874e-05 -1 0
23.495661 25.508389 35 0.00015715753 -7.6106509e-05 -1 0
24.494652 25.511095 35 -5.2177762e-05 0.00015173893 -1 0
25.495001 25.501484 35 -2.0894873e-07 -7.5489632e-05 -1 0
26.49922 25.500523 35 -7.5660617e-05 -1.5789767e-07 -1 0
27.502419 25.501251 35 7.5643511e-05 1.6925128e-07 -1 0
28.50399 25.498058 35 0.0006244735 0.0022531692 -0.99999726 0
29.499527 25.503912 35 0.00074354949 0.0029022973 -0.99999553 0.00011436254
30.495813 25.494518 35.000416 0.013791038 0.0066264998 -0.99988288 0.00022954203
75.498665 25.495726 35.001419 -0.0130153 0.0051756692 -0.99990195 7.3020827e-05
76.498856 25.501333 35 -0.00017123717 0.0019699736 -0.99999809 5.5925171e-05
77.500092 25.499592 35 -0.00030849202 0.001889942 -0.99999821 5.9981336e-05
78.499321 25.500456 35 -0.00030382263 -5.2606261e-05 -1 0
79.493553 25.49914 35 -0.0002093644 -7.5734293e-05 -1 0
80.499664 25.501921 35 0.00030229898 -5.6915241e-07 -1 0
81.500038 25.49931 35 0.00030271104 -5.2436393e-05 -1 0
82.503517 25.506777 35 0.00020930849 7.5901509e-05 -1 0
83.499916 25.499935 35 0.00021006854 7.6643824e-05 -1 0
84.496246 25.501091 35 -0.00030503699 -5.387525e-05 -1 0
85.496849 25.493725 35 -1.2693984e-07 -0.00015188351 -1 0
86.499161 25.50149 35 -0.00041798133 7.6500146e-05 -0.99999994 0
87.500168 25.500875 35 1.4243492e-05 0.00029245683 -1 0
88.501259 25.49929 35 -0.025967425 0.0083495099 -0.99962795 0.0016893776
89.492035 25.508528 35 -0.020158749 0.025977913 -0.99945933 0.0016208951
90.211609 25.722885 35 -0.023598885 0.026576843 -0.99936819 0.0016731437
14.909537 26.877029 35 2.2396149e-05 -0.00010061548 -1 0
15.557527 26.549013 35 9.2072914e-05 8.4573978e-05 -1 0
16.499849 26.500538 35 0.0001363527 0.00010269271 -1 0
17.499651 26.49972 35 6.5885921e-05 -7.5772448e-05 -1 0
18.502003 26.499186 35 5.2220923e-05 1.3390989e-07 -1 0
19.503075 26.500759 35 7.5845703e-05 -0.00020931737 -1 0
20.503744 26.497242 35 -5.2420786e-05 7.6144534e-05 -1 0
21.504684 26.498646 35 0.00015138871 0.0001052476 -1 0
22.499344 26.496752 35 -5.242609e-05 7.5817916e-08 -1 0
23.502825 26.493431 35 -0.00010491646 4.2450358e-07 -1 0
24.501045 26.497656 35 7.5678905e-08 -5.2449461e-05 -1 0
25.498835 26.50309 35 -5.2246018e-05 -7.5645759e-05 -1 0
26.494461 26.506191 35 0.00010472945 -3.8173087e-07 -1 0
27.49386 26.514257 35 0.0023628536 0.0026741344 -0.99999368 0
28.497625 26.509777 35 0.0031515372 0.0033961979 -0.99998933 0
29.498756 26.493492 35.010704 0.0018393031 0.0029502988 -0.99999398 0
76.504005 26.494522 35.004406 -0.001164842 0.0023267311 -0.99999654 5.5903864e-05
77.500244 26.499369 35 -0.0014222877 0.0020617479 -0.9999969 0
78.501045 26.501297 35 -0.0012373661 0.0042495341 -0.99999022 5.0770843e-05
79.495796 26.500349 35 -0 -0 -1 0
80.50322 26.501009 35 0.00030274308 -5.2612424e-05 -1 0
81.50119 26.503504 35 3.1772768e-08 -5.236152e-05 -1 0
82.500053 26.500338 35 -1.2763959e-07 -7.5849828e-05 -1 0
83.498444 26.499983 35 0.00060876063 0.00010702219 -0.99999982 0
84.491661 26.495901 35 0.00030355051 -0.00010468136 -1 0
85.500237 26.499701 35 -6.3217612e-08 7.5734701e-05 -1 0
86.503151 26.498789 35 -0.00060647796 0.00010598583 -0.99999982 0
87.501923 26.500639 35 -0.00030277803 -0.00010405767 -1 0
88.499519 26.503405 35 -0.00026917344 -0.00011287333 -1 0
89.502266 26.503998 35 -0.01212771 0.02496817 -0.99961472 0.0017475683
90.447311 26.533894 35 -0.035458401 0.031321865 -0.99888021 0.0017751188
91.081818 26.873615 35 -0.04335108 0.036217667 -0.99840319 0.0017290765
14.649843 27.595453 35 9.93129e-05 3.112679e-05 -1 0
15.502155 27.500763 35 6.693558e-05 -0.00011069387 -1 0
16.501225 27.499393 35 5.9317368e-05 7.3766685e-05 -1 0
17.499899 27.500372 35 0 0 -1 0
18.500778 27.500387 35 -2.1736588e-07 -0.00015117203 -1 0
19.499498 27.499498 35 5.2078722e-05 -7.5436612e-05 -1 0
20.501286 27.499447 35 -1.2288581e-07 -7.5895863e-05 -1 0
21.502802 27.4993 35 5.2248244e-05 -0.00015151754 -1 0
22.503628 27.489317 35 -0 -0 -1 0
23.498766 27.500954 35 -0.00015203429 5.2605232e-05 -1 0
24.499859 27.501345 35 -0 -0 -1 0
25.500847 27.506235 35 -7.1741859e-08 7.6086224e-05 -1 0
26.496052 27.498596 35 0.0023674532 0.0018437273 -0.99999547 0.00011994522
27.497047 27.501497 35 0.0021416866 0.002211927 -0.99999523 0
28.491329 27.490377 35.011673 0.0034136407 0.0034650287 -0.99998814 0
77.508743 27.491516 35.011082 -0.0024587114 0.0048852772 -0.99998504 4.8970884e-05
78.496719 27.496412 35 -0.003279876 0.0050333496 -0.99998194 4.81692e-05
79.506592 27.50872 35 -0.0029417649 0.0028238797 -0.99999171 5.3701431e-05
80.502693 27.497719 35 0.00030312571 0.00010494095 -1 0
81.500885 27.501957 35 0.00041946437 8.9112308e-07 -0.99999994 0
82.500267 27.499743 35 0.0002103173 7.6638884e-05 -1 0
83.498489 27.498497 35 6.3653523e-08 5.2323201e-05 -1 0
84.495247 27.496777 35 0.00041763243 -7.6598139e-05 -0.99999994 0
85.499321 27.500015 35 0.00041702361 -2.3901807e-06 -0.99999994 0
86.498154 27.49963 35 -0.00060475664 5.3544027e-05 -0.99999982 0
87.501404 27.503584 35 1.5903234e-07 0.00015165325 -1 0
88.505196 27.504839 35 0.00030303127 4.4507317e-07 -1 0
89.49469 27.494251 35 -0.00056793459 -0.00024059668 -0.99999976 0
90.504105 27.499825 35 -0.019158773 -0.0058022458 -0.99979961 0.00064618455
91.32312 27.59177 35 -0.020167889 0.0047830036 -0.99978518 0.00079478422
13.8146 28.676266 35 0 0 -1 0
14.500875 28.494062 35 -6.219116e-05 -0.00013723399 -1 0
15.497557 28.50485 35 8.7376924e-05 6.629846e-05 -1 0
16.495564 28.509914 35 1.2920074e-07 -7.5878605e-05 -1 0
17.4988 28.507504 35 -1.1961712e-08 -0.00015240419 -1 0
18.497057 28.504587 35 5.210907e-05 -7.5746015e-05 -1 0
19.499367 28.499535 35 5.2118437e-05 -7.53813e-05 -1 0
20.501589 28.500271 35 -1.4981948e-07 -0.00010424282 -1 0
21.500534 28.499331 35 -1.7703979e-07 -5.2002495e-05 -1 0
22.502096 28.498724 35 -5.2350639e-05 -8.6582027e-08 -1 0
23.506956 28.498344 35 -7.5896671e-05 -5.2214091e-05 -1 0
24.496555 28.49802 35 -5.2358781e-05 3.5859447e-08 -1 0
25.499098 28.502375 35 0.0018406718 0.00068681606 -0.99999809 0
26.501657 28.495859 35 0.0019766744 0.001869563 -0.9999963 0
27.494766 28.497293 35.01004 0.0033060487 0.0027772456 -0.9999907 0.00011181062
78.503342 28.496052 35.024082 -0.0044690911 0.0038129662 -0.99998277 4.9267517e-05
79.496986 28.500643 35 -0.0043711606 0.0034033225 -0.99998462 4.8926053e-05
80.49826 28.499014 35 -0.0048695975 0.0003661713 -0.99998808 5.2353607e-05
81.499329 28.500418 35 0.00030455473 5.2561125e-05 -1 0
82.500259 28.501339 35 0.00030360956 -5.1731022e-05 -1 0
83.492111 28.496471 35 -0 -0 -1 0
84.505013 28.499424 35 3.1390098e-07 -5.2138952e-05 -1 0
85.50116 28.499971 35 -3.7844191e-07 0.00015667497 -1 0
86.505638 28.505653 35 -4.7731941e-08 -7.5734672e-05 -1 0
87.503708 28.50025 35 -0.00060857378 0.00010310586 -0.99999982 0
88.49543 28.494667 35 0 0 -1 0
89.497978 28.500713 35 -4.7660404e-08 7.5907134e-05 -1 0
90.498154 28.49897 35 -0.016958196 0.0040319157 -0.99984807 0.00078899792
91.497192 28.504129 35 -0.016723497 0.0097132707 -0.99981296 0.00077259756
92.183365 28.714481 35 -0.016782582 0.018125797 -0.99969488 0.00072187168
12.96522 29.931301 35 -0.00011767801 -4.5411005e-05 -1 0
13.575697 29.551502 35 -4.2904794e-05 -5.5778673e-06 -1 0
14.499691 29.497976 35 0 0 -1 0
15.501272 29.49699 35 5.9991621e-06 -0.000146469 -1 0
16.504816 29.494411 35 -0 -0 -1 0
17.499628 29.498316 35 -0 -0 -1 0
18.499176 29.501049 35 5.9254262e-07 -0.0001526518 -1 0
19.497736 29.502571 35 -5.2316889e-05 2.1095519e-07 -1 0
20.497828 29.508898 35 5.2516141e-05 -0.00015174107 -1 0
21.497913 29.509872 35 0 0 -1 0
22.498871 29.509146 35 -5.2109503e-05 -3.6340771e-07 -1 0
23.500679 29.502373 35 -3.166092e-07 -0.00010450478 -1 0
24.507128 29.487637 35 0.0008928015 0.00030783002 -0.99999946 0
25.501596 29.495382 35 0.0019471206 0.00033322696 -0.99999809 0
26.494415 29.488022 35.006371 0.002556572 0.0016286431 -0.99999547 0
79.506325 29.493835 35.004898 -0.013724852 0.027078081 -0.99953914 0.00066226686
80.50087 29.499853 35 -0.012976648 0.027032215 -0.99955028 0.00066595321
81.500618 29.499792 35 -0.00063084601 -0.00015217414 -0.99999982 0
82.496078 29.499695 35 -0 0.00015135463 -1 0
83.497955 29.498991 35 0.00030172602 -0.00010470455 -1 0
84.499405 29.500578 35 0.00020846831 0.00015074854 -1 0
85.506477 29.50601 35 9.5246534e-08 0.00010458069 -1 0
86.501648 29.500162 35 -0.000304869 0.00010408209 -0.99999994 0
87.499527 29.49971 35 0.00030434009 -0.00010379154 -1 0
88.495415 29.496445 35 0.00030303063 2.5400723e-07 -1 0
89.501801 29.500443 35 0.00020872192 0.00015099233 -1 0
90.501236 29.500717 35 -1.9916932e-05 -0.00014287759 -1 0
91.500679 29.500103 35 -0.008805396 0.016782694 -0.99982041 0.00075691036
92.432983 29.549921 35 -0.0049393717 0.022565845 -0.99973315 0.00061148941
93.062973 29.904215 35 -0.014245805 0.023076169 -0.99963224 0.00048929726
12.76438 30.614485 35 7.4869808e-05 0.0001456279 -1 0
13.497199 30.503431 35 2.2553484e-05 -0.00011344007 -1 0
14.500058 30.499533 35 3.5504487e-05 -4.1453595e-06 -1 0
15.499443 30.498959 35 0 0 -1 0
16.498117 30.502489 35 -7.5732183e-05 -0.00010473993 -1 0
17.503176 30.490496 35 5.2297171e-05 -3.5768259e-08 -1 0
18.500612 30.497416 35 -7.6127231e-05 0.00010508453 -1 0
19.499939 30.501549 35 0.00010486789 -5.6663777e-07 -1 0
20.500713 30.499149 35 7.5185111e-05 0.00021034904 -1 0
21.498877 30.500298 35 -2.3950646e-08 0.00015261352 -1 0
22.499903 30.501106 35 -0 -0 -1 0
23.499601 30.499235 35 0.00026155805 0.00015199714 -1 0
24.497589 30.505676 35 0.0057974411 0.0095189912 -0.99993789 5.5192359e-05
25.497377 30.500406 35.001617 0.0050041284 0.011631041 -0.99991983 3.6208738e-05
80.499611 30.499357 35.000416 -0.015376043 0.03172769 -0.99937826 0.00090922869
81.499825 30.49995 35 -0.022731656 0.029004516 -0.99932081 0.00086773577
82.49057 30.498247 35 0.00030303744 -0.00010494446 -1 0
83.503143 30.505846 35 -1.2632651e-07 0.00015102334 -1 0
84.50312 30.502886 35 -0.00030320836 0.00010420557 -1 0
85.499588 30.500467 35 -8.2924606e-07 -0.00030363165 -1 0
86.499329 30.500473 35 -0.00030414562 -1.4068974e-06 -0.99999994 0
87.490334 30.497669 35 9.5562214e-08 0.0001047999 -1 0
88.498497 30.498985 35 -0.00020884779 -0.00015148595 -1 0
89.497978 30.501257 35 0.00090580364 -2.0812199e-06 -0.99999958 0
90.498276 30.498226 35 -0 -0 -1 0
91.499405 30.49938 35 0.00057982688 0.00023533427 -0.99999976 0
92.507141 30.504827 35 -0 -0 -1 0
93.254662 30.593906 35 7.2145041e-05 -0.0001434524 -1 0
11.915478 31.84783 35 -8.3809282e-05 -3.5629993e-05 -1 0
12.538423 31.531635 35 4.2616135e-05 5.792484e-06 -1 0
13.500931 31.49955 35 -4.5950197e-05 -2.7259091e-06 -1 0
14.497592 31.501667 35 3.2105872e-05 -5.4970083e-06 -1 0
15.499537 31.499891 35 -0 -0 -1 0
16.500427 31.500391 35 -1.8881767e-07 -0.0001508299 -1 0
17.500357 31.502146 35 -0.00010421171 0.00015090621 -1 0
18.505039 31.493788 35 5.2328647e-05 -3.9576953e-08 -1 0
19.50334 31.495308 35 -0 -0 -1 0
20.498968 31.500092 35 -7.5982527e-05 1.5564466e-07 -1 0
21.50016 31.500158 35 -7.6326622e-05 0.00010541314 -1 0
22.499479 31.498249 35 -7.5697448e-05 6.3597945e-08 -1 0
23.501005 31.499485 35 0.0093393447 0.0073999842 -0.99992901 5.6803819e-05
24.501497 31.500824 35 0.010096251 0.0090040732 -0.99990851 0.00016560311
80.560959 31.450584 35.173717 -0.026607597 0.031086117 -0.99916255 0.0010242203
81.497688 31.496843 35 -0.031533323 0.028761273 -0.99908876 0.00092643616
82.506187 31.507788 35 -0.033430606 0.0085874815 -0.99940407 0.00094626541
83.501541 31.502079 35 -0.00030339835 2.5415571e-07 -1 0
84.498581 31.502691 35 0.0002100831 0.0001523886 -1 0
85.498459 31.502226 35 0 0 -1 0
86.499191 31.495333 35 2.8593155e-07 0.00015173433 -1 0
87.500191 31.497057 35 9.5110885e-08 0.00015186038 -1 0
88.503349 31.498655 35 -5.6866975e-07 0.00015126614 -1 0
89.501144 31.498745 35 -0.00041823948 1.643874e-06 -0.99999994 0
90.500809 31.500347 35 0.00021014774 0.00015160805 -1 0
91.50325 31.507963 35 0 0 -1 0
92.490326 31.495609 35 -0.0003652412 1.8507351e-05 -0.99999994 0
93.469109 31.529079 35 -0.00087622151 2.2139616e-06 -0.99999958 0
94.07148 31.862526 35 0.00052987074 -0.00013974613 -0.99999988 0
11.720124 32.581741 35 -1.4215891e-05 -0.00012275002 -1 0
12.499952 32.507412 35 -6.4104774e-05 -0.00012011616 -1 0
13.500488 32.502888 35 -3.4781111e-05 4.2412635e-06 -1 0
14.500093 32.501095 35 -2.6170137e-05 1.3920284e-08 -1 0
15.499866 32.498611 35 9.874659e-08 -0.00015108031 -1 0
16.500801 32.500572 35 -7.5507225e-05 -0.00020890146 -1 0
17.501284 32.502995 35 0 0 -1 0
18.501276 32.499672 35 -7.5953962e-05 -0.00010417094 -1 0
19.502289 32.50013 35 3.4759486e-07 0.00020857272 -1 0
20.506971 32.491653 35 5.2384072e-05 0.00015135946 -1 0
21.500324 32.499985 35 5.2351988e-05 -7.9526039e-08 -1 0
22.500774 32.499592 35 0.011841811 0.002920819 -0.99992561 3.8519865e-05
23.501003 32.499863 35 0.013672694 0.010488206 -0.99985152 0.00015645464
24.476843 32.483894 35.076588 0.0098145371 0.008643778 -0.99991447 0.00017899112
81.517532 32.48156 35.116772 -0.04049797 0.022613369 -0.99892372 0.00080008485
82.497574 32.499668 35 -0.038217325 0.0050155371 -0.99925685 0.00066039152
83.497337 32.502609 35 -0.022291278 0.00081547152 -0.99975121 0.00041899769
84.499031 32.499756 35 0.00030496373 -0.00010432296 -1 0
85.501175 32.500931 35 -0.00060751295 0.00020807159 -0.99999976 0
86.488678 32.495049 35 0.00020918893 0.00015197025 -1 0
87.498589 32.497017 35 -0.00020795115 -0.00015002437 -1 0
88.499176 32.497501 35 -0 -0 -1 0
89.505661 32.507122 35 0.00030469231 6.3736493e-08 -1 0
90.504478 32.504715 35 2.231872e-07 0.00015202236 -1 0
91.493095 32.495472 35 -0.00021026206 -6.3793101e-07 -1 0
92.498955 32.50037 35 1.1247914e-05 0.00023296072 -1 0
93.497986 32.499397 35 0.00034538392 7.5931981e-05 -0.99999988 0
94.249626 32.589169 35 -0.0008046134 0.00014069515 -0.99999964 0
10.945981 33.862114 35 -0.0002794317 -0.00013437713 -1 0
11.533339 33.521507 35 -2.0125008e-05 -0.00012266586 -1 0
12.502155 33.493546 35 -5.2689436e-05 -0.00012704714 -1 0
13.50409 33.499378 35 2.639209e-05 9.7547357e-08 -1 0
14.501161 33.500679 35 2.6656613e-05 -0.00015209317 -1 0
15.501098 33.505222 35 4.3857517e-07 -0.00015206997 -1 0
16.499676 33.506088 35 -0 -0 -1 0
17.497766 33.510586 35 0 0 -1 0
18.49721 33.508934 35 -3.2558438e-07 -0.0001518613 -1 0
19.498781 33.506348 35 -5.2188003e-05 -3.2390378e-07 -1 0
20.500349 33.500149 35 -2.2913413e-07 -0.0001043627 -1 0
21.503332 33.494999 35 0.0025130541 -0.00010156184 -0.99999678 0
22.503258 33.496193 35 0.015834391 0.0082662795 -0.9998405 9.702229e-05
23.490988 33.493195 35.013294 0.013661509 0.0057025687 -0.99989039 0.00016191468
82.504906 33.494419 35.009735 -0.026498886 0.011275289 -0.99958533 0.00026528182
83.504128 33.498276 35 -0.0061254753 0.010285489 -0.9999283 5.7868721e-05
84.50267 33.502209 35 -0.0014705464 -0.00045839939 -0.99999881 0
85.490906 33.495392 35 6.3591322e-08 -0.00030307626 -1 0
86.498398 33.499836 35 -0.00030303662 0.00010450192 -1 0
87.502266 33.49892 35 0.00060391531 -0.00010581327 -0.99999982 0
88.506958 33.50811 35 3.1770128e-08 -0.00015160705 -1 0
89.498436 33.503052 35 -0.00063078996 -2.6928067e-06 -0.99999982 0
90.495781 33.496849 35 -0.00030506789 -8.959409e-07 -1 0
91.494392 33.500526 35 -0.00030287183 0.00010459204 -1 0
92.501076 33.498741 35 0 0 -1 0
93.501488 33.498444 35 -0.00074564159 0.00015812174 -0.99999976 0
94.459007 33.531113 35 -0.00034504096 4.348941e-05 -0.99999994 0
95.060799 33.869492 35 -0.001193552 0.00021717759 -0.99999928 0
10.788934 34.594414 35 0 0 -1 0
11.502306 34.498238 35 6.546409e-05 0.00011806365 -1 0
12.502138 34.49688 35 -6.9032954e-05 -0.00014864583 -1 0
13.502782 34.500484 35 3.9640781e-08 0.00010472302 -1 0
14.50486 34.491802 35 1.3519802e-07 -0.00030390525 -1 0
15.501344 34.500263 35 5.2375901e-05 -7.9683398e-09 -1 0
16.502283 34.498001 35 -0 -0 -1 0
17.501905 34.501915 35 7.1825674e-08 -0.00010529644 -1 0
18.501982 34.500893 35 3.1932593e-08 -0.00015260188 -1 0
19.501961 34.499371 35 0 0 -1 0
20.49976 34.501717 35 1.271403e-07 0.00030344416 -1 0
21.498674 34.501877 35 0.0071875998 0.004108144 -0.99996567 0.00015521749
22.496191 34.505653 35 0.0085739531 0.0054264441 -0.9999485 0.00020010429
83.502274 34.499428 35 -0.0069498988 0.0095723141 -0.99992996 7.0178474e-05
84.499115 34.500126 35 -0.0073555605 0.0045332313 -0.99996269 0.00021410684
85.492546 34.495461 35 1.5824392e-07 -0.00010450429 -1 0
86.505096 34.505817 35 -0 -0 -1 0
87.504387 34.505455 35 0.00030157005 6.3043808e-07 -1 0
88.501305 34.500908 35 0 0 -1 0
89.504089 34.497311 35 0.00060717203 1.7886183e-06 -0.99999982 0
90.494484 34.495522 35 -0.00030321407 0 -1 0
91.501396 34.501118 35 -0 -0 -1 0
92.498688 34.499989 35 0.00030193239 -0 -1 0
93.500603 34.499607 35 -1.0720557e-05 -0.00023245742 -1 0
94.501022 34.500854 35 0.00037056042 -3.9019495e-05 -0.99999988 0
95.241165 34.592579 35 0.00045472925 -0.00014874371 -0.99999988 0
10.58237 35.543861 35 3.919156e-05 -9.4786672e-05 -1 0
11.498684 35.500786 35 9.2346432e-05 -0.00013619693 -1 0
12.498839 35.497742 35 -5.021584e-05 -0.00020669345 -1 0
13.499943 35.498539 35 -2.5816931e-05 0.00015123167 -1 0
14.501095 35.500702 35 -2.7721086e-07 -0.00010446097 -1 0
15.501084 35.49802 35 5.2406122e-05 4.3665153e-08 -1 0
16.498644 35.494148 35 -5.2393061e-05 -2.3901945e-08 -1 0
17.494087 35.50264 35 -0 -0 -1 0
18.495785 35.498428 35 -7.5940952e-05 0.00010530239 -1 0
19.498621 35.498459 35 7.576347e-05 0.00010500621 -1 0
20.500149 35.502899 35 0.011014811 2.1331354e-05 -0.99993932 0.00013713968
21.500999 35.497391 35 0.012326602 0.012654315 -0.99984396 0.00025773727
22.47859 35.485291 35.05851 0.016510818 0.016341718 -0.99973011 0.00010679624
83.520576 35.48484 35.062534 -0.017523015 0.017996741 -0.99968451 0.00023164574
84.489357 35.497234 35 -0.015377604 0.017255003 -0.99973279 0.00025365499
85.50441 35.509422 35 -0.009045572 -0.0010083616 -0.99995863 7.543488e-05
86.498436 35.504459 35 -0 -0 -1 0
87.50032 35.501492 35 0 0 -1 0
88.499596 35.49818 35 -1.7926634e-06 -0.00021038186 -1 0
89.489517 35.493721 35 -0.00030395205 -3.8188927e-07 -0.99999994 0
90.495354 35.49929 35 0.0006042333 -1.2614474e-06 -0.99999982 0
91.500076 35.500317 35 0.0003019702 0.00020822696 -0.99999994 0
92.499779 35.499207 35 0.00060459488 1.2645783e-07 -0.99999982 0
93.499161 35.500927 35 -0.0007543696 5.7371817e-06 -0.99999976 0
94.501694 35.503052 35 0.00036911282 0.00010197316 -0.99999988 0
95.434113 35.534119 35 0.00033933396 7.3973053e-05 -0.99999988 0
96.010056 35.987679 35 -0.00011916908 0.0001927088 -1 0
9.8541517 36.650211 35 0 0 -1 0
10.503703 36.500149 35 -9.0380752e-05 8.7702014e-05 -1 0
11.498078 36.5005 35 3.4910667e-05 0.00015506725 -1 0
12.498356 36.498989 35 5.2403611e-05 -0.00030233723 -1 0
13.498 36.497753 35 -2.6148928e-05 -1.7801842e-08 -1 0
14.496295 36.502071 35 -2.6178566e-05 0.0001512063 -1 0
15.498142 36.499893 35 -1.1055539e-07 -0.00010431887 -1 0
16.500834 36.500767 35 -6.3121234e-08 -0.00010426444 -1 0
17.50506 36.49535 35 5.2182706e-05 0.0001516753 -1 0
18.505932 36.498631 35 -3.9781732e-08 -0.00015202191 -1 0
19.502363 36.500137 35 5.2446918e-05 -1.4741234e-07 -1 0
20.498142 36.498672 35 0.0102664 0.0059070573 -0.99992985 0.00024778704
21.498066 36.501266 35 0.020551592 0.012017395 -0.99971658 0.00024807424
84.508896 36.503189 35.000168 -0.020268461 0.0078385379 -0.99976391 0.00019623563
85.503532 36.498768 35 -0.01105201 0.0065526851 -0.99991745 0.00023607899
86.501274 36.503017 35 -0.00042118417 0.0001513786 -0.99999994 0
87.494911 36.501846 35 0 0 -1 0
88.492538 36.496353 35 0.00030395185 3.1767541e-07 -1 0
89.496521 36.496696 35 -0.00020885549 6.3165132e-08 -1 0
90.503159 36.499386 35 4.0923757e-07 -0.00010413524 -1 0
91.498634 36.501801 35 0.00030229747 -0.00010461346 -1 0
92.498268 36.500446 35 -0.00030339815 -1.2701126e-07 -1 0
93.502739 36.501614 35 -0.00060529518 0.00010465101 -0.99999982 0
94.504868 36.500893 35 0 0 -1 0
95.502876 36.499683 35 -0 -0 -1 0
96.133125 36.645271 35 -0.0005746517 2.4732135e-05 -0.99999988 0
9.6727238 37.546825 35 0 0 -1 0
10.496654 37.508293 35 5.2261959e-05 0.00011049296 -1 0
11.500315 37.506317 35 3.3993841e-05 -5.3467916e-06 -1 0
12.498493 37.504158 35 -5.2279382e-05 -3.9798556e-09 -1 0
13.498814 37.500595 35 2.6169118e-05 -2.2833449e-08 -1 0
14.500709 37.502106 35 -7.5785043e-05 9.9049878e-08 -1 0
15.499854 37.502296 35 -0 -0 -1 0
16.499704 37.500404 35 5.1365027e-05 -0.00045281948 -0.99999994 0
17.499352 37.501198 35 0 0 -1 0
18.500324 37.493874 35 -5.2320418e-05 -1.9690056e-08 -1 0
19.500141 37.494705 35 0.012188778 0.0014030173 -0.99992472 0.00022221844
20.500061 37.499893 35 0.012873363 0.0095823044 -0.99987119 0.00017435302
21.474722 37.485828 35.085194 0.025189444 0.012105631 -0.99960941 0.00018376288
84.52726 37.488319 35.091503 -0.0259928 0.011137727 -0.99960011 0.00028114274
85.50029 37.49902 35 -0.015871827 0.010074621 -0.99982321 0.00028727733
86.500343 37.499004 35 -0.01270004 0.0015161659 -0.99991822 0.00027842176
87.501534 37.49976 35 0.00030303039 1.271634e-07 -1 0
88.495522 37.495564 35 -0.00020895833 0.00015173414 -1 0
89.498619 37.50214 35 -0 -0 -1 0
90.499985 37.502514 35 -0 -0 -1 0
91.50267 37.503151 35 -1.9086096e-07 -0.00010459181 -1 0
92.499023 37.498745 35 0.00030322123 0.00010502706 -1 0
93.499336 37.497154 35 0 0 -1 0
94.501755 37.500774 35 -0.00026947845 -1.3897927e-05 -0.99999994 0
95.502449 37.501049 35 0.00056023325 -8.6647466e-05 -0.99999982 0
96.295296 37.552883 35 0.00035537599 1.7488213e-05 -0.99999988 0
8.9716301 38.904709 35 -4.6319736e-05 -8.7474669e-05 -1 0
9.5352821 38.521881 35 6.0288745e-05 1.7108438e-05 -1 0
10.503034 38.497543 35 2.1622092e-05 0.00014009411 -1 0
11.503132 38.493568 35 2.7349912e-05 0.00030439781 -1 0
12.501723 38.499943 35 -8.7698702e-08 0.00015220708 -1 0
13.501472 38.498093 35 7.8565936e-05 -3.4615803e-07 -1 0
14.499396 38.501595 35 -7.5851211e-05 1.1548116e-07 -1 0
15.498942 38.504635 35 -0 -0 -1 0
16.499107 38.50581 35 5.2436597e-05 -0.00015194391 -1 0
17.500427 38.507164 35 -5.2260257e-05 -7.9242239e-09 -1 0
18.50141 38.506641 35 5.2021202e-05 -0.00015122471 -1 0
19.50123 38.508301 35 0.0064233807 0.0038943964 -0.99997175 3.6336864e-05
20.502008 38.497459 35 0.01992725 0.006648948 -0.99977934 0.00026238864
85.495522 38.500965 35 -0.019789143 0.0058392491 -0.99978709 0.00021318279
86.49752 38.497776 35 -0.005500271 0.0031507639 -0.99997997 4.4016291e-05
87.487991 38.493065 35 -0.00060740695 -0.00010401804 -0.99999982 0
88.497391 38.502499 35 -3.7806248e-07 0.00015103596 -1 0
89.504379 38.501228 35 0.00030248129 -4.4167061e-07 -1 0
90.501205 38.505322 35 -0.00020947552 -0.00015170559 -1 0
91.498131 38.50021 35 -0.00021008417 -1.9113041e-07 -1 0
92.497368 38.499622 35 0 0 -1 0
93.496559 38.497513 35 -0 0.00015156108 -1 0
94.499687 38.498219 35 0.00021061886 -1.0850061e-06 -0.99999994 0
95.500015 38.501682 35 -2.3116663e-05 0.00014018077 -1 0
96.46077 38.525974 35 -0.00055409299 0.00025486466 -0.99999976 0
97.036629 38.90995 35 -0.00074337295 0.00027228319 -0.99999964 0
8.8686295 39.607552 35 -5.4157819e-05 -9.6658441e-05 -1 0
9.4993191 39.499435 35 -1.6730171e-05 -0.00011238553 -1 0
10.49984 39.50145 35 7.2363706e-05 -2.5681979e-07 -1 0
11.499166 39.501911 35 -1.8621149e-07 -0.00010471227 -1 0
12.501688 39.49181 35 -5.2260384e-05 0.00015164113 -1 0
13.500901 39.496555 35 1.5906108e-08 -0.00015199879 -1 0
14.501972 39.501122 35 7.5747601e-05 0.00010481415 -1 0
15.500462 39.497982 35 2.9491926e-07 -0.00010510883 -1 0
16.499346 39.499924 35 -7.5947028e-05 0.0001051801 -1 0
17.501463 39.499744 35 -0 -0 -1 0
18.499432 39.499222 35 0.0076900078 -0.001063008 -0.9999699 2.689153e-05
19.498203 39.501362 35 0.0088483701 0.0013179884 -0.99996001 8.989832e-05
20.475313 39.490982 35.054405 0.021792183 0.0013951679 -0.99976152 0.00016135957
85.523506 39.492443 35.045715 -0.022676611 0.0011903447 -0.99974221 0.00014790171
86.498825 39.496449 35 -0.006486712 0.0012261798 -0.99997824 4.0327297e-05
87.499535 39.496525 35 -0.0063108476 0.00093282334 -0.99997962 3.8195529e-05
88.500221 39.504967 35 0.00020833523 -7.5563628e-07 -1 0
89.498749 39.498119 35 0.00060437556 0.00010361988 -0.99999982 0
90.501236 39.500393 35 0 0 -1 0
91.50264 39.500523 35 0 0 -1 0
92.501862 39.501373 35 -0.0004187921 0.00015116109 -0.99999994 0
93.500748 39.497875 35 -0.00030376675 6.3284737e-08 -1 0
94.501434 39.499229 35 6.3355714e-08 0.00010453693 -1 0
95.50425 39.500103 35 -0.00029106479 -3.1477866e-05 -0.99999994 0
96.500854 39.501144 35 1.7563169e-05 -0.00011318486 -1 0
97.159073 39.604614 35 0.0006279826 -0.00010907037 -0.99999976 0
8.7298069 40.546917 35 6.1787432e-05 5.4342649e-06 -1 0
9.4998293 40.49839 35 6.713738e-06 -9.0909227e-05 -1 0
10.499165 40.501083 35 -0 -0 -1 0
11.500262 40.500671 35 2.616554e-05 0.00015140839 -1 0
12.501669 40.498169 35 0 0 -1 0
13.500296 40.499088 35 0 0 -1 0
14.499971 40.493507 35 2.6312027e-05 -0.00015173295 -1 0
15.499933 40.497383 35 -5.2344407e-05 5.176307e-08 -1 0
16.499702 40.500942 35 1.3523142e-07 -0.00010488788 -1 0
17.498581 40.498482 35 -2.3075543e-07 0.0001050534 -1 0
18.498688 40.499165 35 0.0003790035 0.00021001515 -0.99999994 6.1994215e-05
19.501131 40.500172 35 0.021014318 0.0093689272 -0.9997353 0.00026899547
86.49057 40.498028 35 -0.014561711 0.012346487 -0.99981767 0.00018440901
87.49913 40.504253 35 -0.00060832169 0.00031505717 -0.99999976 6.1612518e-05
88.502945 40.506664 35 2.2216872e-07 -0.00010480015 -1 0
89.50219 40.506271 35 -0 -0 -1 0
90.500443 40.508045 35 -0.00020926856 0.00015182603 -1 0
91.501251 40.508614 35 0.0002090301 -0 -1 0
92.499229 40.508213 35 0 0 -1 0
93.499191 40.505905 35 0.00020942834 0.00015249081 -1 0
94.501266 40.50666 35 -0.00041864123 0.00030142677 -0.99999994 0
95.499199 40.502819 35 2.2662347e-05 0.00014102693 -1 0
96.495346 40.492966 35 1.563228e-05 0.0001310134 -1 0
97.288635 40.532963 35 -0.019338714 -0.010218303 -0.99976075 0.00071516586
8.5841274 41.531361 35 9.3099643e-06 -8.7213572e-05 -1 0
9.5000172 41.49855 35 3.561236e-05 0.00020826566 -1 0
10.500583 41.499649 35 -2.7133574e-05 -0.00015172568 -1 0
11.499811 41.499306 35 -3.7847654e-05 -0.00010476597 -1 0
12.501603 41.501034 35 0 0 -1 0
13.503759 41.49847 35 3.78308e-05 1.7766499e-08 -1 0
14.501341 41.500759 35 3.7787268e-05 -0.00010450925 -1 0
15.503556 41.496292 35 -0 -0 -1 0
16.503716 41.494755 35 -1.5847125e-08 0.00030330603 -1 0
17.502687 41.500965 35 0.00036653705 0.00015174893 -0.99999994 6.1868799e-05
18.504293 41.498421 35 0.012313614 0.0071219224 -0.99989885 0.00028098581
19.498159 41.496922 35.002632 0.02167023 0.011214444 -0.99970222 0.00017337986
86.506683 41.497433 35.004181 -0.019390509 0.010343395 -0.99975854 0.00014829141
87.499916 41.502129 35 -0.011012774 0.0064307125 -0.9999187 0.00017475744
88.498024 41.49744 35 -0.00062985276 -0.00015272984 -0.99999982 6.1929131e-05
89.499275 41.500164 35 -0.00041947913 -0.0003052617 -0.99999982 0
90.499748 41.499565 35 -0 0.00010511932 -1 0
91.500809 41.501514 35 0.00090670318 -0.00010410685 -0.99999958 0
92.502899 41.49688 35 -0.00030413904 -7.6778559e-07 -1 0
93.501427 41.500874 35 -0.00020971583 -0.0001528053 -1 0
94.496811 41.494843 35 -0.00020934839 -0.00015209698 -1 0
95.497513 41.496624 35 -0 -0 -1 0
96.498589 41.500359 35 -0.026830245 -0.0037032904 -0.99963307 0.00073984149
97.402374 41.522991 35 -0.019012244 -0.0017473348 -0.99981773 0.00086498354
7.9277787 42.680271 35 0 0 -1 0
8.4997931 42.500301 35 0.00010803311 0.00011616949 -1 0
9.4980555 42.497719 35 0 0 -1 0
10.502569 42.498287 35 2.6187938e-05 -0.00015161299 -1 0
11.50325 42.499222 35 -5.1627687e-08 -0.00010465727 -1 0
12.496711 42.49868 35 7.5787713e-05 -0.00020927069 -1 0
13.497484 42.497688 35 -0 -0 -1 0
14.500143 42.502541 35 -2.6171845e-05 -5.9337619e-09 -1 0
15.497644 42.49876 35 0 0 -1 0
16.497612 42.500519 35 5.2530952e-05 0.00015167036 -1 0
17.503031 42.494263 35 0.014311457 0.0018298781 -0.99989593 0.00037394956
18.502707 42.493874 35 0.014077609 0.0044790655 -0.9998908 0.00027068955
19.472183 42.493462 35.101051 0.016643446 0.0033388159 -0.99985588 0.00026524925
86.526878 42.494453 35.088211 -0.015580122 0.0029775689 -0.99987423 0.00016154394
87.499306 42.502163 35 -0.014845095 0.0015614134 -0.9998886 0.00015904373
88.501686 42.497391 35 -0.01244742 0.0016898791 -0.99992114 0.00021852036
89.499504 42.50206 35 -2.8714572e-07 -0.00010503153 -1 0
90.499832 42.49939 35 -0.00030362594 0.00020972794 -0.99999994 0
91.500237 42.499271 35 0 0 -1 0
92.496361 42.495274 35 0.00030277605 -0.00020971944 -0.99999994 0
93.495613 42.494911 35 0.00060380157 0.00010441539 -0.99999982 0
94.501785 42.501553 35 6.3424878e-08 -0.00010477789 -1 0
95.502083 42.497684 35 0.00030339998 -6.3452882e-07 -1 0
96.498474 42.501862 35 -0.016603915 0.012552162 -0.9997834 0.00098581845
97.49453 42.504044 35 -0.018238124 0.0072457986 -0.99980742 0.00097033288
98.051743 42.785168 35 -0.019805277 0.012940821 -0.9997201 0.00098232634
7.851634 43.544518 35 3.847434e-05 -7.9929465e-05 -1 0
8.5008125 43.500988 35 4.1171508e-05 -0.0001059571 -1 0
9.500906 43.498676 35 -1.6836073e-05 0.00022377538 -1 0
10.49909 43.500751 35 3.7803326e-05 -0.00010453498 -1 0
11.500452 43.50005 35 -3.7859958e-05 0.00010452503 -1 0
12.501519 43.499249 35 5.228923e-05 -0.00015151119 -1 0
13.503662 43.500011 35 -2.6122992e-05 -0.00015139056 -1 0
14.502576 43.50066 35 -7.8680627e-05 0.00015126079 -1 0
15.498143 43.499184 35 8.7140393e-08 -0.00015119453 -1 0
16.497385 43.499287 35 -1.735868e-07 -0.00010415602 -1 0
17.50102 43.498184 35 7.55031e-05 5.9085274e-08 -1 0
18.506399 43.507305 35 0.017836813 -0.0017367901 -0.99983937 0.00026942222
87.499992 43.49894 35 -0.015697468 0.00077969494 -0.9998765 0.00030213213
88.49826 43.502022 35 0 0 -1 0
89.501129 43.500046 35 2.8678119e-07 0.00015193029 -1 0
90.496246 43.495583 35 0.00020911756 1.2704591e-07 -0.99999994 0
91.494522 43.495426 35 -0.00020973154 0 -1 0
92.498283 43.499687 35 0.00020830338 0.00030169162 -0.99999994 0
93.499146 43.499569 35 0.00041654173 -0.00015237562 -0.99999994 0
94.501968 43.500813 35 0.00041736316 -7.5620682e-07 -0.99999994 0
95.501991 43.497925 35 6.3362172e-08 -0.00015130886 -1 0
96.497826 43.501602 35 0 0 -1 0
97.499817 43.498985 35 -0.011663835 0.0152643 -0.99981546 0.0009778915
98.14399 43.573231 35 -0.019625103 0.018406074 -0.99963796 0.00080168451
7.7665 44.531559 35 0 0 -1 0
8.4996014 44.501186 35 2.1590606e-05 -0.00012347805 -1 0
9.5003452 44.498306 35 4.3864035e-05 -0.0002229815 -1 0
10.499836 44.50111 35 0 0 -1 0
11.50004 44.499947 35 2.6085077e-05 0.00015108925 -1 0
12.50133 44.498825 35 3.8072045e-05 -0.00010436352 -1 0
13.497933 44.501366 35 7.5613534e-05 0.00010404849 -1 0
14.500254 44.502014 35 -3.9609251e-08 -0.00010447138 -1 0
15.503871 44.508469 35 0 -0.00030316811 -1 0
16.502472 44.508537 35 5.2387993e-05 0.00015163881 -1 0
17.500687 44.50256 35 0.0011427382 0.00073603378 -0.99999905 0
18.499424 44.500851 35 0.027662894 0.0054749437 -0.99960232 0.0003009866
87.499634 44.499489 35 -0.026188932 0.0071298103 -0.99963158 0.00028786287
88.498184 44.499985 35 -0.0039630597 0.0022991491 -0.99998957 0
89.494514 44.492466 35 -3.1559065e-08 0.00015085233 -1 0
90.49855 44.49604 35 -2.2015027e-07 0.00015033119 -1 0
91.498474 44.501392 35 -0.00030294873 0.00010473469 -0.99999994 0
92.499763 44.498684 35 -0 -0 -1 0
93.499924 44.501293 35 0.00020860364 0.00030145288 -0.99999994 0
94.500809 44.498653 35 -0 0.00010428615 -1 0
95.499672 44.500381 35 0.00020961925 0.00015155034 -0.99999994 0
96.498512 44.501682 35 0.00027886222 4.6477038e-05 -0.99999994 0
97.500412 44.499004 35 0.00038433995 0.00029221547 -0.99999994 0
98.256531 44.539684 35 -0.00051258871 3.1467924e-05 -0.99999994 0
7.6813664 45.524014 35 5.8202429e-05 2.4397398e-06 -1 0
8.5027542 45.500725 35 4.3143875e-05 7.4023569e-07 -1 0
9.5027113 45.500324 35 -2.4228544e-05 0.00013928923 -1 0
10.49869 45.50034 35 -0 -0 -1 0
11.498764 45.50024 35 1.5838024e-08 0.00020907378 -1 0
12.504273 45.508129 35 2.6136382e-05 -6.3495612e-08 -1 0
13.502304 45.511772 35 -5.2329175e-05 -0.00015169109 -1 0
14.502312 45.50526 35 -2.5929923e-05 0.0001521399 -1 0
15.498843 45.497955 35 5.2044845e-05 -0.00015172921 -1 0
16.497972 45.499115 35 0.0014717574 0.0001565274 -0.99999887 0
17.499439 45.498985 35 0.011809991 0.0061150566 -0.99991155 0.00029457471
18.487886 45.496758 35.010796 0.014662099 0.007393125 -0.99986517 0.00027640455
87.51162 45.498268 35.030144 -0.033353973 0.029806143 -0.99899906 0.00054655375
88.497879 45.503559 35 -0.015625587 0.0076174298 -0.9998489 0.00030130093
89.49971 45.508148 35 -0.004189238 -0.00058523979 -0.99999106 0
90.501511 45.509377 35 -3.1606658e-07 0.00015133267 -1 0
91.502083 45.508099 35 -0.00041923893 0.00015206939 -0.99999994 0
92.501801 45.507496 35 -1.9091064e-07 -0.00015183758 -1 0
93.502274 45.509865 35 0.00020961942 0.00015191842 -1 0
94.501884 45.505455 35 2.5509019e-07 0.0001521613 -1 0
95.500336 45.50843 35 -0.00020971666 0.00015163932 -1 0
96.498161 45.505676 35 -0.00021930035 7.9963672e-07 -1 0
97.494339 45.500088 35 -0.00034257965 4.8929669e-06 -0.99999988 0
98.342468 45.512516 35 0.00094505103 -0.00020708289 -0.99999958 0
7.5937519 46.516895 35 5.7283658e-05 0.00019788419 -1 0
8.4977083 46.502552 35 -4.0587154e-05 -5.8502275e-07 -1 0
9.5013981 46.506077 35 2.6335887e-05 -0.0001521754 -1 0
10.502728 46.512566 35 0 0 -1 0
11.503612 46.503895 35 -2.614969e-05 -5.7870952e-08 -1 0
12.499925 46.49889 35 -2.6322607e-05 -0.00015233581 -1 0
13.500624 46.500809 35 4.801737e-07 0.00045829581 -0.99999994 0
14.49859 46.500637 35 -7.6059398e-05 -0.0002098754 -1 0
15.499131 46.49987 35 3.1864111e-08 0.00010504203 -1 0
16.500986 46.499256 35 0.012388578 0.0010782841 -0.99992269 0.00015791338
17.49917 46.49865 35 0.015064192 0.00090913603 -0.9998861 0.00027533388
18.47204 46.497066 35.087238 0.015949093 0.0028327222 -0.99986875 0.00027296439
87.528831 46.494778 35.104259 -0.046065964 0.016948108 -0.99879462 0.00088815659
88.499702 46.498821 35 -0.03782903 0.011489283 -0.99921823 0.00096842233
89.501488 46.501472 35 -0.014760102 -0.0016573595 -0.99988967 0.0003059805
90.500961 46.501465 35 0.00020896639 0.00015240454 -1 0
91.501472 46.498035 35 -0.00091234455 0.00010492314 -0.99999958 0
92.501022 46.501247 35 0.00020930011 -0.00015248641 -1 0
93.500465 46.501926 35 -0.00041982208 -2.0504133e-06 -0.99999994 0
94.500961 46.499371 35 -8.9397992e-07 -0.00030497485 -1 0
95.497551 46.493603 35 -0 -0 -1 0
