# .PCD v0.7 - Point Cloud Data file format
VERSION 0.7
FIELDS x y z normal_x normal_y normal_z curvature
SIZE 4 4 4 4 4 4 4
TYPE F F F F F F F
COUNT 1 1 1 1 1 1 1
WIDTH 459
HEIGHT 1
VIEWPOINT 0 0 0 1 0 0 0
POINTS 459
DATA ascii
88.891678 29.496161 -1114 -0.80550927 -0.5925473 -0.0065086833 0.15767159
90.952972 29.496161 -1114 -0.70312279 -0.67246473 0.23110515 0.16392159
90.952972 27.434866 -1114 -0.80550927 -0.5925473 -0.0065086833 0.15767159
93.014267 27.434866 -1114 -0.48715848 -0.50536221 0.71223986 0.04532896
91.197906 25.441902 -1117 -0.48527837 -0.50641561 0.71277493 0.04666023
93.181267 25.419125 -1116 -0.50405657 -0.49215403 0.70972621 0.044790972
95.160912 25.396347 -1115 -0.36269292 -0.58798099 0.72300231 0.10736642
97.04966 25.350794 -1113 -0.49108347 -0.70227629 0.51540774 0.11468893
93.264755 23.375055 -1117 -0.51294845 -0.41868022 0.74939364 0.049441807
95.160912 23.3332 -1115 -0.36323577 -0.33010149 0.87125933 0.12056421
97.136864 23.312275 -1114 -0.45777363 -0.48999539 0.74185431 0.15953939
99.465294 23.375055 -1117 -0.42735472 -0.51763821 0.74122781 0.16475885
92.763786 21.19375 -1111 0.64245611 0.35168117 0.6808601 0.15925021
95.075562 21.250978 -1114 0.58889067 0.4086118 0.69731212 0.15595298
97.311256 21.289131 -1116 0.51717645 0.2075043 0.83034366 0.15253137
99.465294 21.308208 -1117 0.18303359 0.60867918 0.77201581 0.1606577
101.07765 21.212826 -1112 -0.63376111 0.072817229 0.77009392 0.13249001
94.904869 19.155231 -1112 0.17626742 0.21717061 0.96008688 0.17929503
97.22406 19.206911 -1115 0.36459693 0.59962946 0.71239984 0.089089178
99.376251 19.224134 -1116 0.062953144 0.57840776 0.81331515 0.14691605
101.07765 19.155231 -1112 -0.29370919 0.29203588 0.91019237 0.15558565
103.13525 19.155231 -1112 -0.2592389 0.27999115 0.92433774 0.16050218
99.109108 17.113012 -1113 -0.19105038 0.21975432 0.95666504 0.13862558
101.16856 17.113012 -1113 -0.29504496 -0.048146091 0.95426953 0.10695495
103.228 17.113012 -1113 0.029908279 0.43764752 0.8986491 0.1469668
105.38204 17.128387 -1114 -0.21054012 0.28849256 0.93404758 0.13612032
101.07765 15.040041 -1112 0.13690855 0.59245265 0.7938866 0.07480742
103.228 15.053566 -1113 0.058602173 0.60753089 0.7921313 0.078084469
105.19284 15.040041 -1112 0.04353347 0.61985838 0.7835052 0.046687603
102.85701 12.947421 -1109 -0.1501905 0.51188672 0.84582198 0.067507759
104.90905 12.947421 -1109 0.033920914 0.45447931 0.89011115 0.11210468
106.96111 12.947421 -1109 0.061317701 0.22913276 0.97146195 0.10966118
102.76426 10.885552 -1108 -0.35052714 0.056744087 0.93483198 0.15732978
104.81445 10.885552 -1108 0.12554695 -0.27112365 0.95432168 0.03690077
106.96111 10.895377 -1109 -0.037947368 -0.37353751 0.92683852 0.043178961
109.01314 10.895377 -1109 -0.30607718 -0.27362889 0.91183549 0.064350069
110.96503 10.885552 -1108 -0.38498634 -0.30092603 0.87248445 0.054270554
102.85701 8.8433332 -1109 0.089728795 -0.49684227 0.86318982 0.067190215
105.00365 8.8513079 -1110 -0.068719767 -0.58895564 0.80523843 0.064419858
107.05755 8.8513079 -1110 0.014287169 -0.48187342 0.87612438 0.05526622
109.11144 8.8513079 -1110 -0.44176552 -0.24024288 0.86436486 0.038488146
110.86488 8.8273849 -1107 -0.5365414 -0.24441862 0.80770224 0.030415347
103.13525 6.8096614 -1112 -0.31988937 -0.69307297 0.64600366 0.046532754
105.28745 6.8157845 -1113 -0.46212617 -0.56328559 0.68494439 0.092267141
107.154 6.8035374 -1111 -0.45615399 -0.33887273 0.82285398 0.054478083
109.11144 6.7974133 -1110 -0.52355516 -0.18170445 0.83239019 0.041808598
110.96503 6.7851658 -1108 -0.61427373 -0.059959751 0.78681165 0.021894015
101.44125 4.7691598 -1116 -0.69312096 -0.075553581 0.71685064 0.06069652
103.50625 4.7691598 -1116 -0.69313878 -0.075432837 0.71684617 0.060701162
105.38204 4.760613 -1114 -0.69267154 -0.07658039 0.7171762 0.064266115
107.25044 4.7520661 -1112 -0.72912943 0.069131985 0.68087524 0.03086015
109.11144 4.7435193 -1110 -0.63546842 0.1703404 0.75310296 0.025708687
111.06519 4.7392459 -1109 -0.74302751 0.1008063 0.6616255 0.021609375
101.44125 2.7041636 -1116 -0.73229569 -0.020888459 0.68066627 0.063307896
103.50625 2.7041636 -1116 -0.7321856 -0.020817094 0.68078691 0.063385114
105.28745 2.6968942 -1113 -0.74948114 0.0050908774 0.66200614 0.062076598
107.154 2.6920478 -1111 -0.68131244 0.24801701 0.68869513 0.01810828
109.01314 2.6872017 -1109 -0.65572143 0.23945561 0.71602404 0.015956648
110.96503 2.6847787 -1108 -0.5611726 0.20352195 0.80228674 0.0066049923
105.19284 0.63687611 -1112 -0.61573046 0.49812213 0.61053288 0.027820738
107.05755 0.63573068 -1110 -0.56398749 0.48869076 0.6656571 0.03056694
108.91484 0.6345852 -1108 -0.58832276 0.32614619 0.73993582 0.029343128
110.86488 0.63401252 -1107 -0.3901189 0.27779749 0.87785864 0.042648204
112.81123 0.63343972 -1106 -0.52020526 0.20825218 0.82826179 0.044010956
104.81445 -1.4156083 -1108 -0.22666539 0.53074539 0.81665921 0.072369881
106.86465 -1.4156083 -1108 -0.16126318 0.25315663 0.95388985 0.057930388
108.91484 -1.4156083 -1108 -0.35025999 0.31766376 0.88113993 0.054309763
110.66459 -1.4117755 -1105 -0.35361466 0.18187025 0.91754013 0.049499534
112.81123 -1.4130532 -1106 -0.27553806 -0.15607533 0.94853538 0.076527722
104.71986 -3.4626739 -1107 0.4986887 0.097238481 0.86130959 0.025291352
106.7682 -3.4626739 -1107 0.28368229 0.03623306 0.95823354 0.07253205
108.91484 -3.465802 -1108 0.011882061 -0.32323867 0.94624299 0.093611017
110.86488 -3.4626739 -1107 -0.25502947 -0.43049851 0.8658123 0.065790065
112.81123 -3.4595461 -1106 -0.28220701 -0.39059001 0.87624121 0.050621733
102.39327 -5.4960823 -1104 0.58724385 0.047009304 0.80804372 0.048474364
104.62526 -5.5060387 -1106 0.58762825 0.046881992 0.80777162 0.047856875
106.86465 -5.5159955 -1108 0.48660451 0.030560693 0.87308764 0.029756345
109.11144 -5.5259519 -1110 0.11230876 -0.15453999 0.9815824 0.066288285
111.06519 -5.5209737 -1109 -0.13975157 -0.33212069 0.93282664 0.075475454
113.01523 -5.5159955 -1108 -0.38742918 -0.35024309 0.85277689 0.040593229
115.06542 -5.5159955 -1108 -0.14512613 -0.27130374 0.95148975 0.038115047
102.39327 -7.5388741 -1104 0.56440735 0.03219058 0.8248685 0.049743399
104.62526 -7.5525312 -1106 0.56590235 0.03233299 0.82383806 0.048336741
106.86465 -7.5661893 -1108 0.52078617 0.1447937 0.84131831 0.022198563
109.01314 -7.5730176 -1109 0.19123943 0.21813332 0.95699805 0.052988704
111.06519 -7.5730176 -1109 -0.065321691 0.31795752 0.9458521 0.044301674
113.11723 -7.5730176 -1109 -0.20634918 0.21052592 0.95556206 0.03765358
115.06542 -7.5661893 -1108 -0.088354751 0.15628199 0.98375267 0.019629223
102.67151 -9.6077032 -1107 0.47125086 -0.071725048 0.87907797 0.049599376
104.62526 -9.5990248 -1106 0.29369536 -0.041950725 0.95497823 0.078050449
106.7682 -9.6077032 -1107 0.23105878 0.2079314 0.95046109 0.036441501
108.91484 -9.6163826 -1108 0.22457847 0.43382654 0.87255895 0.0092688203
110.96503 -9.6163826 -1108 0.099315599 0.43371394 0.8955605 0.01899608
113.01523 -9.6163826 -1108 -0.073017463 0.31435648 0.94649273 0.025365938
115.06542 -9.6163826 -1108 -0.06760259 0.1619896 0.98447406 0.0309544
104.71986 -11.656047 -1107 -0.052155178 -0.063101433 0.99664342 0.03122591
106.67175 -11.645517 -1106 0.084238261 0.16868459 0.98206383 0.084070481
108.71825 -11.645517 -1106 0.0016997833 0.45370099 0.89115232 0.037214927
110.86488 -11.656047 -1107 0.11660021 0.52212757 0.84485924 0
112.91322 -11.656047 -1107 0.18470973 0.42498446 0.88615489 0
114.96157 -11.656047 -1107 0.097942568 0.35978225 0.92788148 0
117.11562 -11.666576 -1108 0.047834694 0.2392634 0.96977568 0.01461631
104.71986 -13.70439 -1107 -0.23025548 -0.17315012 0.9576019 0.048709281
106.7682 -13.70439 -1107 -0.45556486 -0.13701458 0.87959516 0.028868275
108.61995 -13.67963 -1105 -0.2543608 0.1810838 0.95000488 0.083911367
110.66459 -13.67963 -1105 0.024499791 0.32735258 0.94458461 0.029790776
112.81123 -13.69201 -1106 0.25113618 0.38765597 0.88693494 0.015736325
114.96157 -13.70439 -1107 0.26818317 0.36084482 0.89323497 0.020064205
102.67151 -15.752733 -1107 0.13011573 -0.019151144 0.99131387 0.0090908716
104.81445 -15.766963 -1108 0.041961223 -0.015773298 0.99899471 0.013049194
106.86465 -15.766963 -1108 -0.34287381 -0.22791831 0.9113127 0.068110712
108.61995 -15.724273 -1105 -0.54601508 -0.10272454 0.83145374 0.047209207
110.56444 -15.710043 -1104 -0.16799629 0.058676757 0.98403978 0.06712734
112.70924 -15.724273 -1105 0.24047455 0.2255256 0.94409227 0.025701217
102.67151 -17.801077 -1107 0.14888106 0.10858987 0.98287469 0.025152195
104.81445 -17.817158 -1108 0.086869359 0.14266934 0.98595083 0.029033758
106.86465 -17.817158 -1108 -0.28003085 0.11386639 0.95321417 0.065874718
108.81654 -17.801077 -1107 -0.5147329 0.059173349 0.85530609 0.044024862
110.66459 -17.768915 -1105 -0.30045217 0.008104505 0.95376247 0.034316223
112.70924 -17.768915 -1105 -0.15623228 0.08660198 0.9839164 0.048714072
102.67151 -19.849421 -1107 -0.19416203 -0.0065121548 0.98094791 0.013807689
104.71986 -19.849421 -1107 -0.10347689 0.21616188 0.97085869 0.027769115
106.7682 -19.849421 -1107 -0.1672428 0.28289708 0.94445705 0.029140441
108.71825 -19.83149 -1106 -0.42367741 0.069951147 0.90310812 0.041616186
110.66459 -19.813559 -1105 -0.27502543 0.034960128 0.96080112 0.044724561
112.60723 -19.795628 -1104 -0.11384428 -0.044699013 0.99249256 0.023267096
114.75388 -19.813559 -1105 0.27080411 -0.10086495 0.95733553 0.061896771
25.081249 -22.115355 -1118 -0.74586153 0.19102475 0.63812238 0.029229486
102.67151 -21.897762 -1107 -0.17999133 0.00060442917 0.98366803 0.015908295
104.62526 -21.877981 -1106 -0.29089406 0.069591209 0.95422101 0.046423662
106.67175 -21.877981 -1106 -0.24665341 -0.070839822 0.96651119 0.022428019
108.61995 -21.8582 -1105 -0.31903762 -0.036132414 0.94705302 0.029034831
110.66459 -21.8582 -1105 -0.21303496 -0.037461262 0.97632611 0.026489811
112.60723 -21.838421 -1104 -0.039393064 -0.010664845 0.99916691 0.013431358
114.75388 -21.8582 -1105 0.25464395 -0.2160036 0.94260222 0.073007464
25.103682 -24.205683 -1119 -0.74573642 0.19148467 0.63813061 0.029164283
27.125662 -24.16242 -1117 -0.73898739 -0.057629209 0.67124999 0.030155718
29.087969 -24.075895 -1113 -0.77935839 -0.0011209542 0.6265775 0.044890579
98.931015 -24.032631 -1111 -0.47397253 -0.066809811 0.87800145 0.041862722
100.71407 -23.967737 -1108 -0.46483392 -0.22841716 0.85542679 0.014672197
102.76426 -23.967737 -1108 -0.31798756 -0.2410741 0.91693366 0.017054209
104.71986 -23.946106 -1107 -0.24160974 -0.20930618 0.9475314 0.0055426587
106.7682 -23.946106 -1107 -0.35552227 -0.14451297 0.9234283 0.039094407
108.71825 -23.924475 -1106 -0.33525693 -0.072548486 0.93932933 0.025765585
110.66459 -23.902843 -1105 -0.22874409 -0.1592738 0.96036869 0.067811005
112.70924 -23.902843 -1105 0.32303193 -0.30382872 0.89629149 0.057526037
115.06542 -23.967737 -1108 0.53958362 -0.41186833 0.73431188 0.029332336
25.081249 -26.252748 -1118 -0.61331314 0.21607076 0.75971067 0.056657057
27.125662 -26.229267 -1117 -0.72143137 0.077005602 0.68819106 0.059017811
29.087969 -26.13534 -1113 -0.54712635 -0.093599826 0.8318004 0.16713926
98.931015 -26.088377 -1111 -0.45736128 0.15322909 0.87598032 0.024369361
100.89587 -26.064894 -1110 -0.44327807 -0.084772758 0.89236659 0.05067892
104.81445 -26.017931 -1108 -0.33903241 -0.12142175 0.93290615 0.022120925
106.7682 -25.99445 -1107 -0.41237038 -0.1652111 0.89591068 0.0086992066
108.71825 -25.970968 -1106 -0.29306445 -0.14048579 0.94571507 0.060438752
110.66459 -25.947485 -1105 0.01340684 -0.26967245 0.96285874 0.063086234
112.91322 -25.99445 -1107 0.44951248 -0.44138107 0.77660888 0.07211154
115.27312 -26.064894 -1110 0.51577526 -0.51999545 0.68086761 0.034272242
23.053719 -28.372112 -1120 -0.85869706 0.084413081 0.50548375 0.040287614
25.058815 -28.296114 -1117 -0.59786147 0.20863765 0.77397162 0.05263624
27.101376 -28.270782 -1116 -0.65257853 0.029949415 0.75712901 0.10541926
29.114103 -28.220118 -1114 -0.18322627 -0.30628493 0.93414009 0.1271442
98.841972 -28.11879 -1110 -0.59814924 0.30441499 0.74131578 0.039670702
100.89587 -28.11879 -1110 -0.41684699 0.10718375 0.90263516 0.040230501
104.81445 -28.068125 -1108 -0.31306249 -0.076278403 0.94666445 0.03700177
106.7682 -28.042793 -1107 -0.32866135 -0.026414275 0.94407845 0.051316444
108.71825 -28.01746 -1106 -0.300594 -0.25429773 0.91922569 0.040316436
110.66459 -27.992128 -1105 0.0032942081 -0.39668971 0.91794688 0.075549848
113.01523 -28.068125 -1108 0.53787023 -0.47058359 0.69946176 0.038279213
23.115469 -30.526058 -1123 -0.82214135 -0.093646474 0.56152821 0.081759639
25.013945 -30.308596 -1115 -0.57522541 0.084939554 0.81357306 0.081328809
27.052807 -30.281414 -1114 -0.30547509 -0.21488324 0.9276368 0.10249007
29.166372 -30.335777 -1116 0.2065181 -0.0030321484 0.97843808 0.071663171
31.259356 -30.362963 -1117 -0.23305967 -0.15595385 0.95987582 0.10417855
96.875275 -30.199865 -1111 -0.30199707 0.39173219 0.8691051 0.020877533
98.752922 -30.1455 -1109 -0.49770316 0.4167482 0.76066577 0.019370724
104.71986 -30.091135 -1107 0.14983632 -0.048209287 0.98753482 0.052759819
106.86465 -30.118319 -1108 -0.092780702 -0.2681562 0.95889729 0.0730737
108.91484 -30.118319 -1108 -0.044184674 -0.39650321 0.91696942 0.054559037
25.058815 -32.42981 -1117 -0.66402847 -0.44539371 0.60057515 0.077989846
27.101376 -32.400776 -1116 -0.29113123 -0.42035291 0.85938698 0.077086031
29.166372 -32.400776 -1116 -0.27389693 -0.38352573 0.88197994 0.10122106
31.231369 -32.400776 -1116 -0.14802136 -0.33653694 0.92996371 0.06852185
33.236694 -32.342709 -1114 -0.82033843 -0.23081645 0.52322906 0.052865218
94.734184 -32.226578 -1110 -0.20766391 0.53754681 0.81726313 0.0094924951
96.788078 -32.226578 -1110 -0.06612657 0.38962072 0.91859835 0.018343966
98.752922 -32.197544 -1109 -0.4444361 0.35458645 0.82264507 0.029650172
100.53228 -32.110447 -1106 -0.30075431 0.17867014 0.93681574 0.049011771
102.57877 -32.110447 -1106 0.018717146 -0.052958373 0.99842125 0.088393606
104.71986 -32.139477 -1107 0.3862454 -0.24564564 0.88908535 0.048135746
106.96111 -32.197544 -1109 0.085116759 -0.36877656 0.92561281 0.047367163
108.91484 -32.16851 -1108 0.13952066 -0.43577972 0.88917369 0.026057659
27.174229 -34.558422 -1119 -0.42898124 -0.43283838 0.79285938 0.04288562
29.192509 -34.496655 -1117 -0.24880965 -0.17991582 0.95169538 0.053754143
31.231369 -34.465771 -1116 -0.54344678 -0.12727687 0.82973862 0.064216897
33.147186 -34.311356 -1111 -0.81416917 -0.19859867 0.54560721 0.04375191
35.107876 -34.218704 -1108 -0.66178042 -0.36280161 0.65606529 0.081198327
37.15807 -34.218704 -1108 -0.45500922 -0.50051582 0.73651236 0.053041611
90.626396 -34.280472 -1110 -0.2218295 0.47821298 0.84976709 0.16711065
92.51329 -34.218704 -1108 -0.41399544 0.4542146 0.78885794 0.050345689
94.563484 -34.218704 -1108 -0.091129325 0.56826383 0.81778467 0.033252534
96.613678 -34.218704 -1108 -0.059469178 0.51980227 0.85221416 0.025260279
98.663872 -34.218704 -1108 -0.25700742 0.25398201 0.93243784 0.068780601
100.62317 -34.18782 -1107 -0.1852691 -0.040485866 0.98185349 0.056185804
102.67151 -34.18782 -1107 0.20887098 -0.20484051 0.95624954 0.047828246
104.90905 -34.249588 -1109 0.43763497 -0.35168752 0.82752126 0.030985786
107.05755 -34.280472 -1110 0.27799603 -0.41025686 0.86856633 0.054669324
109.01314 -34.249588 -1109 0.27579424 -0.41000885 0.86938494 0.05526711
29.218643 -36.596233 -1118 -0.65685475 -0.36997524 0.65700847 0.037140321
31.231369 -36.530766 -1116 -0.69991755 -0.15021174 0.69824916 0.019996304
33.206856 -36.432568 -1113 -0.7395255 -0.18188247 0.64809006 0.043956365
35.171249 -36.334366 -1110 -0.47523957 -0.4189463 0.77371275 0.055160888
37.258675 -36.3671 -1111 -0.51927596 -0.46165696 0.7191838 0.053689815
39.243649 -36.301632 -1109 -0.20203789 -0.37706685 0.90388119 0.03489789
86.206825 -36.20343 -1106 0.34621242 0.56635201 0.74791867 0.066642851
88.572502 -36.334366 -1110 0.1616305 0.5882557 0.79235774 0.16187954
90.708038 -36.3671 -1111 -0.45831698 0.48412839 0.74536252 0.047037378
92.51329 -36.268898 -1108 -0.47999883 0.29304543 0.82687694 0.058756519
94.478142 -36.236164 -1107 -0.020004973 0.41190034 0.91100931 0.039753512
96.526482 -36.236164 -1107 0.0013854635 0.42760634 0.90396398 0.0024475176
98.663872 -36.268898 -1108 0.074422665 0.31780255 0.94523156 0.027432026
100.62317 -36.236164 -1107 0.037297364 -0.07630644 0.99638659 0.039540872
102.76426 -36.268898 -1108 0.35458356 0.0385896 0.93422765 0.056430273
105.09825 -36.3671 -1111 0.43813512 -0.24255124 0.86556715 0.040726032
107.154 -36.3671 -1111 0.41379663 -0.33416918 0.84681946 0.062934957
109.20974 -36.3671 -1111 0.34409726 -0.35798964 0.86800951 0.053815007
29.297047 -38.768684 -1121 -0.76772386 -0.32201609 0.55399066 0.012619238
31.259356 -38.630348 -1117 -0.76587534 -0.31435692 0.56090522 0.011593604
33.236694 -38.526596 -1114 -0.7505846 -0.28862336 0.5944066 0.018756025
35.234615 -38.457428 -1112 -0.63114274 -0.072202161 0.77229905 0.055993013
37.258675 -38.422848 -1111 -0.35845745 -0.086634465 0.92951751 0.028423924
39.279037 -38.38826 -1110 -0.30747297 -0.22184691 0.92533475 0.044759527
41.295692 -38.353676 -1109 -0.16071981 -0.31534189 0.9352693 0.053214025
43.34774 -38.353676 -1109 0.35190329 -0.40246755 0.84509408 0.052400045
45.522594 -38.457428 -1112 0.50250965 -0.48176661 0.7179032 0.025972171
84.084236 -38.21534 -1105 0.24351758 0.54167497 0.80454177 0.081993885
86.206825 -38.249924 -1106 0.26643121 0.66480356 0.69789016 0.068023913
88.492699 -38.353676 -1109 0.20084712 0.72954226 0.65378022 0.10960206
90.626396 -38.38826 -1110 -0.46143359 0.57970321 0.67158264 0.070346579
92.51329 -38.319096 -1108 -0.41767833 0.58465397 0.69550318 0.062116612
94.392799 -38.249924 -1106 -0.019144075 0.45928821 0.88808095 0.036167007
96.439285 -38.249924 -1106 0.038433831 0.51368529 0.85711741 0.031267595
98.574821 -38.284508 -1107 0.22892059 0.30136585 0.92562085 0.010280886
100.62317 -38.284508 -1107 0.26078925 0.13515814 0.95588762 0.017023824
102.76426 -38.319096 -1108 0.50884902 -0.031076217 0.8602947 0.026759993
104.90905 -38.353676 -1109 0.53575736 -0.039625771 0.84344161 0.0053686332
29.297047 -40.842934 -1121 -0.7677964 -0.32217374 0.5537985 0.01284403
31.259356 -40.697197 -1117 -0.80030197 -0.2691645 0.53578663 0.0083929691
33.266533 -40.624329 -1115 -0.73538995 -0.34581229 0.5827654 0.040494531
35.234615 -40.515022 -1112 -0.62769854 -0.25484413 0.73556036 0.052015249
37.225143 -40.442154 -1110 -0.24990064 -0.094220437 0.96367633 0.044869471
39.279037 -40.442154 -1110 -0.099773854 -0.363821 0.92610985 0.03653983
41.332932 -40.442154 -1110 0.0015245993 -0.42717505 0.90416759 0.032204814
43.425911 -40.478592 -1111 0.43455112 -0.47022644 0.76814872 0.035353135
45.604469 -40.587891 -1114 0.50915539 -0.054187942 0.85896707 0.054343481
47.751339 -40.660759 -1116 0.26838097 0.10675255 0.95737952 0.090139054
49.771698 -40.624329 -1115 -0.21249217 0.21646219 0.95288569 0.076900624
51.834846 -40.624329 -1115 -0.38301978 0.40826249 0.82862395 0.034066271
53.752972 -40.515022 -1112 -0.45514441 0.30173653 0.83773422 0.046365365
82.039597 -40.259979 -1105 -0.2311767 0.071883023 0.97025257 0.07945437
84.008141 -40.223549 -1104 -0.25382617 0.12725213 0.95884258 0.087854505
86.050934 -40.223549 -1104 0.15825212 0.4019759 0.90187114 0.065907121
88.333107 -40.332851 -1107 0.24762169 0.73619658 0.6298396 0.070872247
90.218163 -40.259979 -1105 -0.051587474 0.81583023 0.57598591 0.032907538
92.26281 -40.259979 -1105 -0.14643867 0.67817199 0.72016555 0.040192358
94.307449 -40.259979 -1105 0.065513253 0.63920373 0.76624179 0.030451294
96.352089 -40.259979 -1105 0.20907462 0.41404971 0.88591796 0.016165799
98.485786 -40.296417 -1106 0.33605114 0.28370881 0.89809734 0.017105818
100.62317 -40.332851 -1107 0.40612099 0.11305057 0.90679944 0.027799709
102.76426 -40.369286 -1108 0.50223511 -0.046251226 0.86349326 0.01603741
105.00365 -40.442154 -1110 0.48880327 -0.037387945 0.87159252 0.010459735
35.20293 -42.534336 -1111 -0.59765786 -0.4721339 0.64799279 0.062647894
37.258675 -42.534336 -1111 -0.2508516 -0.49929872 0.82932156 0.074265502
39.314419 -42.534336 -1111 0.074447326 -0.41311044 0.90763277 0.038166866
41.407402 -42.572617 -1112 0.24384867 -0.45793015 0.85489053 0.024930688
43.465 -42.572617 -1112 0.40531397 -0.25733459 0.87721115 0.036038321
45.604469 -42.649189 -1114 0.52895808 0.18014194 0.82930821 0.042464912
47.708553 -42.687473 -1115 0.096416876 0.26783097 0.95862937 0.028908156
49.771698 -42.687473 -1115 -0.13561228 0.42524236 0.89486212 0.039456032
51.788357 -42.649189 -1114 -0.40480447 0.37733054 0.83291966 0.037494496
53.801311 -42.610905 -1113 -0.4005751 0.33028382 0.85466492 0.043081183
60.033539 -42.649189 -1114 -0.12862565 0.65528411 0.74435079 0.10645008
62.039093 -42.610905 -1113 -0.40237728 0.52440488 0.75039464 0.07219281
67.788391 -42.342911 -1106 -0.063894235 -0.21497317 0.97452766 0.12315682
69.898018 -42.381191 -1107 0.36716956 -0.18294325 0.91198587 0.1059153
72.076347 -42.457767 -1109 0.39050347 0.29157901 0.87320602 0.063475527
81.965347 -42.266342 -1104 -0.24307632 -0.075979583 0.96702689 0.065355204
83.932045 -42.228054 -1103 -0.32119331 -0.039107658 0.94620585 0.05162783
86.050934 -42.266342 -1104 0.13411933 0.28212112 0.94995773 0.10283098
88.013931 -42.228054 -1103 -0.27766898 0.5275054 0.80289358 0.1496454
89.891586 -42.151485 -1101 -0.025265425 0.37054801 0.92846966 0.1212117
92.012321 -42.18977 -1102 0.21483684 0.37498492 0.90179354 0.12260115
94.136757 -42.228054 -1103 0.40812913 0.088337496 0.90864027 0.07166075
96.264893 -42.266342 -1104 0.45214641 0.10660361 0.88555026 0.038121767
98.396736 -42.304623 -1105 0.46019402 0.087818451 0.88346446 0.034875754
100.53228 -42.342911 -1106 0.50086915 0.057519346 0.86360961 0.029319106
102.76426 -42.419479 -1108 0.52598321 -0.070467055 0.8475706 0.0067471028
37.392818 -44.750618 -1115 -0.44315091 -0.6995368 0.5605939 0.046900164
39.385193 -44.670349 -1113 -0.080531321 -0.62543482 0.77610952 0.051146831
41.444637 -44.670349 -1113 -0.20776591 -0.37092003 0.9051252 0.050227027
43.504086 -44.670349 -1113 0.038818367 -0.021998251 0.99900413 0.027955908
45.56353 -44.670349 -1113 0.25066486 0.21682242 0.94348031 0.060488068
47.622974 -44.670349 -1113 0.11906378 0.23248015 0.9652859 0.056625582
49.727058 -44.710484 -1114 -0.15248211 0.41196123 0.89835244 0.039675955
51.741863 -44.670349 -1113 -0.29694995 0.54332829 0.78524846 0.02385121
53.704632 -44.59008 -1111 -0.39105439 0.40517607 0.82638305 0.052461397
55.81057 -44.630215 -1112 0.30614227 0.39525288 0.86605549 0.067764901
58.024284 -44.750618 -1115 0.11869813 0.53880733 0.83402485 0.071416609
60.033539 -44.710484 -1114 -0.25974083 0.63916045 0.72388434 0.093067564
62.039093 -44.670349 -1113 -0.58137387 0.34357768 0.7375356 0.035886209
63.868176 -44.509808 -1109 -0.67413551 0.10757764 0.73073137 0.038261432
67.849678 -44.429535 -1107 -0.13196829 -0.25113514 0.9589138 0.095434524
69.834885 -44.389408 -1106 0.35970303 -0.037160322 0.93232661 0.056119591
72.076347 -44.509808 -1109 0.34244534 0.26400468 0.90168333 0.055291332
74.195236 -44.549942 -1110 0.066986166 0.36636353 0.92805743 0.085636705
76.111748 -44.469673 -1108 -0.25871292 0.23775007 0.93623859 0.082203299
77.95031 -44.349266 -1105 -0.026818223 -0.42294717 0.90575743 0.095294252
80.139732 -44.429535 -1107 -0.17041625 -0.45210087 0.87553585 0.052436829
82.113838 -44.389408 -1106 -0.28257751 -0.38723618 0.87760931 0.057921533
84.084236 -44.349266 -1105 -0.40347883 -0.26960549 0.87436706 0.036783785
86.050934 -44.309132 -1104 -0.39538875 -0.14282994 0.90734076 0.038750902
88.013931 -44.268997 -1103 -0.28896067 -0.42790788 0.85638577 0.049134824
89.891586 -44.188725 -1101 -0.011777801 -0.47666281 0.87900734 0.056425445
92.09581 -44.268997 -1103 0.26171514 -0.15930046 0.95190781 0.10145634
94.136757 -44.268997 -1103 0.36434811 -0.16977762 0.91565603 0.062723048
96.264893 -44.309132 -1104 0.34880802 -0.015628863 0.93706387 0.040495891
98.485786 -44.389408 -1106 0.5641616 -0.18240085 0.80526501 0.026798578
100.71407 -44.469673 -1108 0.60901046 -0.41851261 0.67376065 0.037993982
37.493427 -46.93972 -1118 -0.4837881 -0.47642711 0.73414332 0.022079336
39.455971 -46.813766 -1115 -0.50165957 -0.42101026 0.75570369 0.0300874
41.444637 -46.729794 -1113 -0.29293191 -0.24053882 0.92538214 0.028138088
43.504086 -46.729794 -1113 -0.22566177 -0.214397 0.95032144 0.079437748
45.522594 -46.687809 -1112 0.072289579 0.091113515 0.9932133 0.022945452
47.665764 -46.771778 -1114 0.1504568 0.22860767 0.96182197 0.074555628
49.682419 -46.729794 -1113 -0.31616339 0.42906734 0.84613347 0.078014106
51.648888 -46.645824 -1111 -0.51000315 0.410552 0.75587291 0.046433378
53.656296 -46.603836 -1110 -0.38316825 0.48437437 0.78648812 0.06721396
55.760376 -46.645824 -1111 0.081602059 0.76600641 0.63763255 0.044037655
57.9202 -46.729794 -1113 0.15002266 0.69952303 0.69868499 0.045783013
59.925758 -46.687809 -1112 -0.077114858 0.69515383 0.71471292 0.065200791
61.927616 -46.645824 -1111 -0.4673377 0.5084939 0.72320771 0.091269106
63.868176 -46.561852 -1109 -0.40259978 -0.14610073 0.90364152 0.019285185
65.920219 -46.561852 -1109 -0.43096891 -0.1898666 0.88216573 0.017108114
67.849678 -46.477879 -1107 -0.25848135 -0.3015829 0.91773373 0.040605847
69.834885 -46.435894 -1106 0.26135123 -0.13091689 0.95632434 0.059242021
72.01136 -46.519867 -1108 0.35755602 0.2403373 0.90243655 0.063136905
74.128395 -46.561852 -1109 -0.159336 0.40326324 0.90110534 0.032775462
76.111748 -46.519867 -1108 -0.16389352 0.23245521 0.95869887 0.12529671
78.091393 -46.477879 -1107 -0.11546296 0.075667813 0.99042553 0.113826
80.212128 -46.519867 -1108 -0.14121886 -0.30741796 0.94103742 0.065382279
82.18808 -46.477879 -1107 -0.38385242 0.10563006 0.91733283 0.053356376
84.160332 -46.435894 -1106 -0.4980101 0.12137783 0.85863465 0.030836225
86.050934 -46.351925 -1104 -0.25339922 -0.0035585545 0.96735519 0.06379687
88.093727 -46.351925 -1104 -0.07129366 -0.35036376 0.93389642 0.035470627
90.13652 -46.351925 -1104 0.049547765 -0.52071452 0.85229182 0.012408142
92.179314 -46.351925 -1104 0.17206198 -0.57168376 0.80222958 0.014279608
94.222099 -46.351925 -1104 0.20357074 -0.40764469 0.8901599 0.017897746
96.352089 -46.393909 -1105 0.50242943 -0.51947403 0.69116676 0.017449938
98.663872 -46.519867 -1108 0.55946076 -0.58175308 0.59039563 0.0060729939
41.519115 -48.876911 -1115 -0.52860743 -0.45534095 0.71640694 0.031477526
43.504086 -48.789242 -1113 -0.21240762 -0.26816416 0.93966532 0.040309753
45.522594 -48.745403 -1112 -0.28887522 -0.14180054 0.94680715 0.084380403
47.665764 -48.833073 -1114 -0.098146096 0.17212412 0.98017377 0.096158102
49.637783 -48.745403 -1112 -0.45259681 0.30433315 0.838175 0.058364198
51.602402 -48.65773 -1110 -0.58670133 0.26372707 0.76565629 0.022502651
53.55962 -48.570061 -1108 -0.40266436 0.28153801 0.87097514 0.052376922
55.609814 -48.570061 -1108 -0.22937453 0.38573772 0.8936407 0.036781453
57.660007 -48.570061 -1108 0.03302357 0.46634388 0.88398689 0.052756771
59.710197 -48.570061 -1108 0.22906467 0.56153989 0.79511154 0.036361117
61.871872 -48.65773 -1110 0.086874969 0.3203873 0.94329464 0.16732502
63.925766 -48.65773 -1110 -0.37476662 -0.17576444 0.91030586 0.035728678
65.920219 -48.613895 -1109 -0.3717688 -0.21811412 0.90233821 0.025859287
67.910965 -48.570061 -1108 -0.33266881 -0.1709045 0.92742825 0.021805732
69.961166 -48.570061 -1108 -0.18338351 -0.064937189 0.98089427 0.052147944
71.946365 -48.526222 -1107 -0.15057652 0.030433439 0.98812979 0.072865337
73.994705 -48.526222 -1107 -0.199802 0.51123691 0.83589232 0.056362022
75.974365 -48.482388 -1106 -0.1356107 0.519961 0.84335649 0.03125231
78.091393 -48.526222 -1107 0.12435931 0.30038333 0.94567674 0.088356309
80.212128 -48.570061 -1108 -0.06844981 0.23596802 0.96934712 0.091283634
82.113838 -48.482388 -1106 -0.50383294 0.18717414 0.84327829 0.04528423
84.084236 -48.438553 -1105 -0.34230095 0.31748685 0.8843258 0.048790641
86.050934 -48.394718 -1104 0.035361595 0.14996395 0.98805892 0.059235983
88.173523 -48.438553 -1105 0.14765944 -0.25873756 0.95459497 0.044670105
90.218163 -48.438553 -1105 0.17316405 -0.54412001 0.82094312 0.022271702
92.26281 -48.438553 -1105 0.20012414 -0.54551572 0.81385678 0.016057428
94.392799 -48.482388 -1106 0.38714358 -0.61415893 0.68769807 0.014759012
96.700874 -48.613895 -1109 0.53601754 -0.61546236 0.57783329 0.0089624729
43.58226 -50.94006 -1115 -0.22047471 -0.31642789 0.92263991 0.060377426
45.604469 -50.894371 -1114 -0.3304745 -0.24975805 0.91016895 0.092807606
47.622974 -50.848686 -1113 -0.32276386 0.0049454789 0.94646662 0.085683502
49.593143 -50.757313 -1111 -0.45992124 -0.015539004 0.8878237 0.099393085
51.648888 -50.757313 -1111 -0.44009367 -0.23298711 0.8671993 0.088516153
53.607956 -50.665939 -1109 -0.48575526 -0.18325101 0.85467005 0.065797932
55.609814 -50.620255 -1108 -0.19060689 0.038442843 0.98091334 0.023619823
57.607964 -50.574566 -1107 -0.18998365 0.037521556 0.98106998 0.023823604
59.656307 -50.574566 -1107 0.3932074 0.19351731 0.89885426 0.064646311
61.871872 -50.711624 -1110 0.50906962 0.19317177 0.8387686 0.071936488
63.98336 -50.757313 -1111 -0.3718684 -0.14088108 0.91753286 0.042631011
65.920219 -50.665939 -1109 -0.41646591 0.032110769 0.90858412 0.032257389
67.910965 -50.620255 -1108 -0.25671822 0.013523121 0.96639174 0.029962562
69.961166 -50.620255 -1108 -0.28239056 0.15497811 0.94669813 0.031885013
71.946365 -50.574566 -1107 -0.26871485 0.032913707 0.96265733 0.014738359
73.927872 -50.528881 -1106 -0.42109573 0.037553679 0.90623844 0.068775393
75.836975 -50.437508 -1104 -0.12073924 0.32193065 0.93903279 0.091141775
78.020859 -50.528881 -1106 0.17718294 0.52744406 0.8309086 0.059100471
80.212128 -50.620255 -1108 -0.24674587 0.35331285 0.90237826 0.051519986
82.039597 -50.483192 -1105 -0.46233603 0.42205185 0.77981889 0.030695574
84.008141 -50.437508 -1104 -0.18147348 0.31577495 0.93131822 0.029853115
85.972984 -50.391823 -1103 0.14195387 0.045683358 0.98881859 0.085474648
88.173523 -50.483192 -1105 0.45077282 -0.19505218 0.87106746 0.033559367
90.299812 -50.528881 -1106 0.29666623 -0.4262332 0.8545844 0.016751522
92.51329 -50.620255 -1108 0.44859621 -0.45231554 0.77082568 0.0082134111
94.648834 -50.665939 -1109 0.45263621 -0.53784829 0.71122402 0.015180628
49.593143 -52.813057 -1111 -0.41600281 -0.43018121 0.8011778 0.059546594
51.741863 -52.908131 -1113 -0.5498749 -0.48397315 0.68074048 0.056701329
53.752972 -52.860592 -1112 -0.49816489 -0.47042164 0.72837859 0.049148288
55.609814 -52.670448 -1108 -0.56604022 -0.32146284 0.75911802 0.057397529
57.607964 -52.62291 -1107 -0.056198899 -0.019923478 0.9982208 0.026550377
59.656307 -52.62291 -1107 0.27123579 0.020673437 0.96229088 0.076232746
61.871872 -52.765518 -1110 0.54580611 -0.023847817 0.83757204 0.069468983
63.98336 -52.813057 -1111 -0.28383741 0.1098766 0.95255625 0.079479657
67.910965 -52.670448 -1108 -0.20738882 0.10870342 0.97220033 0.021115966
69.898018 -52.62291 -1107 -0.20686558 0.10964251 0.97220635 0.050391115
72.01136 -52.670448 -1108 -0.17756884 -0.024636574 0.98379999 0.075570919
73.927872 -52.575375 -1106 -0.50961816 -0.19460469 0.83810401 0.060965847
75.836975 -52.480301 -1104 -0.33916733 -0.12465359 0.93243068 0.087513968
77.879768 -52.480301 -1104 -0.1037145 0.040990084 0.99376208 0.066997424
79.994949 -52.527836 -1105 -0.11946324 0.27796808 0.95313287 0.14519197
81.965347 -52.480301 -1104 -0.18998593 0.27431554 0.94268572 0.041283708
83.932045 -52.432762 -1103 -0.19936204 0.062813424 0.9779107 0.04268869
85.972984 -52.432762 -1103 0.17799191 -0.10138059 0.97879559 0.083301261
88.253319 -52.575375 -1106 0.54228318 -0.33735618 0.76949316 0.021520609
90.381454 -52.62291 -1107 0.48663074 -0.44937396 0.74916857 0.017117774
92.51329 -52.670448 -1108 0.4052982 -0.49790466 0.76669705 0.015497645
55.760376 -54.868801 -1111 -0.54689294 -0.50408423 0.66843635 0.017464546
57.660007 -54.720642 -1108 -0.22227003 -0.51146114 0.83006239 0.096051067
59.710197 -54.720642 -1108 0.19380605 -0.52434254 0.82915866 0.11727367
61.760387 -54.720642 -1108 0.42854825 0.23527251 0.87234926 0.085617736
63.98336 -54.868801 -1111 -0.091119565 0.40876517 0.90807945 0.088690259
65.860779 -54.720642 -1108 -0.41137478 0.11809377 0.9037835 0.074032038
67.910965 -54.720642 -1108 -0.15186438 0.13241401 0.97949153 0.051014852
69.834885 -54.621868 -1106 -0.21525078 0.080356531 0.97324711 0.049005721
72.01136 -54.720642 -1108 -0.014349543 -0.23316771 0.97233069 0.056868017
74.061554 -54.720642 -1108 -0.0299048 -0.23701867 0.97104466 0.066609845
75.974365 -54.621868 -1106 -0.35110188 -0.61703646 0.70426804 0.013887788
77.879768 -54.523094 -1104 -0.15235762 -0.34008822 0.92796934 0.077347875
79.994949 -54.572479 -1105 -0.07240323 -0.38507527 0.92004073 0.055690341
81.965347 -54.523094 -1104 -0.021242734 -0.38718387 0.92175776 0.07049606
84.008141 -54.523094 -1104 -0.20732479 -0.30141813 0.93067908 0.050696079
86.128883 -54.572479 -1105 0.3584404 -0.56320906 0.74452406 0.05638773
88.412903 -54.720642 -1108 0.4543969 -0.59588069 0.66215527 0.025387479
90.463097 -54.720642 -1108 0.53549778 -0.39795977 0.74489605 0.010337978
67.910965 -56.770836 -1108 -0.19536459 -0.16299033 0.96709192 0.092653304
69.898018 -56.719597 -1107 -0.0025765134 -0.25047323 0.9681201 0.06085626
74.128395 -56.822071 -1109 -0.033890653 -0.2814315 0.95898265 0.046678368
76.111748 -56.770836 -1108 -0.40169686 -0.60069847 0.69123155 0.013085951
78.091393 -56.719597 -1107 -0.2470285 -0.62310648 0.74210185 0.032457139
80.067345 -56.668362 -1106 -0.14837559 -0.56898749 0.80884981 0.024699327
82.18808 -56.719597 -1107 -0.069386117 -0.63517451 0.76924568 0.034108851
