# .PCD v0.7 - Point Cloud Data file format
VERSION 0.7
FIELDS x y z normal_x normal_y normal_z curvature
SIZE 4 4 4 4 4 4 4
TYPE F F F F F F F
COUNT 1 1 1 1 1 1 1
WIDTH 612
HEIGHT 1
VIEWPOINT 0 0 0 1 0 0 0
POINTS 612
DATA ascii
-185.10333 -40.905495 993.02557 0.30928907 -0.12583315 -0.94260609 0.0017365898
-183.36234 -40.790909 993.82117 0.30527475 -0.12636422 -0.94384289 0.010314458
-167.08344 -40.871574 992.8634 -0.59139013 -0.17860377 -0.78635776 0.061375611
-133.16614 -41.102352 992.54248 nan nan nan nan
-188.12193 -38.853592 992.10907 0.31416965 -0.12836643 -0.94064844 0
-187.00208 -38.860397 992.32715 0.31022134 -0.13091949 -0.94160652 0.0050623738
-185.07489 -38.879436 992.88898 0.30801806 -0.13066244 -0.94236523 0.0046744295
-183.33875 -38.821907 993.59662 0.30760503 -0.12965783 -0.94263887 0.0084830187
-181.47359 -38.333485 993.84167 0.31445372 -0.12946127 -0.94040346 0.015800774
-167.35086 -38.848866 992.74786 -0.57815981 -0.17994867 -0.79583263 0.054992359
-186.90797 -37.197781 992.22571 0.31286222 -0.13684423 -0.93988872 0.013397619
-184.99335 -37.131851 992.4649 0.31431669 -0.13924916 -0.93904984 0.015964985
-182.82028 -36.931866 993.38098 0.30634296 -0.13312262 -0.94256693 0.00085673516
-181.18524 -36.600906 993.86719 0.31574169 -0.13095814 -0.93976444 0
-168.05928 -37.148087 993.52191 -0.48170739 -0.17573766 -0.85853028 0.05101487
-186.55573 -35.772305 992.03516 0.32329568 -0.14398625 -0.93527955 0.030798301
-184.85219 -35.191998 992.38904 0.31871778 -0.14596714 -0.93654287 0.026660426
-182.96265 -34.999416 993.05914 0.29986662 -0.13606015 -0.94422859 0.00093393773
-181.24957 -34.798 993.7027 0.30759501 -0.13375425 -0.94206959 0
-179.75031 -34.292236 993.98297 0.30182076 -0.13276933 -0.94407445 0.00021993065
-168.67401 -34.84753 993.74237 -0.43707785 -0.18652652 -0.87986982 0.068776943
-184.65765 -33.085617 992.24933 0.30918285 -0.13778445 -0.94096833 0.0079915319
-183.03835 -33.105427 992.91003 0.30444086 -0.13752826 -0.94255066 0.0088874288
-181.12862 -33.125309 993.58197 0.31062061 -0.13887937 -0.9403336 0.017468711
-179.54652 -32.94244 993.93671 0.30337441 -0.13922007 -0.94264615 0.019119872
-168.57835 -33.096989 993.19122 -0.47866756 -0.18874672 -0.85746837 0.069317482
-184.34473 -31.351381 992.13867 0.31395525 -0.13999675 -0.93905962 0.023743987
-182.98515 -31.076828 992.63507 0.3122443 -0.14008297 -0.9396171 0.020766055
-181.04601 -31.090307 993.14209 0.31611323 -0.14081477 -0.93821299 0.024646912
-179.07025 -30.975592 993.75 0.28730842 -0.14013624 -0.9475314 0.019673754
-177.96858 -30.240623 993.79572 0.24660856 -0.14162014 -0.95871162 0.017075147
-168.8147 -30.952284 993.13324 -0.40812069 -0.18362071 -0.89427114 0.060366724
-182.93301 -29.049574 992.36523 0.30649239 -0.13497223 -0.94225514 0.012335762
-181.11606 -29.178522 992.90173 0.31443849 -0.14083831 -0.93877214 0.031183805
-179.13068 -29.003363 993.40283 0.2866357 -0.14273852 -0.94734669 0.029645562
-177.98584 -29.088623 993.89935 0.25347033 -0.15073295 -0.95552725 0.04207002
-169.41286 -29.0534 993.00812 -0.29804826 -0.18077391 -0.93727696 0.053213444
-182.61972 -27.027466 992.25122 0.30285636 -0.12972273 -0.9441663 0.0017530366
-181.2823 -26.861225 992.5542 0.30404374 -0.1298911 -0.94376153 0.0030387468
-178.83154 -26.953829 993.23132 0.2675975 -0.13804662 -0.95359045 0.016973408
-177.49579 -27.029131 993.69824 0.22949335 -0.14855045 -0.96190721 0.038075149
-170.4212 -26.480148 993.83105 -0.076461062 -0.16921467 -0.9826088 0.047704823
-169.56363 -27.204111 992.88379 -0.23783816 -0.16781105 -0.95669872 0.035475679
17.418335 -27.132347 993.02509 -0.19408327 0.36350664 -0.91115016 0.0051886179
18.747974 -27.115486 992.39569 -0.12527646 0.34846577 -0.92891198 0.00559121
20.714085 -26.49622 992.52612 -0.07792639 0.36211854 -0.92886901 0.0067512216
-182.57918 -25.580196 992.03918 0.30931765 -0.12826283 -0.94226921 0
-180.88792 -25.008787 992.31146 0.29981172 -0.13071816 -0.94500041 0.0011690633
-178.95888 -25.020992 992.87476 0.25808787 -0.13362296 -0.95683622 0.0023652976
-177.21759 -24.977833 993.52551 0.21156827 -0.14002869 -0.96728009 0.014213855
-175.67339 -25.045599 993.98663 0.17985053 -0.14704569 -0.97264147 0.031865329
-170.61334 -25.022848 993.26709 -0.10385334 -0.16457695 -0.98088169 0.044448029
-169.56851 -25.572586 992.24359 -0.23597513 -0.16161065 -0.95822638 0.034311522
20.698498 -24.816648 993.17151 -0.086033158 0.40967193 -0.90816689 0.016890703
28.798761 -24.525391 992.2121 0.13060054 0.48988268 -0.86195034 0.054168355
31.481764 -24.335463 992.26379 0.25993785 0.48521936 -0.83486199 0.038254939
-180.78596 -23.118696 992.19604 0.29631314 -0.13121702 -0.94603413 0.0048223198
-179.08206 -22.955397 992.64972 0.25850868 -0.13657226 -0.9563061 0.01268245
-177.07289 -22.953762 993.37555 0.2087089 -0.14661385 -0.9669255 0.028185816
-175.36287 -23.021572 993.88361 0.15335388 -0.14988363 -0.97673815 0.029037671
-170.68958 -22.922104 992.87744 -0.087378301 -0.1691861 -0.98170316 0.041505422
21.049601 -22.952379 992.56128 -0.071550138 0.43909699 -0.89558601 0.014254149
22.570711 -22.605511 992.05054 -0.040214982 0.45565394 -0.88924813 0.021090509
25.351744 -22.418282 992.23041 0.0347027 0.50029802 -0.86515754 0.043617707
26.821621 -22.546074 992.58203 0.096945733 0.5097062 -0.85486913 0.039373368
28.909447 -22.908951 992.72742 0.15450038 0.51242465 -0.84471923 0.034862213
30.797157 -22.943583 992.83606 0.24353969 0.51339924 -0.82286668 0.035142332
75.847412 -23.803106 993.54572 nan nan nan nan
-180.83968 -21.255188 992.06573 0.30085096 -0.12674245 -0.94521165 0
-178.9415 -21.037275 992.44153 0.24664569 -0.13274801 -0.95997083 0.0093141831
-176.98267 -20.987581 993.20538 0.20304988 -0.14670907 -0.96811527 0.033536416
-175.04718 -20.997412 993.75012 0.14375836 -0.14887209 -0.97835106 0.023271179
-173.33339 -20.421997 993.91486 0.077430561 -0.15918683 -0.98420733 0.024827771
-171.12561 -20.976242 992.89337 -0.045950722 -0.16756471 -0.98478961 0.028558306
20.794292 -20.959328 993.25983 -0.068184301 0.47870305 -0.87532526 0.0089032734
22.877857 -20.900023 992.92413 -0.012383647 0.50571299 -0.86261296 0.028850824
24.884918 -20.895826 992.711 0.054691646 0.52920467 -0.8467297 0.044508874
26.748917 -20.990973 993.32263 0.14216155 0.55419987 -0.82015401 0.051504817
29.158499 -21.042982 993.60406 0.19144128 0.5609476 -0.8054117 0.036476392
-178.7984 -19.010406 992.33606 0.24896173 -0.13195202 -0.95948255 0.021861503
-176.95665 -18.965225 993.06891 0.19185019 -0.13988823 -0.97140348 0.028879641
-175.03815 -18.891508 993.40924 0.13616592 -0.15177582 -0.97899079 0.038353279
-172.75163 -18.544998 993.91724 0.038469821 -0.15766469 -0.98674303 0.027487801
-171.29677 -19.13032 992.88574 -0.033756662 -0.1635626 -0.98595524 0.010807859
20.008141 -18.0294 993.17383 -0.094836771 0.52878648 -0.84343988 0.02024442
23.036957 -19.6196 993.5918 0.0088654878 0.54257625 -0.8399598 0.035863377
24.783691 -19.517075 993.59766 0.09246175 0.56415015 -0.82047886 0.047321476
-178.25063 -17.220226 992.19995 0.22545657 -0.13791136 -0.96444273 0.041175418
-176.91113 -16.941532 992.82159 0.17747134 -0.14031175 -0.97407216 0.032328516
-174.96654 -16.948402 993.3103 0.11502439 -0.1479831 -0.98227817 0.029567394
-172.99947 -16.953367 993.6792 0.033472765 -0.15734097 -0.98697692 0.027409121
-171.3394 -16.931807 992.47064 -0.073631696 -0.1708806 -0.98253661 0.033006612
-176.8564 -14.918144 992.52179 0.16756862 -0.14053018 -0.975793 0.026866999
-174.92133 -14.924935 993.06104 0.091820322 -0.14637776 -0.98495823 0.018581303
-173.21785 -14.927067 993.27466 0.013896104 -0.15487771 -0.98783588 0.014877078
-171.91449 -15.202275 992.45001 -0.051686749 -0.1696447 -0.98414886 0.028873816
-176.7964 -13.279854 992.19049 0.15755694 -0.13873202 -0.97771639 0.0096391365
-175.07591 -12.849357 992.7486 0.079200305 -0.14743438 -0.98589575 0.012136119
-173.14928 -12.902505 992.88824 -0.0025216099 -0.1559047 -0.98776895 0.013096425
-176.69965 -10.878044 992.19702 0.14016789 -0.14495501 -0.97945958 0.022472443
-175.12517 -10.881497 992.58563 0.077426583 -0.14649533 -0.98617655 0.014227546
-173.40028 -10.881598 992.67139 -0.0072790449 -0.15494056 -0.98789698 0.027576443
-176.47403 -9.4351301 992.01917 0.12149689 -0.13665837 -0.9831394 0
-175.07019 -8.8605042 992.27899 0.081896 -0.1357484 -0.98735273 0.0071026199
-173.47842 -9.0040379 992.29376 0.0036271899 -0.14297488 -0.98971969 0.028675091
-174.82582 -7.346158 992.12939 0.076489672 -0.13757214 -0.98753393 0.039576393
-173.58418 -7.1291518 992.0744 0.01829344 -0.13933973 -0.99007565 0.034191538
-174.7337 -5.9766431 992.02081 0.073625199 -0.13177438 -0.98854178 0.038169865
-240.14395 28.68969 993.19049 -0.57497573 0.09253107 -0.81292123 0.10579679
-238.81104 29.655945 993.30859 -0.57597101 0.096442051 -0.8117612 0.1033111
-237.15776 29.618444 993.39355 -0.57603341 0.096926212 -0.81165934 0.10628122
-235.17151 29.601709 992.89465 -0.56673431 0.1000493 -0.81780338 0.1071447
-234.40472 30.846388 992.97754 -0.57133591 0.099687375 -0.81463969 0.11165878
-234.38269 33.188412 992.99792 -0.59300119 0.09365423 -0.79973656 0.11349778
-240.22281 35.351822 993.48828 -0.57006466 0.079083577 -0.81778485 0.11736222
-238.81873 35.440296 993.3147 -0.60229802 0.090419978 -0.79313385 0.11855966
-237.07675 35.19162 993.15289 -0.58589083 0.094815895 -0.80482411 0.11215576
-235.34428 35.026157 992.61554 -0.608302 0.089823179 -0.78860664 0.1175941
-238.80234 36.223763 993.64856 -0.5783152 0.076370806 -0.81223089 0.11653219
-236.99556 36.320171 993.17401 -0.56943667 0.093732975 -0.8166737 0.10938281
-235.01985 36.769741 992.87939 -0.59159219 0.064897999 -0.80362111 0.11307275
-99.19162 41.843475 993.51465 0.36422908 -0.29261252 -0.88414657 0.0084150201
-99.153679 42.978973 993.12518 0.35687435 -0.29243231 -0.88720012 0.0069937073
-99.35833 45.098297 992.68097 0.36051068 -0.2998358 -0.88325 0.010485328
-99.36824 46.686874 992.35425 0.33877161 0.24920683 -0.90726501 0.076649457
-96.498962 48.70472 992.47559 0.11396659 0.6732024 -0.73062313 0.082724966
-94.938957 49.316883 993.24164 0.00084632967 0.73760158 -0.67523557 0.069808267
-92.871109 49.340141 993.74854 -0.028001105 0.73892868 -0.67320162 0.067678526
-14.596059 -165.01537 995.867 -0.11420881 -0.085903838 -0.98973578 0.0019087462
-12.281279 -164.70053 995.73053 -0.0699737 -0.092046581 -0.99329305 0.027365603
-8.8151789 -165.61148 995.97888 -0.048487674 -0.098009974 -0.99400353 0.030470615
-7.655313 -164.96408 995.58374 -0.057813935 -0.047270335 -0.99720764 0.0025579936
-1.0079707 -164.89719 995.19543 -0.14639135 -0.092255026 -0.98491549 0.042633273
-12.715059 -163.04665 995.8313 -0.084692694 -0.019159565 -0.99622297 0.018325718
-11.702797 -162.67937 995.8103 -0.0669365 -0.021471607 -0.99752617 0.033611435
-9.023057 -162.79562 995.88495 -0.057362244 0.0062708114 -0.99833381 0.0039545312
-6.8301811 -162.92642 995.81476 -0.060709968 0.012007644 -0.99808323 0.0004560691
-5.9231477 -163.86867 995.99408 -0.064185813 -0.018245956 -0.9977712 0
-1.1807616 -163.02858 995.13611 -0.15659426 -0.039054263 -0.98689061 0.070635878
0.7256186 -163.04483 994.52997 -0.23021765 -0.047630996 -0.97197282 0.061372042
-12.857383 -160.92992 995.76715 -0.094768703 0.05095651 -0.99419433 0.038398903
-11.206565 -160.85963 995.8526 -0.062874615 0.056577332 -0.99641645 0.02270137
-9.6212101 -161.06131 995.87366 -0.057312131 0.06126048 -0.99647504 0
-6.8457689 -160.93503 995.82043 -0.061588425 0.068079464 -0.99577707 0.0023361037
-1.5431598 -160.9948 995.17682 -0.13781346 0.041956712 -0.98956913 0.067454003
-12.856266 -158.89897 995.78235 -0.090499714 0.13710608 -0.98641354 0.032242432
-11.122963 -159.77463 995.81561 -0.060944401 0.11420725 -0.99158585 0.023812879
-9.5824709 -159.21616 995.96173 -0.061873477 0.12984437 -0.98960203 0.019028731
-6.8839498 -158.62849 995.92853 -0.065822363 0.14665678 -0.9869951 0.041325808
-5.6313982 -158.91663 995.91699 -0.067473732 0.13417859 -0.98865741 0.041668382
-1.5259469 -158.74118 995.19287 -0.12795149 0.1041037 -0.98630154 0.045915112
-11.123135 -157.47284 995.95386 -0.06230532 0.23442519 -0.97013551 0.05455203
-6.4976702 -157.4586 995.87915 -0.066533871 0.1796553 -0.98147708 0.049219105
-4.4736714 -156.85643 995.74976 -0.069995202 0.18435477 -0.9803642 0.013771244
-3.6071279 -156.87448 995.86609 -0.076648444 0.18372788 -0.97998422 0.024834123
-1.5417346 -156.91972 995.10541 -0.1226059 0.15855539 -0.97970814 0.027561154
1.0155146 -156.93372 994.41003 -0.25284505 0.11286385 -0.96090126 0.025176059
-224.85912 -154.10043 995.90869 -0.027855469 -0.15464664 -0.98757714 0.048804935
-3.606739 -155.71429 995.87531 -0.076935306 0.22685704 -0.97088462 0.019661568
-1.2934384 -154.82643 994.83929 -0.14037995 0.23065151 -0.96285689 0.029396586
-224.52246 -152.61752 995.74707 0.0030200731 -0.13106397 -0.99136931 0.017202813
-223.674 -152.63268 995.87598 0.035628174 -0.12855621 -0.99106205 0.018909795
-220.77385 -152.34422 995.9939 0.10304163 -0.13869502 -0.98495996 0.0323915
-1.2933793 -153.87596 995.25885 -0.14172372 0.28699985 -0.94738877 0.042474393
-226.00482 -150.02591 995.89453 -0.037290506 -0.14806846 -0.98827386 0.066486076
-224.71956 -151.12744 995.03241 0.0065828077 -0.13715091 -0.99052829 0.037185133
-223.25208 -150.89902 995.33813 0.038275283 -0.13697094 -0.98983538 0.055778593
-220.2751 -151.13968 995.74957 0.13163698 -0.13679314 -0.98181432 0.056355495
-226.71164 -148.67914 995.42987 -0.051409416 -0.14458784 -0.9881556 0.061129998
-225.12877 -148.89742 995.10181 0.0045888703 -0.13707878 -0.9905495 0.057215154
-223.33716 -149.53716 995.31415 0.040287066 -0.13647969 -0.98982328 0.06758859
-220.37619 -148.64328 995.60321 0.11677984 -0.10901727 -0.98715639 0.0042966879
-219.46469 -148.87657 995.4411 0.14855242 -0.11562264 -0.982122 0.0089150025
-226.70795 -147.01424 995.19366 -0.032640614 -0.12906559 -0.99109876 0.044555511
-225.89685 -147.05267 995.48468 0.00091778603 -0.12757376 -0.99182868 0.042122599
-220.47899 -147.16457 995.4411 0.11495343 -0.12433325 -0.98555923 0.026835751
-218.97046 -147.07779 995.89435 0.15730298 -0.13233262 -0.97864389 0.025012162
-217.77089 -146.47134 995.77026 0.17580971 -0.14014003 -0.97439814 0.027616071
-229.51021 -144.23399 995.99902 0.054184016 -0.12229557 -0.99101359 0.033482037
-226.85989 -144.85355 995.13837 -0.013581675 -0.11966163 -0.9927218 0.04074632
-225.8524 -144.99335 995.33447 0.0031273714 -0.12522613 -0.99212331 0.053315982
-220.57047 -144.88377 995.62354 0.10877806 -0.13766618 -0.9844873 0.038326882
-218.87117 -144.79767 995.78973 0.15252532 -0.14609607 -0.97744155 0.04510441
-217.80246 -145.33182 995.94128 0.16833913 -0.1357865 -0.97633189 0.029667258
-228.51514 -143.07484 995.25696 0.049520213 -0.12156343 -0.99134755 0.022554632
-226.71632 -142.91089 994.40332 0.020410871 -0.12593563 -0.99182838 0.032131176
-225.86217 -142.96867 995.42267 0.010379035 -0.13335206 -0.99101436 0.054515313
-220.93782 -142.7802 995.63226 0.10557482 -0.14714743 -0.98346394 0.046792384
-218.89816 -142.96791 995.65851 0.14123045 -0.14926435 -0.97865933 0.035735376
-230.00731 -141.27953 995.68048 0.19173683 -0.15409744 -0.96927345 0.051118881
-229.13243 -140.95158 995.15302 0.087354131 -0.14985549 -0.98484141 0.040269464
-226.65408 -141.23402 994.4425 0.014815737 -0.14641531 -0.98911226 0.038740374
-222.37206 -140.0621 995.56885 0.067108028 -0.16301695 -0.9843384 0.027963264
-221.09631 -141.1022 995.65167 0.093934849 -0.15596001 -0.98328674 0.029783828
-218.98216 -141.04295 995.41864 0.12409227 -0.16503346 -0.97845036 0.021406295
-217.25221 -140.57176 995.82367 0.1437296 -0.16567613 -0.97565013 0.0097809117
-215.4252 -140.07217 995.88196 0.20656559 -0.1637723 -0.96462911 0.0098376255
-228.80205 -139.0219 994.55603 0.023685273 -0.16561763 -0.98590559 0.046188962
-226.74524 -138.85437 994.57373 -0.026419548 -0.17395909 -0.98439842 0.053994503
-222.63997 -138.80807 995.7489 0.049121536 -0.17088503 -0.98406577 0.01612661
-221.12944 -139.06088 995.25922 0.083123252 -0.17319608 -0.98137337 0.0078958115
-219.03056 -139.00171 994.75269 0.1171501 -0.18159507 -0.97637033 0.020816615
-216.96979 -138.99776 995.54175 0.14742993 -0.17088713 -0.97419816 0.0094929766
-215.4075 -138.66817 995.83105 0.21183921 -0.16198474 -0.9637869 0
-230.03334 -136.36137 995.8988 0.10443589 -0.13508695 -0.98531455 0.070407294
-229.0717 -136.96526 994.67133 0.023346772 -0.14879155 -0.98859286 0.049752071
-226.87279 -137.07603 994.85266 -0.033215087 -0.16744222 -0.98532218 0.038382478
-224.17319 -136.03751 995.86493 0.015530375 -0.16709565 -0.98581839 0.027107012
-222.90578 -137.13263 995.40387 0.03171695 -0.17270564 -0.98446274 0.020035284
-221.06532 -137.0703 995.01294 0.0748372 -0.1760712 -0.98152852 0.0089018801
-218.56403 -137.21005 994.70587 0.12626828 -0.18633322 -0.97433883 0.019859359
-217.20944 -136.96207 995.41974 0.14455427 -0.17761919 -0.97342461 0.007891478
-215.54044 -137.05602 995.70929 0.21694005 -0.16585651 -0.96199203 0
-230.40094 -134.49557 994.9953 0.12137994 -0.11057757 -0.98642766 0.068638057
-229.47954 -135.04521 994.79077 0.047566745 -0.1275582 -0.99068987 0.05419464
-226.34558 -134.78816 995.15259 -0.033992898 -0.16735801 -0.98531002 0.065257668
-224.11119 -134.83952 995.61426 0.0098672193 -0.15512985 -0.98784488 0.0012588217
-222.77856 -135.02528 994.88019 0.03149299 -0.17909105 -0.98332834 0.037847113
-221.36931 -135.18401 994.66901 0.062460102 -0.18761788 -0.98025417 0.043170318
-218.70183 -135.00017 994.40558 0.11142867 -0.17955376 -0.97741711 0.015714139
-217.11632 -135.12074 995.2901 0.14863032 -0.18323931 -0.97176766 0.022681057
-215.17058 -135.0016 995.58795 0.23164949 -0.16962248 -0.95789701 0.010961495
-213.64648 -134.53598 995.88696 0.27939865 -0.16256031 -0.94631416 0.007150427
-230.39925 -133.04462 995.01813 0.1133839 -0.11567054 -0.98679501 0.05777723
-229.74609 -133.00232 994.72186 0.046944052 -0.12869595 -0.99057239 0.05583794
-226.25844 -132.9969 994.80597 -0.017683158 -0.15242736 -0.98815644 0.024337811
-224.34776 -133.06715 995.4032 -0.0028726868 -0.15750019 -0.98751479 0.017343502
-222.89677 -132.93942 994.93005 0.017565275 -0.17378226 -0.98462749 0.037302382
-218.27151 -132.89917 994.35205 0.11606826 -0.18109125 -0.97659314 0.033235114
-217.12486 -133.00771 994.81146 0.15300757 -0.18355653 -0.97102821 0.042067006
-214.94655 -132.99272 995.17267 0.24741931 -0.17325871 -0.95329165 0.027962053
-213.11858 -132.90071 995.79608 0.29847103 -0.16204374 -0.94056201 0.014573053
-211.88786 -132.49406 995.90582 0.3194727 -0.15401912 -0.93499482 0.007290659
-230.65738 -130.99698 994.91193 0.10314918 -0.13571873 -0.98536325 0.029830793
-229.65805 -131.5025 994.37067 0.028135337 -0.14019854 -0.98972362 0.026613781
-226.61708 -130.87012 995.57233 -0.038151804 -0.15392795 -0.98734522 0.0021387292
-225.10303 -130.9216 995.42615 -0.025738092 -0.16494684 -0.98596656 0.012867188
-223.0934 -130.99155 994.50684 0.008105007 -0.17520285 -0.98449898 0.023796421
-218.00693 -130.88663 994.51941 0.13347615 -0.18367094 -0.97388357 0.034596555
-217.09479 -131.03464 994.57257 0.17034763 -0.18555796 -0.96775514 0.040351924
-214.84445 -131.11562 994.84314 0.26636142 -0.18009996 -0.94689786 0.038607419
-213.18236 -130.81236 995.53589 0.31148812 -0.17161638 -0.93462449 0.034588069
-211.59496 -131.05789 995.73663 0.31470734 -0.15426309 -0.93656939 0.0087623531
-230.6902 -128.75963 994.46741 0.074527867 -0.17412302 -0.98189962 0.048552886
-229.82634 -128.40897 995.16437 0.0083551416 -0.16962247 -0.98547375 0.030397708
-226.89987 -128.97388 995.14056 -0.058569167 -0.16890419 -0.98389077 0.012161694
-225.13567 -128.95966 995.09302 -0.040170394 -0.17681596 -0.98342383 0.015554877
-222.91838 -128.99597 994.32538 0.015382206 -0.17025703 -0.98527962 0.0052108732
-216.99355 -129.03549 994.23511 0.17138588 -0.16752549 -0.97085643 0.010432129
-214.94621 -129.11978 994.44122 0.26244584 -0.16526383 -0.95068926 0.01286458
-213.10718 -128.86908 995.2254 0.30856311 -0.15833934 -0.93793255 0.017044609
-211.61398 -129.10403 995.78937 0.32412115 -0.15876734 -0.9325977 0.020965407
-230.89011 -127.40731 995.08777 0.070928462 -0.18139623 -0.98084891 0.046780169
-229.58405 -127.40456 994.13281 -0.030617453 -0.18405035 -0.98243988 0.036254391
-226.81181 -126.97392 994.79358 -0.064949512 -0.19132116 -0.97937626 0.029827388
-225.18384 -127.23656 994.60217 -0.035895716 -0.18875945 -0.98136711 0.021881271
-222.55865 -127.65217 994.04944 0.024502063 -0.17393164 -0.9844529 0
-217.57695 -127.18831 994.23193 0.14815547 -0.16967855 -0.97429931 0.016023306
-214.94055 -127.13556 994.25293 0.26205209 -0.14892201 -0.95349407 0.00043739428
-213.13635 -126.98731 995.0285 0.31095034 -0.14183523 -0.93978328 0.004191462
-211.05298 -126.97112 995.62872 0.32250565 -0.14461716 -0.93545496 0.0064139282
-209.52948 -126.38007 995.93567 0.3230277 -0.13814825 -0.93625218 0
-230.39339 -124.922 995.15717 0.050095212 -0.21463542 -0.97540867 0.053590838
-229.56245 -124.20628 994.1026 -0.062527813 -0.21770833 -0.97400892 0.060625996
-226.58522 -125.0807 994.56866 -0.062429108 -0.19702673 -0.97840846 0.028471623
-224.89879 -125.34857 994.11694 -0.028799554 -0.20074859 -0.97921938 0.037603576
-223.73831 -124.47852 994.16736 -0.001757318 -0.21461315 -0.97669756 0.054965347
-217.89279 -125.89576 994.10132 0.14590774 -0.16881378 -0.97478861 0.0067987684
-214.7038 -125.16962 994.21027 0.28264832 -0.1460122 -0.94804555 0
-213.04297 -124.94555 994.63385 0.31776759 -0.14092112 -0.93763798 0.0018570194
-210.90585 -124.78713 995.19391 0.32570013 -0.13780613 -0.93537635 0.0051114005
-209.49443 -125.48908 995.78729 0.31965849 -0.13770895 -0.93747252 0
-230.56798 -123.70023 994.67139 0.029660575 -0.2283769 -0.97312087 0.053106613
-226.3511 -123.61316 994.11865 -0.0791815 -0.22606023 -0.97088987 0.069156572
-223.70528 -123.5914 994.03784 -0.0021914726 -0.20710737 -0.97831583 0.037522938
-212.95235 -122.98972 994.24951 0.32786897 -0.13776426 -0.93462455 0
-210.78224 -123.0751 995.0213 0.3295823 -0.13309337 -0.9346987 3.670713e-05
-209.21451 -123.1754 995.89319 0.32341999 -0.13218731 -0.93697709 0.00028771989
-212.55251 -121.15404 994.17047 0.3320941 -0.14230712 -0.93244952 0.0046666269
-210.94899 -120.9764 994.47192 0.33450547 -0.1395876 -0.93199855 0.0066355751
-209.19682 -120.96336 995.45691 0.33154562 -0.13420512 -0.93384504 0.007914653
-206.96834 -120.84203 995.90668 0.33116156 -0.12895846 -0.93472016 0
-212.28653 -119.03587 994.216 0.33249962 -0.13567355 -0.93329346 0
-210.83464 -118.9257 994.31702 0.33430254 -0.1367362 -0.93249398 0.0064296508
-209.03577 -119.01421 995.12555 0.33085492 -0.13534139 -0.93392599 0.0075839288
-207.13812 -119.08899 995.82251 0.3386896 -0.1264724 -0.93235946 0
-212.02621 -117.4567 994.12048 0.32821795 -0.13612485 -0.93474221 0
-210.68822 -116.98127 994.23785 0.33501494 -0.13932399 -0.93185502 0.0027813143
-208.97122 -116.94989 994.85822 0.33047161 -0.13463745 -0.93416339 0.0033977432
-207.06714 -117.01966 995.52228 0.34107032 -0.12453569 -0.93175209 0
-205.73711 -116.64839 995.87372 0.33651045 -0.12457839 -0.93340284 0
-210.57455 -115.13864 994.19617 0.32908127 -0.14322294 -0.93337709 0.0049367463
-208.96388 -114.91842 994.86298 0.33324867 -0.13813803 -0.93266457 0
-206.99023 -114.94824 995.19238 0.3417235 -0.12995623 -0.93077189 0
-205.51291 -114.91866 995.71051 0.34128928 -0.13352345 -0.93042624 0.0042563938
-208.91341 -113.1534 994.65668 0.33091977 -0.15317069 -0.93114483 0.0030758597
-206.94415 -112.97411 995.00818 0.34036648 -0.15474831 -0.92747164 0.0012984251
-205.19098 -112.84883 995.65204 0.33341855 -0.15756518 -0.92951882 0.0041483422
-203.01978 -112.67773 995.79675 0.33397877 -0.16231689 -0.92849952 0.0024945564
-208.80002 -111.30844 994.30499 0.33314869 -0.1881202 -0.92391711 0.024443507
-207.12868 -110.91251 994.63995 0.32705912 -0.19222237 -0.92524743 0.0073357448
-204.95714 -110.88958 995.31671 0.32567132 -0.1984655 -0.92441851 0.0034668073
-203.00711 -110.93191 995.76825 0.32538915 -0.19852266 -0.92450559 0
-208.24005 -109.62901 994.29272 0.32103184 -0.20644821 -0.9242931 0.013865834
-207.00464 -108.99816 994.35394 0.30963123 -0.21859224 -0.92538959 0.0042774198
-204.84309 -109.03708 995.12439 0.30935785 -0.2331266 -0.92192715 0.0016615695
-203.11121 -108.9538 995.60016 0.31530368 -0.23310436 -0.91991627 0.00031076849
-206.72009 -107.13219 994.3205 0.29686964 -0.22290552 -0.92853737 0.0031394816
-204.90141 -107.00623 994.83472 0.3083871 -0.22542842 -0.92416424 0.0051635895
-202.8979 -107.02785 995.30573 0.31659019 -0.22773901 -0.92081791 0.010581671
-201.62454 -106.68817 995.50574 0.33373851 -0.21234761 -0.91843736 0.0047049597
-206.73741 -104.93433 994.51398 0.29821482 -0.20670371 -0.93184841 0.01267866
-205.55473 -105.53555 994.07007 0.30562633 -0.21581548 -0.92737061 0.017554464
-202.14407 -105.27792 994.49756 0.32817864 -0.1933393 -0.92461818 0.0065096784
-201.30472 -104.98553 995.29504 0.34619763 -0.18079689 -0.92057574 0.0018969724
-198.92809 -104.54451 995.92029 0.3532767 -0.15613146 -0.92239827 0.010990364
-196.93919 -104.90051 995.6911 0.32279864 -0.14190672 -0.9357689 0.010285067
-195.09575 -104.50944 995.71741 0.33148792 -0.11859713 -0.93597573 0.020281291
-206.70825 -103.79783 994.04279 0.29237729 -0.19129606 -0.93697459 0.0085351141
-200.51245 -103.88522 995.10614 0.36006179 -0.15835419 -0.91939086 0.0062026172
-198.63469 -103.39834 994.46954 0.36515492 -0.14306481 -0.9198882 0.013744214
-197.02979 -102.89047 994.95758 0.3586753 -0.11370161 -0.92651182 0.015368742
-195.19341 -103.30482 995.29059 0.35062802 -0.098730162 -0.93129599 0.016738512
-198.78719 -100.85056 995.28003 0.38440472 -0.10438379 -0.91724426 0.010042699
-197.38959 -101.60055 995.57159 0.3883827 -0.1062567 -0.91535151 0.025587987
-202.13788 -98.039726 994.59631 0.38846949 -0.089872427 -0.91706842 0.033972703
-200.72946 -98.839668 995.11487 0.38764584 -0.089417391 -0.91746134 0.027317327
-199.23524 -98.823753 995.70178 0.39656392 -0.071441971 -0.91522294 0.0082346136
-202.13269 -96.879639 994.59082 0.40500459 -0.070146427 -0.9116199 0.042765077
-201.02643 -96.904388 994.88562 0.40412441 -0.056083288 -0.91298306 0.033584721
-199.08836 -96.947227 995.39752 0.40875822 -0.043997653 -0.91158158 0.015411849
-197.74791 -96.999779 995.98889 0.43074471 -0.052237328 -0.90096074 0.034303218
-202.05292 -95.395042 994.2229 0.4168756 -0.05338363 -0.90739453 0.035686042
-200.73946 -95.024605 994.7804 0.40956062 -0.045918684 -0.91112655 0.019624369
-198.95888 -95.06723 995.34253 0.41365007 -0.047369301 -0.90920281 0.023949552
-197.12868 -94.662659 995.84796 0.39415982 -0.061449576 -0.91698527 0.012366862
-195.97157 -94.083992 995.90662 0.37166601 -0.076711915 -0.9251917 0.021405669
-198.96091 -92.802444 995.1214 0.4038564 -0.089496322 -0.91043419 0.017363327
-197.10124 -92.911568 995.73853 0.37921324 -0.095450133 -0.92037308 0.010340485
-195.96437 -92.921791 995.88947 0.37328637 -0.10677477 -0.92155105 0.031718239
-200.3817 -90.506264 994.68542 0.40136668 -0.091731787 -0.91131228 0
-199.03203 -91.129402 995.21265 0.39815149 -0.10022675 -0.9118278 0.0057607628
-197.05862 -91.153976 995.55243 0.37080562 -0.11169135 -0.92196977 0.0027930418
-195.95291 -90.888672 995.86475 0.36402965 -0.12106015 -0.92348629 0.012327707
-200.52664 -88.972359 994.18951 0.40932477 -0.08952985 -0.90798545 0.020062277
-198.9496 -89.065964 994.83386 0.39801177 -0.10044139 -0.91186517 0.017166346
-197.00018 -89.100372 995.29004 0.36854935 -0.1148565 -0.92248541 0.012617171
-195.62347 -88.842918 995.70563 0.34632224 -0.11916499 -0.9305163 0.0072139711
-200.43607 -87.139229 994.28564 0.40651074 -0.087626249 -0.90943426 0.031875603
-198.88911 -87.013756 994.56366 0.38075927 -0.09618412 -0.91965806 0.021495173
-196.92152 -87.039024 994.92493 0.35047686 -0.1127769 -0.92975664 0.01164177
-195.25697 -87.035248 995.68329 0.33634949 -0.11828015 -0.93427986 0.0023123962
-193.04762 -86.539497 995.99115 0.34783348 -0.13661717 -0.9275493 0.03909241
-159.25662 -87.302475 995.88544 -0.79873174 -0.15927817 -0.58022243 0.0088216253
-200.24374 -85.527992 994.07849 0.39562586 -0.077988863 -0.91509444 0.0097276364
-198.59996 -84.939766 994.341 0.35897478 -0.10586016 -0.92732447 0.00070493959
-196.97206 -85.018906 994.75903 0.34285414 -0.11449218 -0.93238544 0.0019681887
-195.04245 -84.993927 995.47974 0.32788369 -0.12354146 -0.93660551 0.0071698697
-193.09859 -84.704872 995.85297 0.32770059 -0.13405399 -0.93522292 0.02669036
-190.73108 -84.518669 995.49738 0.33529705 -0.13130051 -0.93291807 0.023150053
-159.82698 -84.404892 995.8645 -0.80187422 -0.14570482 -0.57945484 0.0074478714
-198.78963 -83.210991 994.12366 0.35340753 -0.11369208 -0.92853498 0
-197.11676 -82.947868 994.50238 0.34281743 -0.11836532 -0.93191516 0.00082280271
-194.9315 -83.002541 995.24115 0.3279669 -0.12696479 -0.93611842 0.010035901
-193.05338 -83.034912 995.69922 0.32291901 -0.1288345 -0.93761665 0.0096145961
-159.7411 -82.913841 995.35321 -0.8045997 -0.13946956 -0.57720673 0.0086133024
-197.01093 -80.961197 994.29211 0.33670798 -0.12250476 -0.93360609 0.012941268
-194.99361 -81.03344 994.95013 0.3240799 -0.12220888 -0.93810302 0.00057272502
-193.26024 -80.747887 995.37317 0.32416916 -0.11997969 -0.93835992 0
-191.84799 -80.439316 995.91193 0.32480067 -0.11694217 -0.93852496 0
-162.65952 -81.192383 995.45612 -0.76541549 -0.1841725 -0.61661959 0.03013509
-160.27443 -80.867004 995.08862 -0.80300742 -0.14766404 -0.57738584 0.0084897839
-200.81174 -78.872856 994.10596 0.34583372 -0.11396272 -0.93134934 0
-196.69038 -78.944511 994.2467 0.32932287 -0.12029528 -0.93652308 0.0045185797
-195.10393 -78.902924 994.69464 0.32948017 -0.11738577 -0.9368369 0.00087691884
-193.16093 -78.936333 995.18781 0.32531959 -0.11559945 -0.93851161 0
-191.25116 -78.790886 995.86432 0.31228408 -0.11894655 -0.94251287 0
-162.54111 -78.821335 994.7677 -0.74070543 -0.19619678 -0.64254361 0.037635442
-160.474 -78.943077 995.1546 -0.79845703 -0.16798724 -0.57814068 0.0069577307
-196.16893 -77.131157 994.2121 0.33610904 -0.11881634 -0.9342984 0.0066850595
-195.05881 -77.149467 994.48969 0.32850698 -0.11568034 -0.93739074 0.0032477314
-193.03265 -76.940277 994.85522 0.32941189 -0.11261705 -0.93744606 0
-191.16211 -77.060257 995.72931 0.31241223 -0.1226838 -0.94199109 0.0061748028
-160.56163 -77.195938 994.76404 -0.79111409 -0.17765896 -0.58529967 0.0026272661
-196.12648 -75.958092 994.01331 0.34651101 -0.12820232 -0.92924392 0.028823102
-194.83347 -75.238327 994.10901 0.33865473 -0.11959811 -0.9332788 0.01443232
-193.14084 -74.93998 994.79486 0.32407367 -0.11363101 -0.9391827 0.0013295355
-190.90257 -74.906792 995.62274 0.31106365 -0.11534775 -0.94336325 0.00092070457
-189.50429 -74.636459 995.9342 0.30605304 -0.11626907 -0.94488782 0
-194.57976 -73.227982 994.32812 0.3293283 -0.119224 -0.93665814 0.0025835279
-193.06175 -73.110695 994.75854 0.32610366 -0.12015749 -0.93766654 0.0054255649
-190.9418 -73.101997 995.43732 0.30959868 -0.11872131 -0.94342673 0.010015875
-189.67287 -72.701202 995.62207 0.31261745 -0.1152612 -0.94286007 0.009966135
-182.56511 -72.922081 995.19086 0.28630164 -0.11327713 -0.95141983 0.0095691122
-181.91905 -73.454727 995.89716 0.27533159 -0.11588221 -0.95433944 0.011952386
-194.40131 -71.047081 994.1889 0.33317932 -0.12189217 -0.93495125 0.01513798
-192.86339 -71.225906 994.56958 0.32379133 -0.11579943 -0.93901521 0.0016092802
-191.06526 -71.096275 995.0036 0.31187227 -0.11334307 -0.94333929 0.01001023
-189.52954 -70.685234 995.68353 0.31347603 -0.10667071 -0.94358575 0.0051301983
-187.73163 -70.279617 995.86627 0.31218395 -0.10117189 -0.94461924 0
-192.58749 -69.020668 994.2431 0.3319079 -0.11701877 -0.93602556 0.0096759871
-191.02228 -69.055626 994.80652 0.31748739 -0.11037426 -0.94181705 0.0052913968
-189.20987 -69.104134 995.57562 0.31699464 -0.10468692 -0.94263202 0.0022957716
-187.54765 -68.931854 995.93854 0.31850269 -0.10133029 -0.9424904 0
-164.38368 -69.041229 995.51447 -0.53889161 -0.11595584 -0.83435607 0.057249285
-192.59592 -66.995018 994.2373 0.33796626 -0.11707571 -0.93384802 0.0070428909
-190.95435 -67.007149 994.47833 0.32336989 -0.11184853 -0.93963915 0.0016754881
-189.06534 -67.054893 995.25946 0.30973601 -0.10580076 -0.94491786 0.00062591641
-187.32149 -67.086372 995.79291 0.30698532 -0.10355393 -0.94606376 0
-190.8521 -65.045227 994.34924 0.32337233 -0.11742089 -0.93895829 0.0040655388
-189.00568 -65.008934 994.97113 0.30962464 -0.11325891 -0.94408947 0.0011992586
-187.17671 -64.979248 995.69507 0.30838549 -0.10758111 -0.94515854 0
-185.38805 -64.479599 995.8725 0.30563346 -0.10426249 -0.94642359 0
-192.03879 -63.513809 994.10773 0.32560346 -0.11737844 -0.93819225 0.0048587504
-190.69244 -63.161163 994.2984 0.32282928 -0.11772998 -0.93910646 0.0076894923
-188.99648 -62.981167 994.9472 0.31681904 -0.116599 -0.94129187 0.0024567109
-187.06824 -63.013378 995.52948 0.319877 -0.11537544 -0.94040799 0.00012472423
-185.80667 -63.026978 995.79175 0.30950895 -0.11319982 -0.94413453 0
-190.28316 -61.483501 994.08008 0.31817043 -0.11957847 -0.94046187 0.0028028795
-188.92143 -60.932308 994.57587 0.32127786 -0.11975559 -0.93938231 0.002677608
-187.01926 -60.971722 995.29309 0.31848651 -0.11986997 -0.94031775 0.0019491849
-185.50093 -61.071445 995.62598 0.31020078 -0.12000181 -0.94306684 0
-190.30438 -58.600189 994.2243 0.3235893 -0.12396431 -0.93804193 0.01189793
-188.77835 -58.985077 994.50177 0.32147795 -0.12256156 -0.93895185 0.0072142892
-186.9641 -58.929226 995.02289 0.31306297 -0.1206771 -0.9420343 0.0018596378
-184.99266 -58.946049 995.37891 0.31175306 -0.12090044 -0.94243997 0.00065914111
-183.64822 -58.689041 995.9845 0.31085941 -0.12682675 -0.94195616 0.012694011
-165.41968 -59.165752 994.87726 -0.46244895 -0.19157498 -0.86570203 0.027014196
-188.67957 -56.869785 994.3692 0.32990777 -0.13481782 -0.93433666 0.036807898
-187.10493 -56.830967 994.66968 0.3171398 -0.12995595 -0.93943268 0.012774677
-185.04134 -56.911404 995.23608 0.31051627 -0.1250781 -0.94230312 0.0014048471
-183.60626 -56.939281 995.77643 0.30694848 -0.12620057 -0.94332176 0.010762952
-165.90417 -56.821877 994.32574 -0.50031102 -0.20644784 -0.84087354 0.043444335
-188.46956 -55.323063 994.30145 0.32131761 -0.12759681 -0.93833578 0.014980511
-186.97034 -55.079201 994.47882 0.30995503 -0.12657069 -0.94228852 0.0014975134
-184.87997 -55.010719 995.26337 0.31262887 -0.12656832 -0.94140512 0.004011244
-183.12415 -54.791908 995.71228 0.31015891 -0.12387031 -0.94258034 0.00091516238
-181.86043 -54.042221 995.81549 0.30640686 -0.12453063 -0.94371974 0
-188.52437 -53.962406 994.09326 0.32137924 -0.1288808 -0.9381392 0.019625966
-187.03667 -53.106686 994.36664 0.31497401 -0.12759517 -0.9404844 0.013160442
-184.96581 -53.004398 994.85101 0.3159838 -0.12393191 -0.9406355 0.0010284359
-182.97906 -52.873581 995.57703 0.31407747 -0.12207478 -0.94151634 0
-181.47247 -52.691116 995.83148 0.30976015 -0.12538743 -0.94251078 0
-166.74721 -53.441181 995.93109 -0.41126671 -0.18499273 -0.89254546 0.061303467
-132.83344 -53.58371 994.25165 0.055206336 0.97283053 -0.22484 0
-186.20854 -51.071491 994.18066 0.31925264 -0.12548634 -0.93932474 0.011128999
-184.92242 -51.093445 994.65778 0.30977786 -0.12564392 -0.94247079 0.0045092953
-183.04501 -51.123741 995.32031 0.30309194 -0.12633844 -0.94454956 0.00057887624
-181.1207 -51.07769 995.6217 0.29916373 -0.12578145 -0.94587535 0.0062766401
-166.63606 -50.803757 995.2948 -0.48803258 -0.18836166 -0.85225827 0.057892717
-186.17207 -48.75032 994.00885 0.31382784 -0.12608193 -0.94107145 0.0019330417
-184.99268 -49.338856 994.26294 0.30807003 -0.12751089 -0.94277984 0.0092893383
-183.0985 -49.02459 994.99902 0.30548045 -0.13411093 -0.9427067 0.016957592
-181.17342 -49.093307 995.29126 0.30878356 -0.13303675 -0.9417823 0.019098092
-166.62137 -48.891521 995.22607 -0.49389839 -0.18770847 -0.84901708 0.052964937
-184.82532 -47.209743 994.07745 0.30300865 -0.12721205 -0.94445896 0.0056253374
-183.11139 -47.046768 994.77155 0.30220634 -0.1284951 -0.94454241 0.0048350287
-180.85216 -47.06044 995.14478 0.30796111 -0.13148935 -0.94226879 0.012160684
-179.51804 -46.800182 995.81519 0.30799347 -0.13187443 -0.94220442 0.017969841
-167.4274 -46.924965 995.1991 -0.43833107 -0.1824327 -0.8801046 0.057456244
-184.43372 -45.571064 994.07153 0.29489172 -0.1280867 -0.94690692 0.0023286599
-183.07034 -45.013096 994.56738 0.30417091 -0.13172165 -0.94346672 0.015547819
-180.83783 -45.032642 995.08435 0.30941069 -0.13313769 -0.94156224 0.018016716
-178.97081 -44.830757 995.66827 0.30506679 -0.13320878 -0.94296849 0.022543835
-177.1884 -45.349304 995.82251 0.26443553 -0.14044356 -0.95412236 0.033217251
-175.4547 -45.076157 995.52942 0.19927493 -0.1454194 -0.96909374 0.041589011
-167.49123 -45.13155 995.00275 -0.45430833 -0.17759547 -0.87296259 0.056271851
-182.94093 -43.030628 994.31256 0.29965371 -0.1279383 -0.94543082 0.013069852
-181.07541 -42.996449 994.80872 0.30648869 -0.13035484 -0.94290632 0.014162969
-179.13263 -43.015583 995.32562 0.30862966 -0.13616927 -0.94138497 0.027412593
-177.76581 -43.034565 995.81738 0.28153461 -0.13290189 -0.95030284 0.012695034
-175.63075 -43.585716 995.25787 0.1965304 -0.14194363 -0.97016895 0.027525194
-168.4669 -42.444683 995.88843 -0.37606683 -0.18406039 -0.90812749 0.073018119
-167.73817 -42.984711 995.01105 -0.45546731 -0.18579541 -0.87064898 0.057275135
-182.56456 -41.095028 994.22217 0.30317923 -0.12581465 -0.94459152 0.010016018
-181.02776 -40.962269 994.56439 0.30516532 -0.12309593 -0.94431007 0.0021270781
-179.08444 -40.98027 995.07526 0.30197626 -0.13132031 -0.9442274 0.015751772
-177.21727 -40.887142 995.69757 0.26341057 -0.13929433 -0.95457423 0.02511769
-175.99965 -40.134254 995.72919 0.22602823 -0.14333892 -0.96351713 0.029969541
-168.49246 -40.803085 995.36584 -0.37946242 -0.18109308 -0.9073112 0.066208258
-167.61653 -41.220718 994.3045 -0.5018217 -0.18139485 -0.84573686 0.057955295
-182.32849 -39.036572 994.06116 0.31415588 -0.1289144 -0.9405781 0.011179653
-180.89964 -38.999519 994.27576 0.30837417 -0.12601471 -0.94288158 0.0077014104
-179.04228 -38.947273 994.85809 0.29121169 -0.12860194 -0.94797534 0.013436925
-177.1073 -38.966423 995.42218 0.25597513 -0.14281246 -0.95607603 0.04103221
-175.73271 -39.084972 995.54443 0.2120228 -0.14748006 -0.9660725 0.048600651
-168.58681 -38.934605 994.90796 -0.38553336 -0.17645855 -0.90566349 0.064652033
-180.90707 -36.961372 994.25232 0.31201813 -0.12930904 -0.94123524 0.0012359463
-178.99818 -36.914898 994.6283 0.28839993 -0.12874648 -0.94881493 0.00051021925
-177.07195 -36.934814 995.23932 0.24817884 -0.1370118 -0.95897597 0.024347296
-175.60237 -36.917683 995.70227 0.20769356 -0.14758649 -0.96699625 0.045685962
-169.1877 -36.917038 995.04053 -0.26879281 -0.17681743 -0.94682944 0.055202354
-180.34949 -34.874096 994.07812 0.30915454 -0.13268322 -0.94171053 0.00014939846
-178.85823 -34.932598 994.3056 0.28932863 -0.13638458 -0.94746411 0.011268887
-177.01692 -34.899967 994.94531 0.23632701 -0.14036663 -0.96148157 0.015373568
-175.39119 -34.921402 995.61987 0.18069425 -0.14280146 -0.97311729 0.010067892
-170.18045 -34.630596 995.76611 -0.066743478 -0.1816168 -0.98110175 0.073361099
-169.37869 -34.873798 994.47168 -0.32805803 -0.18747911 -0.9258669 0.074387379
-178.70416 -33.20948 994.27734 0.28555059 -0.14007342 -0.9480719 0.016994795
-177.03334 -33.042381 994.72382 0.22714689 -0.14632958 -0.96280414 0.020706566
-175.00024 -32.946404 995.39581 0.16220985 -0.15254256 -0.97489429 0.025614709
-173.48991 -32.708855 995.85358 0.11369991 -0.16058175 -0.98045182 0.040826578
-170.24814 -32.71249 995.495 -0.090449922 -0.18028216 -0.97944742 0.065860048
-169.32083 -33.129368 994.14459 -0.37774989 -0.19748652 -0.90460157 0.0897379
-178.45607 -31.69389 994.07471 0.27139965 -0.13921732 -0.95234489 0.01245144
-176.87395 -31.047651 994.46503 0.21289194 -0.14656886 -0.96601993 0.020900626
-175.07283 -30.944256 995.11041 0.15567891 -0.15301995 -0.97588372 0.027496722
-173.0674 -30.870222 995.66724 0.096274443 -0.16233988 -0.98202699 0.041248076
-171.06831 -30.632696 995.54358 -0.02099975 -0.18095027 -0.98326802 0.070075892
-169.77545 -31.112263 994.27002 -0.2136517 -0.18960617 -0.95833313 0.069600694
-178.59656 -29.671671 994.06122 0.27048028 -0.14030486 -0.95244688 0.020608138
-176.89613 -29.09923 994.30554 0.21734725 -0.15913013 -0.9630357 0.059888799
-174.97188 -29.115255 994.92926 0.14834189 -0.15721355 -0.9763599 0.044662375
-173.04924 -29.131914 995.57379 0.090045109 -0.16008598 -0.98298746 0.039406229
-171.27133 -29.052071 995.38104 -0.0035912886 -0.16835652 -0.98571962 0.04123161
-176.62466 -27.114893 994.1911 0.2035137 -0.15290233 -0.96705902 0.046243958
-174.92294 -27.084673 994.66296 0.13932373 -0.15199029 -0.97851306 0.040404726
-173.00647 -27.101019 995.34015 0.075504631 -0.15507394 -0.98501325 0.034455944
-171.32329 -27.206253 995.01904 -0.010511084 -0.16363996 -0.9864642 0.037486244
-176.27817 -25.338341 994.11975 0.18599711 -0.14265738 -0.97213888 0.019288735
-174.79332 -25.054798 994.38812 0.13586326 -0.14675732 -0.97979766 0.026168024
-172.93849 -25.06743 994.96051 0.066564225 -0.15127453 -0.98624808 0.029207459
-171.80981 -25.071243 995.15692 0.0088788169 -0.15852022 -0.98731583 0.03827326
-176.26405 -23.892513 994.04785 0.18631485 -0.14308567 -0.97201508 0.023263969
-174.80124 -23.14678 994.32294 0.13694876 -0.1493205 -0.97925919 0.028480792
-173.01991 -22.95083 994.48492 0.068211235 -0.15127148 -0.98613602 0.023911117
-171.70197 -23.322443 994.54132 -0.0089371866 -0.15734604 -0.98750305 0.033924907
19.484152 -23.843317 995.76538 -0.15332027 0.45503339 -0.87717587 0.017348142
20.032854 -23.810213 994.38135 -0.10105278 0.43405235 -0.89520216 0.0092915818
31.5704 -22.386961 995.06586 0.32381085 0.53593361 -0.77969331 0.031461522
-173.07021 -21.058146 994.21979 0.064367309 -0.15439199 -0.98591077 0.013624337
19.456779 -20.354694 994.37726 -0.12971902 0.51251024 -0.84882647 0.025121331
21.757063 -20.352301 994.2525 -0.034495119 0.51104754 -0.85886002 0.016178854
27.516781 -20.642658 994.34619 0.17623489 0.5766663 -0.79774511 0.04961668
28.282114 -20.545046 994.26398 0.18117331 0.58062088 -0.79376042 0.04473269
30.827524 -21.027069 995.00214 0.2726061 0.5751617 -0.77128136 0.033817243
-174.51268 -19.847563 994.01868 0.11755586 -0.14722519 -0.98209238 0.0060286787
-173.1748 -19.126633 994.12158 0.061895702 -0.1561754 -0.98578817 0.017837288
19.475639 -19.509705 995.34381 -0.11959743 0.53057963 -0.83915538 0.021557923
20.979244 -18.996456 995.16864 -0.046697322 0.54237455 -0.83883798 0.018838627
22.845921 -18.560799 994.67572 0.031745061 0.57015574 -0.82092303 0.033838235
25.028877 -18.440159 994.63257 0.14186947 0.6037634 -0.78443784 0.0523303
26.958727 -19.005827 995.00104 0.18091333 0.61685598 -0.76600206 0.056750931
28.97168 -19.048841 994.88629 0.21760355 0.61063784 -0.76142627 0.040825535
30.723999 -19.516926 995.65753 0.27191964 0.60576481 -0.74773568 0.034597177
21.321136 -17.262951 995.40686 -0.010686012 0.61466283 -0.78871757 0.030511882
23.220406 -17.491741 995.29602 0.068746082 0.6160478 -0.7847032 0.042974509
24.828451 -17.246523 995.39612 0.14578523 0.62108767 -0.7700628 0.043630932
27.55974 -17.214539 995.91064 0.21586075 0.63262695 -0.74376559 0.040254243
28.595163 -17.270725 995.82068 0.22979841 0.62208366 -0.7484681 0.030541414
-124.78189 14.7979 995.00446 0.86383158 -0.30315694 -0.40235674 0.018525749
-123.65388 14.80118 995.24622 0.9299559 -0.11743258 -0.34841305 0.0019288032
-240.56213 29.319099 994.9184 -0.543993 0.10911749 -0.83196461 0.10285395
-239.84248 29.301949 994.35895 -0.57781482 0.096757956 -0.81041229 0.10737925
-236.2708 29.869404 994.08252 -0.58526319 0.093983918 -0.8053782 0.10624096
-238.58423 30.484398 995.20044 -0.5889914 0.0931096 -0.80275756 0.10819276
-237.10147 30.625214 995.11407 -0.5666635 0.099543966 -0.81791413 0.10241345
-235.51268 31.054235 994.98773 -0.57341874 0.098077349 -0.81337059 0.1058509
-206.27701 31.048931 995.72076 -0.12292983 -0.98343939 -0.13317396 0
-240.74481 33.979202 995.65381 -0.57586455 0.058153085 -0.81547427 0.12597936
-238.84926 33.957409 995.07123 -0.59703606 0.091084749 -0.79702663 0.11599842
-237.06856 33.786201 995.78143 -0.59937823 0.090081245 -0.79538113 0.11240401
-235.4286 33.076649 994.82941 -0.59473282 0.092973493 -0.79852915 0.11248916
-240.856 35.035835 995.0722 -0.56152487 0.050616119 -0.82591027 0.12688403
-238.93558 34.747238 994.453 -0.60748369 0.087726399 -0.789473 0.11885722
-236.57906 34.501934 994.13049 -0.60573393 0.089148574 -0.79065728 0.11765639
-238.92027 36.642231 994.5415 -0.5382129 0.054123178 -0.84106928 0.11890984
-236.7347 36.841248 994.77283 -0.55396336 0.055362917 -0.83069825 0.11632299
-91.515732 49.386101 994.70056 -0.059177604 0.77390456 -0.63053125 0.041975413
-90.161781 50.011448 995.69104 0.096241474 0.8728044 -0.47848737 0
-88.447739 50.02158 995.92291 0.103377 0.87696159 -0.46930975 0.0023090749
-23.503464 -166.65698 997.52924 -0.35289896 -0.1234528 -0.92748147 0.039338645
-18.684095 -166.53099 997.96399 -0.22969592 -0.11983954 -0.96585625 0
-16.941286 -166.48717 997.70996 -0.18286347 -0.14582486 -0.97226334 0.008418086
-14.617638 -166.41304 997.27643 -0.11639091 -0.12019184 -0.98590428 0
-12.876794 -166.36629 997.00348 -0.082139254 -0.15321302 -0.98477358 0.015918
-11.143422 -166.41664 997.31183 -0.049237847 -0.15827033 -0.98616737 0.024037428
-9.1181707 -166.439 997.453 -0.037435848 -0.14129691 -0.98925918 0.021855503
-7.3838749 -166.50999 997.88416 -0.048951719 -0.11584657 -0.99206012 0.016673543
-4.7753959 -166.46312 997.61041 -0.068176694 -0.120508 -0.99036849 0.022216879
-3.0368617 -166.41217 997.30927 -0.10067066 -0.13681321 -0.98546821 0.045112159
-1.8789126 -166.42209 997.37115 -0.12865093 -0.13451535 -0.98252457 0.043773256
-223.62851 -164.92818 997.99823 0.015833983 -0.171313 -0.98508942 0.041134678
-22.736792 -165.15627 997.84723 -0.33537498 -0.061734717 -0.94005984 0.02643968
-20.935844 -164.90114 997.38208 -0.2798554 -0.061504994 -0.95806998 0.0060544019
-19.016533 -165.00992 997.21808 -0.23366281 -0.078144312 -0.96917248 0.0019519329
-16.924494 -165.16748 996.77429 -0.18200059 -0.091147356 -0.97906482 0.0078979693
-14.989883 -165.1064 996.41461 -0.12835999 -0.090839937 -0.98755854 0.0078012859
-13.03213 -165.16795 996.29285 -0.087512776 -0.096037507 -0.99152321 0.011640062
-11.133378 -165.11273 996.46832 -0.052213799 -0.1068296 -0.99290538 0.026321493
-9.1336241 -165.03925 996.3512 -0.050096437 -0.084887378 -0.99513036 0.024886597
-7.0098591 -165.07732 996.26855 -0.059741691 -0.047894742 -0.99706417 0.0014503598
-5.0591321 -165.12202 996.54376 -0.067803778 -0.065421782 -0.99555141 0.011863518
-3.0335472 -165.09074 996.36066 -0.09422864 -0.089038417 -0.99156094 0.031076934
-1.8771753 -164.57593 996.76685 -0.1264158 -0.085216619 -0.98831028 0.047523912
0.43750271 -164.56291 996.69226 -0.20646743 -0.080437198 -0.97514158 0.060071908
-223.59357 -162.86604 997.89209 0.022981498 -0.16591515 -0.98587227 0.02970767
-22.444572 -163.01721 997.82666 -0.34256288 9.6709278e-05 -0.93949491 0.021652564
-20.993853 -162.99825 997.71942 -0.29320526 2.8348761e-06 -0.95604956 0.0071946508
-18.889158 -162.99536 997.16473 -0.23544425 -0.0035915158 -0.97188115 0.005718668
-16.914757 -163.05318 996.29645 -0.17800847 -0.0077920076 -0.98399806 0
-14.888942 -163.03806 996.21393 -0.13022324 -0.017281169 -0.99133402 0.0096675754
-13.151971 -162.87115 996.0896 -0.092788942 -0.0080881454 -0.99565291 0.0099082477
-10.93586 -163.1214 996.14679 -0.055965688 -0.031739667 -0.99792808 0.028582683
-9.2774849 -163.41841 996.07343 -0.056474417 -0.027617628 -0.99802202 0.020056752
-7.426856 -163.07069 996.08594 -0.058942568 0.0095729204 -0.99821544 0
-4.998704 -162.97534 996.22052 -0.068673909 -0.0029026042 -0.99763495 0.0054973839
-3.032676 -163.04939 996.32257 -0.098605126 -0.023206007 -0.994856 0.04356721
-1.8759464 -163.33833 996.31366 -0.12683193 -0.043084063 -0.99098814 0.052357942
-224.30064 -160.66971 997.83069 -0.0079082139 -0.16408885 -0.9864139 0.024647739
-223.03484 -160.92072 997.7995 0.04781853 -0.1645743 -0.98520494 0.018531337
-221.3999 -161.11208 997.95508 0.091429129 -0.16648693 -0.98179567 0.022437384
