# .PCD v0.7 - Point Cloud Data file format
VERSION 0.7
FIELDS x y z normal_x normal_y normal_z curvature
SIZE 4 4 4 4 4 4 4
TYPE F F F F F F F
COUNT 1 1 1 1 1 1 1
WIDTH 618
HEIGHT 1
VIEWPOINT 0 0 0 1 0 0 0
POINTS 618
DATA ascii
-100.28242 53.640301 633.20648 0.19636942 -0.25394866 -0.947074 0.022949686
-97.964432 53.005577 633.17578 0.34963214 -0.29559076 -0.88903511 0.039364535
-96.693436 53.231907 633.32605 0.40645885 -0.29766032 -0.86382258 0.039437741
-95.491661 53.403591 633.95453 0.45958638 -0.29508236 -0.83767939 0.02641535
-102.171 54.072498 634.44702 0.083931014 -0.23128916 -0.96925795 0.033373024
-101.09047 54.612751 634.03455 0.15181147 -0.23360601 -0.96040696 0.023181083
-100.20367 54.826622 633.33765 0.20343423 -0.24141079 -0.94886005 0.032471202
-98.342369 54.4193 633.25067 0.33366773 -0.2754496 -0.90155047 0.043180387
-96.282463 54.578289 633.15454 0.39843464 -0.26989996 -0.87658644 0.018977676
-95.201042 54.750999 633.62213 0.44429523 -0.27271464 -0.85336304 0.0095162634
-94.273483 54.981682 634.31104 0.50123602 -0.28192678 -0.81809515 0.013340565
-101.09623 56.253452 634.13446 0.1187915 -0.19407523 -0.97376764 0.063353643
-100.0822 56.284 633.28406 0.21599481 -0.22774749 -0.94946152 0.061535951
-97.663345 56.800301 633.24097 0.38283274 -0.26850879 -0.88393557 0.061480641
-96.03656 56.36137 633.01001 0.4493427 -0.28498477 -0.84668452 0.056262929
-95.103661 56.219784 633.36774 0.46802896 -0.27930072 -0.83841515 0.032396283
-93.939644 56.326401 634.19305 0.52201188 -0.28075948 -0.80540526 0.023676172
-92.846497 56.564301 634.49597 0.56812268 -0.28270599 -0.77286094 0.02381557
-101.13838 57.715733 634.13373 -0.03851819 -0.089837156 -0.99521136 0.095332012
-100.09571 57.713661 633.42444 0.16185398 -0.17672674 -0.9708609 0.10358579
-97.647598 57.1311 633.13501 0.37939066 -0.26464757 -0.88658017 0.062439073
-97.453148 57.7169 633.341 0.39286226 -0.26214409 -0.88144189 0.072629407
-95.112274 57.719509 633.40887 0.49405476 -0.28718621 -0.82063031 0.055348441
-93.841087 57.748444 634.21295 0.53831965 -0.28404632 -0.79342908 0.036172409
-100.93638 59.19783 634.02045 -0.19521877 -4.0976483e-06 -0.98075968 0.098907642
-100.03036 59.227039 633.43524 -0.016110118 -0.07969337 -0.99668926 0.097197555
-97.175301 58.706299 633 0.37661698 -0.24783649 -0.89260113 0.07195542
-94.863045 58.998993 633.32159 0.50725061 -0.28600663 -0.81295574 0.060868122
-93.925529 59.260147 634.06238 0.53777385 -0.2834014 -0.79402947 0.046601478
-100.73243 60.646526 633.91315 -0.33276001 0.050133511 -0.94167799 0.088617258
-99.921066 60.806229 633.4245 -0.21345255 -0.0065390952 -0.97693151 0.092935018
-94.680199 60.064701 633.01099 0.49246463 -0.27877361 -0.82447791 0.057150166
-93.669746 60.732494 633.70392 0.54608679 -0.29076833 -0.78564811 0.061634943
-92.9776 61.497501 633.77698 0.57051188 -0.30155745 -0.76392365 0.059437294
-99.923294 62.235474 633.46643 -0.3729488 0.035792254 -0.92716134 0.081456937
-93.335342 62.068748 633.41956 0.54147577 -0.30359563 -0.78398579 0.068002537
-92.559669 62.399456 633.96527 0.5671398 -0.30858776 -0.76362693 0.055704277
-99.7202 63.678936 633.44592 -0.50080973 0.04381384 -0.86444771 0.092407286
-92.136612 63.488548 633.50128 0.53617394 -0.31927419 -0.7813971 0.041985162
-91.04332 64.073807 633.82812 0.56686747 -0.34027097 -0.75025123 0.032947354
-99.437065 65.274506 633.52411 -0.58047819 0.048213728 -0.81284714 0.09574993
-91.5429 64.73555 633.25348 0.53301966 -0.35234359 -0.76924902 0.043780465
-90.675804 65.177895 633.79492 0.560826 -0.36953348 -0.74089086 0.035327297
-99.271179 66.616104 633.95813 -0.63004965 0.069670327 -0.77342325 0.094166383
-98.841003 67.372398 633.38 -0.62423086 0.073009536 -0.77782094 0.098740108
-90.332474 66.422882 633.56409 0.54862368 -0.42684367 -0.71889955 0.045419812
-89.481308 66.941948 633.83545 0.5546816 -0.46553344 -0.68964267 0.036264334
-99.111 68.046906 634.37402 -0.64330351 0.094325937 -0.75977844 0.079719722
-98.831413 68.199539 633.89294 -0.63012987 0.092395589 -0.77097303 0.087971531
-89.178711 68.233498 633.75458 0.53227717 -0.54890913 -0.64449972 0.043166228
-88.312401 67.9272 634.49701 0.56774485 -0.53690267 -0.6240204 0.037087586
-98.47953 69.554199 633.95563 -0.63130504 0.1259921 -0.76523191 0.084297247
-88.876686 69.559555 633.42761 0.50561386 -0.60956961 -0.61055672 0.036126971
-88.075394 69.847435 633.93927 0.52283263 -0.6224966 -0.58236068 0.034508679
-67.121445 69.784698 633.14001 -0.024429644 -0.99958837 0.0150452 0.0001366716
-87.591637 70.955505 633.63947 0.51155645 -0.6476109 -0.56472135 0.024374364
-86.48613 71.645523 633.91663 0.53263998 -0.64966524 -0.54242933 0.01104371
-85.851784 72.154182 633.36951 0.54572028 -0.6614216 -0.51450068 0.010729673
-84.852371 72.252663 633.91998 0.5700047 -0.65296584 -0.49872851 0.0052413796
-83.125862 72.562332 633.69568 0.58037895 -0.65475392 -0.4842082 0.0073489286
-81.913933 73.048035 633.82861 0.57778239 -0.6408242 -0.50548184 0.0028757844
-80.806099 73.142799 634.48199 0.57621753 -0.63628924 -0.5129419 0.00014395641
-81.322975 74.048698 633.54681 0.58893722 -0.62729979 -0.50955665 0.0038571663
-80.561546 74.379013 634.00775 0.59896672 -0.62126267 -0.50524414 0.008248114
-81.095596 75.147995 633.16199 0.60968488 -0.60535848 -0.51168889 0.0091696382
-80.09227 75.648804 633.71625 0.62262905 -0.58233964 -0.52269834 0.010835448
-79.239685 76.15316 634.14026 0.64279765 -0.56650782 -0.51563573 0.017746348
-79.717888 76.904907 633.42529 0.64306659 -0.53127259 -0.55155683 0.0035365138
-78.838692 77.316765 633.88342 0.66281056 -0.51591098 -0.54269511 0.009975438
-77.850304 77.909798 634.45001 0.69532484 -0.50042337 -0.51584864 0.022994736
-78.381287 78.578804 633.534 0.68283796 -0.46917754 -0.56000417 0.0053736148
-77.586617 78.960823 634.06525 0.70111144 -0.45650727 -0.54776257 0.01034881
-78.138 79.670753 633.07001 0.69764036 -0.43069005 -0.57254171 0.0016845625
-77.242645 80.256813 633.62701 0.7000705 -0.41834402 -0.57869637 0.0010473069
-76.332214 80.576195 634.23145 0.69607186 -0.41420886 -0.58644259 0
-76.749115 81.626778 633.29993 0.71896273 -0.39739048 -0.57023972 0.007624133
-75.889915 81.851624 634.05176 0.71035796 -0.39753193 -0.58082688 0.0029800036
-74.895401 82.450302 634.427 0.71098113 -0.39161831 -0.58407283 0.00130129
-76.550156 82.842751 633.04901 0.7301122 -0.3847591 -0.56470931 0.014971493
-75.512856 83.120003 633.68134 0.72105521 -0.38336506 -0.57715738 0.0074531948
-74.791138 83.454819 634.10999 0.72255176 -0.38355586 -0.5751555 0.0091894772
-75.175735 84.396019 633.31433 0.73283714 -0.37114352 -0.57026511 0.01794445
-74.388626 84.85997 633.78088 0.73157364 -0.36628622 -0.57500821 0.015927987
-73.918633 86.085945 633.57166 0.73411834 -0.34792468 -0.58311129 0.016458267
-73.313843 86.434822 634.02563 0.73572516 -0.34755516 -0.5813036 0.017145213
-73.972519 87.803421 633.39154 0.73852658 -0.31909862 -0.5939315 0.017335111
-73.365173 87.429344 633.78845 0.74138385 -0.32649252 -0.58630425 0.019096851
-74.536697 88.654503 633.242 0.72691339 -0.30243164 -0.61654854 0.0074352282
-76.365501 90.032898 633.32202 0.73141545 -0.25961024 -0.63058221 0.013718715
-100.9075 43.489098 635.94299 0.33620992 -0.48072308 -0.80985689 0.043863945
-102.2224 44.569199 635.73083 0.25199777 -0.45709744 -0.85297078 0.047220539
-101.17631 44.299686 635.55298 0.29999688 -0.45873639 -0.83639872 0.036480512
-99.97937 44.512302 635.63525 0.35857382 -0.44739982 -0.81930345 0.025895743
-98.926804 44.8339 635.66302 0.39850596 -0.44455415 -0.80222481 0.025375165
-102.52895 45.721207 635.41425 0.20836914 -0.41853637 -0.88397372 0.037210878
-101.37238 45.525158 634.85931 0.25736648 -0.42132622 -0.8696245 0.030491214
-99.728317 45.673958 635.07068 0.34009477 -0.42354465 -0.83961028 0.02329527
-98.524422 45.920895 635.58667 0.40477148 -0.42755523 -0.80830473 0.024702488
-103.6256 47.590183 635.90399 0.12925632 -0.37432945 -0.91824311 0.043097295
-102.89638 47.274864 635.32855 0.16981371 -0.385571 -0.90691692 0.044101868
-101.72 46.5783 634.56201 0.2233161 -0.4028571 -0.88760138 0.04183609
-99.146713 46.944393 634.77319 0.36118168 -0.40767837 -0.83865732 0.038559496
-98.180557 47.264309 635.19891 0.39674056 -0.40286851 -0.82479936 0.023478055
-97.341698 47.7953 635.70398 0.42440999 -0.395547 -0.81450522 0.01118619
-103.84299 48.826557 635.68219 0.073099576 -0.35215202 -0.93308383 0.070974752
-102.97771 48.716606 635.02869 0.13370869 -0.35534999 -0.92512065 0.056398988
-97.89679 48.468128 634.85699 0.4041537 -0.38767281 -0.82847428 0.035395019
-97.006287 48.815304 635.47382 0.44223782 -0.38838404 -0.80844504 0.029451974
-104.00379 50.3438 635.54254 -0.0031535965 -0.3098239 -0.95078874 0.07476633
-103.07931 50.167435 634.88483 0.093182176 -0.31980038 -0.94289178 0.059526104
-97.650597 49.541302 634.724 0.39785147 -0.36788681 -0.8404603 0.031705108
-96.649681 50.164097 635.01978 0.44455591 -0.365338 -0.81786191 0.035593338
-95.724464 50.607426 635.53516 0.50668377 -0.37191391 -0.77778637 0.049593758
-104.06294 51.742455 635.51288 -0.039534427 -0.25894666 -0.96508223 0.050871454
-103.06251 51.761673 634.86353 0.064510301 -0.27777267 -0.95847833 0.044940609
-96.12146 51.199665 634.6347 0.45684013 -0.34309769 -0.82071984 0.037262231
-95.316818 51.785595 635.23633 0.51761854 -0.34635976 -0.782372 0.049324539
-103.94953 53.200729 635.51727 -0.098946311 -0.21252622 -0.9721328 0.046911038
-102.99171 53.267887 634.98572 0.014865491 -0.23631385 -0.97156304 0.043125585
-94.889442 53.024643 635.06842 0.5201956 -0.31771395 -0.79275107 0.038881142
-94.07354 53.514397 635.51733 0.55412257 -0.31295657 -0.77136666 0.031005751
-103.70238 54.602161 635.62695 -0.12949319 -0.16592523 -0.97759926 0.03637385
-102.79871 54.763165 635.13934 -0.013131355 -0.19257015 -0.98119527 0.030521126
-101.75919 54.939518 634.61969 0.096806869 -0.21567015 -0.97165573 0.024390759
-94.899597 54.071098 634.55103 0.47701031 -0.2812027 -0.83269817 0.0036778662
-93.688873 54.743259 635.15283 0.56544369 -0.3010757 -0.76787162 0.035464976
-92.836731 55.156834 635.74689 0.61072052 -0.30143234 -0.73222882 0.036644306
-102.50138 56.205349 635.15448 -0.095541887 -0.11024406 -0.98930174 0.052536175
-101.7015 56.167149 634.57086 0.034783226 -0.16343652 -0.98594052 0.055474997
-93.41404 56.096237 634.85175 0.5592081 -0.28703964 -0.77774966 0.02702591
-92.509346 56.292847 635.41425 0.60876882 -0.29091549 -0.7380845 0.030809788
-102.30489 57.400269 634.92322 -0.22565447 -0.015583383 -0.97408277 0.082778729
-101.75046 57.708435 634.62067 -0.1635841 -0.03398728 -0.98594379 0.095136434
-93.264862 57.674717 634.65332 0.55920494 -0.28236985 -0.77945954 0.028422695
-92.304276 57.772003 635.28638 0.60668349 -0.28628293 -0.74160439 0.030367432
-91.402321 58.11253 635.91553 0.65420043 -0.29173866 -0.69778961 0.033798985
-102.198 58.5336 635.97803 -0.37794062 0.093216494 -0.92112523 0.083434597
-101.55187 59.077534 634.78815 -0.30672175 0.052528668 -0.95034862 0.092780955
-93.217232 59.314365 634.72144 0.57275629 -0.28648058 -0.76803577 0.044546604
-92.338531 59.220253 635.4361 0.60839367 -0.28828225 -0.73942572 0.036632061
-91.386505 58.778431 635.92963 0.63979012 -0.28807428 -0.7125178 0.026052071
-101.09325 60.637398 634.74927 -0.3939954 0.088837631 -0.91480905 0.088281251
-93.091003 60.550251 634.5625 0.58714432 -0.29357505 -0.75437081 0.058762155
-92.346581 60.770763 635.32465 0.61216956 -0.29926327 -0.73190844 0.053415827
-91.453499 61.466202 635.83398 0.63408822 -0.30643463 -0.70995069 0.046648175
-91.993759 62.085232 635.073 0.6077351 -0.31017333 -0.73106128 0.056357212
-91.211906 62.461395 635.53027 0.61819088 -0.31365275 -0.72073716 0.040841941
-100.2295 64.246445 635.0105 -0.57208037 0.09140794 -0.81508809 0.074475296
-91.738602 63.2836 634.62598 0.58304203 -0.31943318 -0.74701029 0.048424751
-90.663887 63.594318 635.16895 0.61062235 -0.32965136 -0.7200489 0.032430965
-89.753326 64.125259 635.67859 0.64495724 -0.3473177 -0.68073529 0.023663398
-100.13957 65.265503 635.51453 -0.62559211 0.090190008 -0.77491951 0.073067695
-90.1661 64.773232 634.76166 0.60166073 -0.3586418 -0.71370894 0.031895272
-89.555328 65.212158 635.27271 0.62014258 -0.37356585 -0.68983459 0.02270991
-99.69474 66.8843 635.20532 -0.65960991 0.081381626 -0.74718928 0.073844694
-88.858841 66.648094 635.42194 0.60628951 -0.43652466 -0.66472501 0.019006222
-88.354347 67.060875 635.63 0.61360961 -0.46403965 -0.6388666 0.013738528
-99.315407 68.375038 635.15771 -0.6548295 0.10027967 -0.74909437 0.060904793
-88.556274 68.091469 634.61133 0.56049329 -0.53410941 -0.63290948 0.037044782
-87.869461 68.324684 635.3645 0.59125435 -0.54730016 -0.59235203 0.026867352
-99.085266 69.615967 635.89801 -0.683227 0.1165128 -0.72085065 0.052448239
-98.793449 69.733856 635.24304 -0.65570635 0.13208604 -0.74337238 0.066755727
-87.457527 69.680725 635.05469 0.55550176 -0.59762341 -0.57815576 0.020230018
-86.639442 70.023338 635.56299 0.5802806 -0.60994232 -0.53967106 0.0089227064
-98.039703 71.698502 635.508 -0.64336479 0.20664725 -0.73714226 0.064968318
-86.155708 71.13192 635.12219 0.56759793 -0.63776726 -0.52065867 0.0097206384
-84.964035 71.740601 635.47656 0.57870066 -0.64879203 -0.49414015 0.0080217179
-83.963203 71.9552 635.99701 0.57178015 -0.64610958 -0.50557876 0.0017195436
-84.747887 72.113663 635.03448 0.57566923 -0.65147609 -0.49414954 0.0066633248
-83.102364 72.245934 635.22546 0.57853496 -0.65553331 -0.48535886 0.0078234375
-81.589134 72.700882 635.19031 0.57168472 -0.64304936 -0.50957251 0.0019133441
-80.404152 73.161026 635.37726 0.57139045 -0.62678635 -0.5297659 0.00037361347
-79.397301 73.309799 635.95801 0.57239717 -0.60566509 -0.5527488 0
-79.945457 74.163948 635.11664 0.58609754 -0.61287349 -0.52997702 0.0028557952
-79.272781 74.483475 635.64996 0.5978604 -0.6117751 -0.51797122 0.0083067063
-79.735199 75.020798 634.99402 0.61066335 -0.6140976 -0.49997452 0.016180651
-78.834816 75.746819 635.17114 0.62971359 -0.58367932 -0.51261985 0.016213438
-77.950302 76.143799 635.65881 0.64220083 -0.5642454 -0.51884979 0.016667407
-78.382332 77.032906 634.71387 0.66627693 -0.53576446 -0.51868248 0.019356482
-77.532906 77.381172 635.52112 0.67070246 -0.5131194 -0.53559941 0.013170347
-78.090401 78.149902 634.54797 0.69528234 -0.49908924 -0.51719666 0.021923862
-77.010437 78.614876 635.28326 0.70034236 -0.46648723 -0.54028726 0.011520359
-76.213226 79.086021 635.62366 0.70392835 -0.44419858 -0.55423152 0.00760445
-76.700432 79.715103 634.95831 0.70725954 -0.43441388 -0.55773509 0.0040473701
-75.735298 80.296318 635.37158 0.70440012 -0.42106086 -0.57142645 0.0030895341
-74.588943 80.679298 635.71649 0.70176297 -0.41239733 -0.58091062 0
-104.928 81.304901 635.66199 -0.63570255 0.054335393 -0.77001947 0.024445591
-75.359146 81.410393 635.07739 0.69373202 -0.40900886 -0.59283018 0.00038136181
-74.611702 82.001755 635.46356 0.69718802 -0.40510446 -0.59145534 0.00097938301
-75.132401 82.688301 634.50403 0.71116382 -0.3893353 -0.58537507 0.0009968871
-74.2089 83.231369 635.14496 0.71300483 -0.38875011 -0.58352166 0.0022268789
-73.415733 83.603065 635.7243 0.7123276 -0.39030904 -0.58330798 0.0021002204
-73.862785 84.497681 634.70673 0.7210921 -0.37650463 -0.58161026 0.0078625735
-73.039642 84.845093 635.41473 0.71631563 -0.37674245 -0.58733034 0.0054084971
-72.642151 86.241753 635.2843 0.72385281 -0.36273742 -0.58690608 0.0093461294
-73.547501 88.147301 634.51398 0.74772555 -0.31499249 -0.58453935 0.0206051
-72.84832 87.484962 635.04175 0.73015493 -0.34120286 -0.59199184 0.0095983855
-95.537498 89.681503 635.35901 -0.65005213 0.70926899 -0.27270836 0.0024626353
-100.675 41.988602 637.3775 0.38764438 -0.51068538 -0.76741922 0.039240286
-102.178 43.105602 636.99005 0.29981261 -0.51640004 -0.80214924 0.066264801
-101.19659 42.817223 636.88824 0.35814157 -0.50330114 -0.78639853 0.052095007
-99.866737 42.919937 636.89581 0.41292828 -0.48357764 -0.77177912 0.033121333
-98.830711 43.085278 637.42102 0.46420154 -0.4787215 -0.74521315 0.029420685
-102.75713 44.329121 636.92084 0.25948489 -0.47844115 -0.83890504 0.058257561
-101.63741 43.678242 636.36481 0.31369415 -0.48453441 -0.81659192 0.051429965
-99.580429 43.903595 636.29572 0.40604195 -0.46339175 -0.78765351 0.031708632
-98.555779 44.401039 636.69519 0.45077798 -0.45836061 -0.76596659 0.030120131
-103.85355 45.935749 637.02179 0.15816331 -0.42761838 -0.89001507 0.051175263
-103.23923 45.608444 636.3822 0.19162498 -0.43392095 -0.88033652 0.048799433
-97.986656 45.617908 636.65186 0.47307667 -0.45313531 -0.7555573 0.045564838
-97.319695 46.100822 637.07587 0.50334162 -0.45738712 -0.7331059 0.050141744
-104.22985 47.18774 636.71698 0.092362285 -0.38531283 -0.91815209 0.044432577
-97.684799 46.826752 636.46552 0.44866976 -0.41959903 -0.78907043 0.019406302
-96.890808 47.257744 636.83557 0.4944649 -0.43546656 -0.7522456 0.039589379
-95.985802 47.913502 637.30499 0.52712721 -0.44078162 -0.72653186 0.043698315
-105.08817 48.929382 637.0047 -0.071052641 -0.33974198 -0.93783098 0.079118975
-104.4809 48.708565 636.39673 0.022037616 -0.34813559 -0.93718517 0.068790071
-96.417007 48.590191 636.4762 0.48880592 -0.4075332 -0.77135295 0.03357435
-95.582756 48.9562 637.05835 0.53360891 -0.4169417 -0.73581332 0.041766126
-105.16441 50.222179 636.89758 -0.16680253 -0.28592816 -0.94362175 0.077348113
-104.742 50.11739 636.39276 -0.089788914 -0.30031553 -0.94960433 0.0731811
-95.19973 50.214966 636.69824 0.55162483 -0.39364409 -0.73536003 0.051717188
-94.277969 50.685581 637.16565 0.60535228 -0.38325045 -0.6976158 0.04045241
-104.77519 51.510437 636.46277 -0.12957197 -0.2453465 -0.96073735 0.047792025
-94.882629 51.372074 636.32684 0.56094497 -0.36336899 -0.74384385 0.049635835
-93.979477 51.863811 636.89667 0.59750998 -0.34970617 -0.7215867 0.027474955
-104.416 53.324249 636.34198 -0.17851974 -0.19284937 -0.96485227 0.050243549
-93.561531 53.146481 636.50647 0.60316855 -0.32724255 -0.72739261 0.028938109
-92.841232 53.498886 637.10425 0.64777285 -0.3302992 -0.68650764 0.027035045
-103.8215 55.019798 636.17548 -0.18116321 -0.13631892 -0.97395945 0.038618609
-93.322021 54.324177 636.21448 0.60850114 -0.3145757 -0.72853857 0.041918729
-92.390915 54.71104 636.75488 0.63911361 -0.30537468 -0.70588958 0.017527342
-103.611 55.5984 636.27802 -0.20418611 -0.088840447 -0.97489256 0.032139331
-103.372 55.820499 636.21399 -0.18433593 -0.083686225 -0.97929412 0.037248205
-91.882164 56.132675 636.49823 0.64973301 -0.29456812 -0.70076859 0.021889249
-91.124664 56.476513 637.16351 0.67928296 -0.29289493 -0.6728946 0.0084208287
-102.905 57.180901 636.13501 -0.35738495 0.045463022 -0.93285 0.085003361
-91.982201 57.187199 636.38702 0.64697653 -0.29019889 -0.70512837 0.034777492
-90.782867 57.69202 636.88971 0.68572873 -0.29142666 -0.66696811 0.015660714
-89.842598 57.9599 637.39899 0.71962786 -0.29146877 -0.63022357 0.0098271556
-91.676399 59.736252 636.21521 0.62568879 -0.28798884 -0.72496617 0.024654439
-90.830025 59.27998 636.71173 0.66096032 -0.28879017 -0.69262666 0.009791635
-91.700897 60.48 636.24396 0.62178427 -0.28963166 -0.72766596 0.029434254
-91.004471 60.759254 636.79443 0.64136916 -0.29124972 -0.70980233 0.011659563
-90.585365 62.158016 636.59338 0.64899969 -0.30801967 -0.69564587 0.021227129
-89.761269 62.619957 637.17163 0.68990993 -0.32047677 -0.64909083 0.010122751
-100.769 64.331802 636.979 -0.62977672 0.12749797 -0.76624119 0.058849767
-90.1689 63.173252 636.41052 0.64277297 -0.31829917 -0.69679874 0.012490056
-89.360245 63.810913 636.72675 0.67714816 -0.33998206 -0.65259683 0.0084419856
-100.55833 65.559837 637.07965 -0.65242279 0.12417368 -0.74761313 0.046098236
-88.857819 65.159309 636.43781 0.67455524 -0.37931749 -0.63331944 0.013154346
-88.173782 65.524323 637.12671 0.69291323 -0.39313033 -0.60441685 0.0060726102
-100.5975 66.308304 637.32251 -0.68453181 0.12646307 -0.71792996 0.034025371
-100.19805 66.859764 636.59375 -0.68600279 0.096648507 -0.72115129 0.047977321
-88.622681 66.413406 636.33624 0.6500445 -0.42435071 -0.63037187 0.012464262
-87.701645 66.73246 636.69281 0.67079228 -0.46076941 -0.58114481 0.014025614
-86.888397 67.095032 637.42603 0.68470937 -0.49433848 -0.53553951 0.024320928
-100.586 68.202332 637.22614 -0.74934095 0.12476415 -0.65032458 0.021824682
-100.10602 68.308434 636.92065 -0.72441864 0.11217073 -0.68017316 0.028340058
-87.255089 68.035873 636.53015 0.64865553 -0.53874832 -0.53758359 0.021652801
-86.578796 68.365952 636.96246 0.64097422 -0.556575 -0.52856058 0.017755464
-99.721611 69.777908 636.74847 -0.74139982 0.12184274 -0.65990955 0.028110608
-98.837097 70.414597 636.25098 -0.6885584 0.13605364 -0.71230388 0.044746224
-86.174423 69.630295 636.56244 0.61066663 -0.60497802 -0.51096749 0.014900906
-85.186172 70.126602 637.12073 0.6016382 -0.6213969 -0.5018937 0.014192092
-99.451225 71.160919 637.25128 -0.77207136 0.12665853 -0.6227867 0.021284349
-98.734222 71.360771 636.75586 -0.73324788 0.13723516 -0.66596848 0.03118347
-85.774971 70.770447 636.14984 0.59113514 -0.63353533 -0.49919158 0.011931075
-84.79306 71.252525 636.80225 0.58437175 -0.64097577 -0.49765417 0.0098486375
-83.519257 71.719215 637.06152 0.58036679 -0.6527912 -0.48686534 0.010863544
-99.223198 72.124603 637.245 -0.7786808 0.12540196 -0.61476058 0.020082535
-98.412666 72.395889 637.03015 -0.747693 0.15055354 -0.6467526 0.021647237
-84.252899 72.008102 636.461 0.5731402 -0.64767456 -0.50202388 0.0053764987
-83.307487 72.100143 636.7149 0.57896483 -0.65657163 -0.48343918 0.010673707
-81.747223 72.293625 636.82788 0.56893533 -0.64651781 -0.50825912 0.0046868278
-80.198547 72.642639 636.68219 0.56566209 -0.62829053 -0.53411382 0.0011474579
-79.037514 73.121582 637.10785 0.5709309 -0.62181813 -0.53607857 0.00097375311
-78.641174 74.23587 636.51666 0.5916667 -0.61444527 -0.52190757 0.0057786917
-77.764427 74.688232 637.0506 0.60056388 -0.5995118 -0.52906388 0.0068666376
-78.290802 75.38945 636.21185 0.61782074 -0.59197456 -0.51755548 0.012897553
-77.379997 75.815865 636.90833 0.62494904 -0.56633741 -0.53730863 0.0081233662
-76.965508 77.025108 636.5575 0.6574893 -0.52273577 -0.54263717 0.0097115831
-76.081551 77.54747 637.11584 0.66813302 -0.49210629 -0.55805892 0.0049265279
-76.690903 78.116898 636.159 0.6782285 -0.4726958 -0.56264096 0.0018847287
-75.724983 78.741074 636.66547 0.69507855 -0.45463762 -0.55692965 0.0070212092
-74.831909 79.169174 637.31982 0.69431722 -0.43936965 -0.56998062 0.0026090762
-75.340889 80.013168 636.29858 0.69792706 -0.42880052 -0.57360953 0.0038930997
-74.468735 80.372795 636.90472 0.68424803 -0.42554295 -0.59221423 4.6074158e-05
-104.948 81.725403 637.16699 -0.63840425 0.096624896 -0.76361227 0.02840884
-74.051979 81.68631 636.49597 0.68163311 -0.41472456 -0.60280991 0.00018946835
-73.214684 81.992889 637.1925 0.68239498 -0.41738811 -0.60010362 0
-73.703224 82.949837 636.24683 0.70536673 -0.4005256 -0.58483934 0.0021629003
-72.776894 83.295441 636.84192 0.68725789 -0.40617332 -0.60224569 5.3001764e-05
-71.791397 83.825951 637.15948 0.66934144 -0.41404206 -0.61688823 0
-72.381058 84.612396 636.58081 0.68873066 -0.39668733 -0.60686839 8.7643557e-06
-71.677765 85.000511 636.92651 0.68872988 -0.39692244 -0.60671556 0.00015646295
-72.234123 86.050995 636.20203 0.71744835 -0.36974919 -0.59038407 0.0043852837
-71.614548 86.167793 636.88666 0.7122795 -0.37395871 -0.59398043 0.0021804126
-72.487549 87.352997 636.20898 0.72719198 -0.35358125 -0.58836406 0.009432951
-71.798927 87.131004 636.68274 0.72323525 -0.35899678 -0.58995944 0.0059330557
-100.90018 41.553711 638.34869 0.40415144 -0.50454605 -0.76295131 0.028339451
-99.801872 41.425747 638.33813 0.45011994 -0.49487153 -0.74329954 0.021057915
-98.701874 41.639832 638.6781 0.49622753 -0.49414894 -0.71384519 0.025326274
-102.66101 42.970982 638.13281 0.29874027 -0.54199785 -0.78548872 0.076785706
-101.50343 42.177643 637.75739 0.36351386 -0.52701682 -0.76818681 0.057470094
-99.540001 42.266132 637.75769 0.44133639 -0.48771861 -0.75322819 0.022962557
-98.391388 42.777431 638.26862 0.49588421 -0.48249176 -0.72201145 0.025571432
-97.366745 43.230499 638.92102 0.54227811 -0.4830209 -0.68747753 0.024967995
-103.7842 44.618 638.03949 0.20518824 -0.48881248 -0.84791517 0.066849664
-103.15125 43.9049 637.81512 0.2580094 -0.50583345 -0.82314253 0.068323687
-97.997147 44.102192 637.87964 0.49813503 -0.46503997 -0.73184651 0.026430612
-97.202148 44.420418 638.32764 0.52991533 -0.47016808 -0.70578456 0.027927766
-104.51283 45.711514 638.29608 0.12476872 -0.44706729 -0.8857559 0.056352727
-96.716408 45.718277 638.18298 0.54100269 -0.46740979 -0.69917387 0.040152337
-95.866096 46.119831 638.8158 0.5686003 -0.45956352 -0.68227202 0.023430528
-105.24881 47.289181 638.2525 -0.027150827 -0.40262184 -0.91496366 0.067900628
-104.89033 47.038834 637.67969 0.039283331 -0.39739209 -0.91680771 0.055920258
-96.263252 47.024937 637.87213 0.54321617 -0.45715228 -0.70422149 0.046123333
-95.452766 47.40802 638.42883 0.57199144 -0.45132244 -0.68493348 0.031045618
-105.48601 48.32122 638.31317 -0.11494154 -0.3664701 -0.92330283 0.07938768
-95.010811 48.583714 638.16486 0.58261836 -0.43342376 -0.68753159 0.031368103
-94.210762 49.05183 638.64795 0.63271451 -0.42293906 -0.64868706 0.020172812
-105.4725 49.687199 637.93799 -0.19052137 -0.30778319 -0.93218619 0.083809718
-94.828598 49.745861 637.76752 0.58150959 -0.40794766 -0.70386451 0.038057093
-93.854721 50.304314 638.19879 0.63842082 -0.39504397 -0.66057479 0.022247598
-92.7687 50.87685 638.73645 0.67905128 -0.38260847 -0.62649834 0.0026598612
-105.211 51.1558 637.72601 -0.19455062 -0.24200939 -0.95056903 0.048744444
-93.403168 51.575317 637.93091 0.6453504 -0.36518636 -0.670941 0.016587153
-92.680611 51.871174 638.45026 0.67684054 -0.36513045 -0.63919216 0.0088749574
-93.065399 52.500801 637.60797 0.65359467 -0.34843019 -0.67187083 0.020324042
-92.29689 53.234802 638.13165 0.69367814 -0.34549698 -0.63201457 0.023176732
-91.282051 53.547543 638.83972 0.7130025 -0.33631811 -0.61523777 0.0084330086
-91.754654 54.615215 637.8147 0.68882298 -0.31533906 -0.65275127 0.013266649
-91.004066 54.863457 638.36688 0.71385235 -0.31405321 -0.62592769 0.0097385803
-90.577896 56.066055 638.21857 0.71544749 -0.30079183 -0.63060212 0.0068583395
-89.846855 56.6516 638.53052 0.73117757 -0.29609728 -0.61457777 0.009762411
-90.311989 57.612366 637.758 0.71868122 -0.29343572 -0.63039094 0.010247136
-89.518723 57.766216 638.46515 0.72250462 -0.28965911 -0.62776166 0.0035209421
-90.225281 59.269764 637.66364 0.70552093 -0.29342973 -0.64508855 0.0057167662
-89.623558 59.160488 638.43304 0.72680652 -0.29517525 -0.62018049 0.0079327542
-90.295921 60.69598 637.84875 0.7001285 -0.29998752 -0.64794093 0.0075249281
-89.634743 60.861919 638.39703 0.73451835 -0.30962098 -0.6038357 0.017321063
-90.110497 61.637402 637.63202 0.71058947 -0.31514874 -0.62908185 0.020304715
-89.257263 62.244019 638.20679 0.73874402 -0.32667696 -0.58952475 0.022281233
-88.422897 62.877102 638.65002 0.74188679 -0.33264169 -0.58219713 0.018337304
-101.251 64.2649 638.58002 -0.69782716 0.13642733 -0.70315349 0.034360234
-88.842705 63.493202 637.93201 0.71550053 -0.33820781 -0.61128932 0.0088728853
-88.000931 63.952271 638.58081 0.71747494 -0.3452464 -0.60500789 0.0053998157
-101.28932 65.341896 638.50653 -0.71225691 0.16454972 -0.6823588 0.017476195
-88.508598 64.715851 637.59302 0.7045669 -0.36271128 -0.6099394 0.0050982037
-87.565811 65.203247 638.17151 0.70562601 -0.3804577 -0.59778249 0.0048497571
-86.764503 65.786568 638.77637 0.70416015 -0.40483949 -0.58332109 0.0061486326
-101.31989 66.795776 638.16559 -0.73936981 0.16005762 -0.65399843 0.0158264
-87.189323 66.364296 637.96411 0.69777828 -0.43709061 -0.56750107 0.013791027
-86.437584 66.838203 638.2948 0.68608737 -0.46973729 -0.55554575 0.014330544
-85.260101 67.250504 638.935 0.65549654 -0.50280011 -0.56348592 0.010313567
-102.26842 68.504433 638.7525 -0.74169075 0.15890358 -0.65164751 0.020374641
-101.36597 68.250053 638.04034 -0.7619639 0.14896037 -0.63025534 0.019294623
-85.986038 68.189964 637.99188 0.64138836 -0.53807706 -0.54689491 0.010296831
-85.263069 68.42952 638.47424 0.62576485 -0.55396634 -0.54912627 0.0085596703
-102.30281 69.665451 638.84186 -0.73408294 0.14381798 -0.66365552 0.019667964
-101.3371 69.752327 638.19318 -0.76611495 0.13453984 -0.62846392 0.023263181
-100.4375 70.0075 637.716 -0.77998883 0.13054162 -0.61202645 0.024110008
-85.609299 69.346573 637.66724 0.6100598 -0.58539468 -0.53398502 0.0076471632
-84.633308 69.646942 638.50134 0.60359961 -0.60630798 -0.51774335 0.014217278
-83.797798 70.36483 638.81665 0.5912683 -0.63125116 -0.5019201 0.01644096
-102.1926 71.13028 638.9444 -0.71593124 0.12287739 -0.68727255 0.011799291
-101.20075 71.238777 638.36499 -0.75539285 0.1188509 -0.64440364 0.019978305
-100.10615 71.427422 637.77716 -0.77675545 0.12090679 -0.61808771 0.022345889
-84.379372 70.801765 637.92737 0.58994132 -0.63695127 -0.4962483 0.014967429
-83.241371 71.308479 638.2666 0.57948053 -0.64653981 -0.49617392 0.012423127
-82.021286 71.794907 638.51019 0.57109517 -0.65049797 -0.5007022 0.010275058
-80.8918 71.804802 638.77399 0.56092596 -0.64239341 -0.52220005 0.0037902496
-79.241501 71.988297 638.39801 0.56508553 -0.64424968 -0.51538402 0.0053484952
-100.944 72.472137 638.67261 -0.74917394 0.10056279 -0.65469503 0.021099249
-99.732353 72.826782 638.23346 -0.77101183 0.10514418 -0.62808067 0.023340592
-98.62133 73.02282 637.78204 -0.775653 0.12686186 -0.61827868 0.018498465
-81.500084 72.117317 638.15131 0.5708155 -0.65212923 -0.49889588 0.0095845414
-80.127655 72.189117 638.36102 0.57150877 -0.65008354 -0.50076848 0.0091406135
-78.553154 72.770432 638.09155 0.56958431 -0.63230258 -0.5251354 0.0034861378
-77.721481 73.094765 638.5954 0.57736665 -0.62785095 -0.52196836 0.0061514517
-99.509224 73.867645 638.66266 -0.75979978 0.1039539 -0.64179277 0.023963742
-98.547493 74.16526 638.37036 -0.76520705 0.12587686 -0.63135821 0.020363431
-78.102669 73.786133 637.80231 0.58093125 -0.6166591 -0.53127253 0.0029104829
-77.203766 74.263824 638.27203 0.59383297 -0.6029644 -0.53272545 0.0058126845
-76.309357 74.882599 638.73651 0.61188352 -0.58603722 -0.5311864 0.0096370336
-100.837 75.732002 638.73602 -0.68523073 0.14485939 -0.71377498 0.016075326
-99.135849 75.05645 638.86298 -0.74189782 0.13127409 -0.65753692 0.024863344
-98.64695 75.0326 638.66748 -0.75386578 0.13181017 -0.64367115 0.024490111
-76.899437 75.523918 637.7865 0.61957008 -0.57245028 -0.53706014 0.0075004324
-76.047989 75.831604 638.38849 0.63277513 -0.55336416 -0.54164904 0.0088812876
-75.590591 77.062088 638.09363 0.65634316 -0.50457573 -0.56090736 0.0056313495
-74.728966 77.702194 638.41211 0.65397173 -0.46870908 -0.59382892 0
-75.357277 78.241623 637.66663 0.68576127 -0.47109789 -0.55479562 0.0084828837
-74.320015 78.73394 638.30164 0.68692356 -0.44567168 -0.57403195 0.0022249487
-105.232 80.169998 637.51898 -0.60743904 0.15083073 -0.77991539 0.013182313
-73.884605 79.991798 638.03558 0.69531727 -0.42814761 -0.57725519 0.0012809505
-73.038582 80.503777 638.51447 0.70018917 -0.42243758 -0.57557076 0.0019463593
-73.657898 81.134598 637.52252 0.68529028 -0.42210668 -0.59346718 0
-72.717979 81.693062 638.17078 0.69616705 -0.4155387 -0.585388 5.1955431e-05
-71.876694 82.114548 638.95502 0.7036227 -0.41032812 -0.58012581 0
-72.291725 82.94799 637.95618 0.68579262 -0.41323265 -0.59910542 0
-71.54493 83.296661 638.4978 0.69639105 -0.40812826 -0.59031421 0.00062167807
-70.391602 83.717697 638.97601 0.71752661 -0.39781219 -0.57175261 0.0042034113
-101.261 85.312698 638.409 0.94333345 -0.32635185 0.060138267 0.039859608
-71.055 84.670601 638.10272 0.70484269 -0.39348528 -0.59022546 0.0010977796
-70.223961 84.716202 638.82935 0.71834648 -0.39038447 -0.57582825 0.0040978175
-100.84225 85.631645 638.65875 0.89474112 -0.38045907 -0.23385711 0.041902471
-100.1724 86.046501 638.77148 0.32367793 0.43249324 -0.84153563 0.02516713
-70.92482 86.018143 638.07758 0.70906866 -0.38071063 -0.59353262 0.0018333431
-70.280624 85.707161 638.77765 0.72363603 -0.37831917 -0.57725692 0.0046032337
-96.326904 89.871948 638.32605 -0.64140677 0.70780402 -0.29599124 0.0062988102
-99.434341 40.230061 640.03864 0.50916946 -0.53019929 -0.67796397 0.042461243
-98.649391 40.243645 640.26825 0.54336923 -0.53583127 -0.64624673 0.046329852
-100.591 40.9533 639.039 0.43810007 -0.51146406 -0.73923802 0.029145295
-99.601227 40.735546 639.44305 0.48769495 -0.51489228 -0.70501035 0.035250671
-98.187325 41.183395 639.81268 0.54648852 -0.50585103 -0.66743177 0.034799404
-97.107399 41.806755 640.25354 0.58758986 -0.4928169 -0.64177078 0.029905576
-103.801 43.338902 640.41998 0.23354357 -0.59815896 -0.76659197 0.095546231
-103.357 43.248901 639.09399 0.26069447 -0.56322467 -0.78410226 0.0873928
-97.812805 42.633427 639.27509 0.53936625 -0.49062863 -0.68437386 0.030581359
-96.958366 42.851089 639.77863 0.57535887 -0.48513857 -0.65848517 0.026530059
-104.07487 44.132362 639.44513 0.20479821 -0.53813177 -0.81760132 0.083379671
-96.541489 44.145782 639.66187 0.57826805 -0.47784019 -0.66126758 0.025936203
-95.708862 44.650581 640.22296 0.61109895 -0.46728128 -0.63891017 0.016781755
-105.075 45.5872 639.75403 0.072634362 -0.4847309 -0.87164229 0.07242319
-104.794 45.335499 639.44 0.10855976 -0.49236026 -0.86359489 0.075590305
-96.238846 45.391804 639.453 0.57617444 -0.47173494 -0.66744977 0.028674288
-95.278732 45.802322 639.80743 0.61824417 -0.46742278 -0.63189405 0.022715384
-94.869698 46.981884 639.53143 0.62496173 -0.45667821 -0.63314116 0.021102261
-94.126587 47.379238 639.93884 0.66759986 -0.44530293 -0.59667057 0.014335763
-93.725067 48.735119 639.57092 0.66967249 -0.42572746 -0.60851854 0.0085999966
-92.82991 49.070297 640.17047 0.68679708 -0.41584215 -0.59614182 0.00044582764
-93.326126 50.083683 639.21619 0.67717457 -0.40256119 -0.61593759 0.0068353475
-92.438919 50.348984 639.909 0.69799113 -0.40288636 -0.59202272 0.0027808184
-91.988464 51.662949 639.54095 0.69621247 -0.37737176 -0.61063796 0.0034969647
-91.200562 52.106739 640.10229 0.71409601 -0.3718892 -0.5930981 0.0067187534
-91.782295 53.007824 639.24139 0.71336478 -0.35261917 -0.60561579 0.012275056
-90.723564 53.31538 639.90997 0.70843935 -0.34253508 -0.61707652 0.0027500337
-90.365242 54.549622 639.52429 0.70745397 -0.31783441 -0.63126069 0.0012548812
-89.616524 55.041466 639.98877 0.7151224 -0.30979827 -0.62659794 0.0013969751
-90.091103 55.603699 639.19299 0.71607417 -0.30274436 -0.62895453 0
-89.213554 56.281914 639.66779 0.73389274 -0.29637751 -0.61119711 0.0025778201
-88.380867 56.467281 640.36188 0.73477864 -0.29386988 -0.6113435 0.00054100849
-88.794762 57.681938 639.65985 0.72476763 -0.28797981 -0.62592298 0.00012231115
-88.078651 57.851456 640.1933 0.73601067 -0.28925911 -0.61205995 0.001057895
-88.935951 59.304653 639.51538 0.74742347 -0.29672939 -0.59439868 0.010468225
-88.289268 59.085144 640.22083 0.72990978 -0.29074538 -0.61862659 0.00083304121
-88.896721 60.671749 639.52234 0.74866474 -0.30546808 -0.58837938 0.014272416
-88.268829 60.915504 640.12622 0.74866974 -0.30512419 -0.58855152 0.010529867
-88.720467 61.935902 639.45569 0.75131321 -0.31925797 -0.57758349 0.019012572
-87.955414 62.391251 639.84094 0.73919821 -0.31905183 -0.59312046 0.0079304911
-86.834198 62.822201 640.45502 0.73811746 -0.32789898 -0.58963126 0.0090803774
-102.2315 64.33625 640.41846 -0.74500543 0.17096484 -0.64477748 0.014810486
-101.7328 64.075577 639.88641 -0.74831039 0.1687486 -0.64152592 0.0097781839
-87.471748 63.565697 639.4859 0.72928935 -0.33970129 -0.59391928 0.0072414377
-86.596809 63.922192 640.17389 0.73374832 -0.351789 -0.5812555 0.011132027
-102.42663 65.379807 639.98212 -0.72556061 0.18489824 -0.66285318 0.013987442
-101.6835 64.940712 639.31207 -0.73770511 0.1772076 -0.65145117 0.010080925
-87.131401 64.651154 639.24048 0.71022564 -0.358165 -0.60605067 0
-86.262733 65.250816 639.67377 0.70623428 -0.38488039 -0.59422231 0.0034243844
-85.412659 65.766968 640.09735 0.697034 -0.41550222 -0.58438128 0.0077476385
-103.60351 67.085495 640.33826 -0.70040184 0.16367735 -0.69472802 0.024109393
-102.72543 66.790237 639.76019 -0.73368549 0.17143936 -0.65750599 0.025045281
-85.850578 66.675789 639.30426 0.67878073 -0.45511827 -0.57630223 0.0068781185
-84.850822 66.834473 640.00464 0.66148823 -0.47922239 -0.5768702 0.0098150605
-103.66975 68.123466 640.38196 -0.67730337 0.14472829 -0.72132784 0.013122828
-102.87982 68.156342 639.58386 -0.71552199 0.15988795 -0.68004709 0.019052653
-85.506531 67.950798 639.05499 0.64739358 -0.52472597 -0.55276054 0.011227045
-84.600533 68.174301 639.62708 0.62735081 -0.54770195 -0.55358237 0.012920789
-83.818359 68.620094 639.98792 0.60742521 -0.57614422 -0.54689342 0.014301689
-103.77499 69.875191 640.12335 -0.6688475 0.12127072 -0.73344147 0.01373698
-102.98642 69.757751 639.53412 -0.69519979 0.13866599 -0.70531487 0.013742043
-83.399002 69.835487 639.75104 0.58191401 -0.61175984 -0.53584146 0.010906165
-82.472198 70.267548 640.39099 0.55624247 -0.61497945 -0.55892271 0.0024804799
-103.75733 71.029068 640.1792 -0.66505593 0.10843509 -0.73887908 0.0174485
-102.77975 71.304008 639.53955 -0.6878081 0.11642499 -0.71649498 0.014718515
-101.796 71.873497 639.039 -0.71506113 0.11485189 -0.68956262 0.011863615
-82.906288 70.814613 639.44867 0.57491636 -0.63550043 -0.515374 0.011379463
-81.891441 71.299057 639.91296 0.56355429 -0.63874406 -0.52384406 0.0074214498
-80.347725 71.874489 639.91614 0.56445801 -0.64526814 -0.51479727 0.0083730752
-78.887383 71.957886 640.17352 0.56005549 -0.63690645 -0.52979988 0.005346362
-103.626 72.261154 640.41901 -0.65770835 0.10020129 -0.74657851 0.017052166
-102.68762 72.709717 639.89435 -0.67138892 0.10108864 -0.73417842 0.015874337
-101.40664 72.97168 639.26721 -0.71682835 0.096500024 -0.6905396 0.018747987
-100.424 73.476799 639.05298 -0.73898917 0.095251888 -0.66694981 0.021752419
-80.027496 72.078796 639.18903 0.57247096 -0.6501832 -0.4995386 0.010389011
-78.373032 72.251732 639.53223 0.56676263 -0.63972688 -0.51916242 0.007408943
-77.2631 72.839615 639.7619 0.57386607 -0.62874484 -0.52474529 0.0068122321
-76.376732 73.074776 640.28516 0.57954115 -0.62062204 -0.52816695 0.0087582702
-102.38337 73.968071 640.211 -0.65155518 0.10680001 -0.7510457 0.01260548
-101.31288 74.266609 639.86591 -0.66658914 0.11270476 -0.73685575 0.012493533
-99.925674 74.482712 639.4328 -0.71629083 0.11846695 -0.6876722 0.021677241
-98.8461 74.868202 639.21698 -0.74135476 0.12663153 -0.65905809 0.02722116
-76.680244 73.895081 639.38605 0.58753723 -0.60415447 -0.53832835 0.0045174612
-75.895164 74.287727 639.86792 0.60142839 -0.59331942 -0.53502899 0.0093843387
-74.892235 74.722397 640.33466 0.61884791 -0.57470542 -0.53548193 0.013263717
-102.25 76.390099 640.39398 -0.60747433 0.16350459 -0.77732956 0.0011812801
-101.04309 75.417305 640.30853 -0.63770795 0.15311009 -0.75490791 0.016310314
-100.10343 75.287956 639.70447 -0.67112941 0.15116079 -0.72576565 0.017242536
-75.419197 75.606834 639.41797 0.62656856 -0.55103487 -0.55115557 0.0069994968
-74.61129 75.947151 640.06775 0.6364305 -0.5241397 -0.56589204 0.0034502589
-74.237129 77.19519 639.68073 0.65516251 -0.48121351 -0.58240515 0.0010517003
-73.339844 77.662796 640.37976 0.68000156 -0.46603289 -0.56604874 0.0055638417
-73.748825 78.552422 639.42474 0.68572676 -0.4475379 -0.57401097 0.0027348658
-72.95285 78.865906 639.89246 0.69324261 -0.43701863 -0.57308757 0.0029874244
-72.5429 80.142906 639.55048 0.70305276 -0.42275068 -0.57183802 0.0043821032
-71.697586 80.507645 640.25952 0.70370394 -0.41844475 -0.57419914 0.002111593
-72.032364 81.566559 639.32678 0.7045483 -0.4127591 -0.57727075 0.00048365234
-71.335381 81.847679 639.81512 0.7068119 -0.41262349 -0.57459438 0.0021590707
-70.944328 83.122864 639.29608 0.70764852 -0.40545997 -0.57864988 0.0012384306
-70.126556 83.448662 639.79419 0.70352608 -0.40916604 -0.58106303 0.0012661114
-70.633904 84.191399 639.09003 0.71621168 -0.39582849 -0.57477015 0.0042637996
-69.867867 84.699203 639.76678 0.71297735 -0.39720905 -0.57783079 0.0030776572
-101.04588 86.214485 639.5813 0.85780132 -0.4065744 -0.31444255 0.028950805
-100.07233 86.423653 639.38483 -0.47074887 0.74732667 -0.46893328 0.017251676
-70.070755 85.918251 639.16003 0.73237836 -0.37593949 -0.56770718 0.010698025
-99.53196 87.40332 640.04865 -0.64227408 0.70609719 -0.29817909 0.0057790908
-98.740349 87.799301 639.87878 -0.63485062 0.70878971 -0.30754176 0.0061572935
-99.012001 88.525002 640.14203 -0.63062596 0.71271473 -0.30716226 0.0066541079
-98.31266 88.667633 640.07733 -0.62849975 0.70986146 -0.31793821 0.0067610419
-97.015053 89.856995 639.84351 -0.62628269 0.70761853 -0.3271789 0.0064075342
-99.16745 39.927399 640.96899 0.53654844 -0.55935711 -0.63185078 0.055634432
-98.145424 39.908863 641.30536 0.58283067 -0.51865458 -0.62554449 0.037518729
-97.238686 40.27536 641.51788 0.6107294 -0.48556671 -0.62548751 0.022141779
-97.708229 40.673401 640.69171 0.58522934 -0.51200771 -0.62877238 0.037067499
-96.882309 41.288311 641.2373 0.60980439 -0.48162749 -0.6294232 0.021025976
-96.34584 42.540684 640.88947 0.61222768 -0.47379103 -0.63300812 0.016697684
-95.565918 42.8727 641.6377 0.63807958 -0.45750228 -0.61931103 0.0053168107
-104.538 44.276699 640.70099 0.14999664 -0.57365924 -0.80524296 0.09397354
-96.069351 43.711502 640.96802 0.61525947 -0.45976511 -0.64036852 0.0082744807
-95.198875 44.202785 641.04529 0.64013141 -0.45944175 -0.61574763 0.007947607
-94.279099 44.822475 641.29321 0.67674315 -0.46052885 -0.57439691 0.014107381
-105.463 45.885101 640.70898 0.031216558 -0.47116515 -0.88149244 0.065319635
-94.811775 45.508484 640.66211 0.64404303 -0.45480204 -0.61511266 0.0079460377
-93.936264 45.790867 641.39758 0.68796086 -0.45154119 -0.56817281 0.011824359
-93.503868 47.176918 640.99634 0.70004421 -0.44053823 -0.56201798 0.011672114
-92.742027 47.414043 641.76929 0.71280813 -0.436232 -0.54918683 0.01221346
-93.270271 48.275021 640.64093 0.70189446 -0.4268733 -0.57019591 0.0074084117
-92.2854 48.759853 641.35663 0.70877111 -0.42328933 -0.56433111 0.0056730499
-91.267105 49.286598 641.8985 0.6964376 -0.41808915 -0.58324623 0.00027665644
-91.878502 49.99786 640.93341 0.70682657 -0.41284266 -0.57441902 0.0043795272
-91.04303 50.472679 641.53992 0.69929874 -0.4061971 -0.58820504 0.00061723718
-90.683456 51.742085 641.11517 0.72048867 -0.38367081 -0.5776614 0.0064822594
-89.719864 52.153198 641.83215 0.72565174 -0.37180346 -0.57895738 0.0033886768
-90.299217 52.854038 640.90936 0.73500288 -0.35804185 -0.575827 0.011364479
-89.40303 53.450302 641.29205 0.73504865 -0.3404386 -0.58634889 0.0059868088
-89.040787 54.665615 641.13977 0.72808641 -0.31690273 -0.60783458 0.0024609617
-88.112465 55.186138 641.70093 0.75798661 -0.31108534 -0.57330817 0.0080720801
-88.681648 55.645676 641.02472 0.76634914 -0.308835 -0.5633204 0.015636357
-87.787308 56.32299 641.34436 0.75477511 -0.29993337 -0.58339918 0.0059036273
-86.844299 56.8158 641.73633 0.76491272 -0.29779932 -0.5711602 0.0094692912
-87.475632 57.6796 641.10394 0.75098163 -0.2931824 -0.59166771 0.005394516
-86.776253 57.899548 641.64557 0.74887002 -0.29364446 -0.59410995 0.0046923193
-87.620033 59.366894 641.10608 0.73830819 -0.29575893 -0.60615808 0.0036516725
-86.777618 59.147072 641.78241 0.74273968 -0.29727405 -0.59997153 0.0038978211
-87.678535 60.708878 641.11682 0.738087 -0.30231792 -0.60318434 0.005110722
-86.835716 61.089355 641.81012 0.7277084 -0.30197304 -0.61583495 0.00049383438
-87.354645 62.089241 640.91162 0.73303533 -0.31278235 -0.60400862 0.0040753763
-86.432716 62.353546 641.54633 0.74216372 -0.32153586 -0.5880543 0.0085632801
-102.34019 63.982613 641.24701 -0.74618417 0.16096179 -0.64598805 0.016545212
-101.866 63.591652 641.02148 -0.75533444 0.1649671 -0.6342364 0.01315922
-85.954483 63.67543 641.09448 0.72773618 -0.34613687 -0.59210581 0.0068288506
-85.005432 64.004288 641.64026 0.72363245 -0.35871303 -0.58964491 0.0071746879
-103.82027 65.612892 641.49329 -0.68049705 0.13250801 -0.72067016 0.0093348725
-103.11433 65.188637 641.03656 -0.71431464 0.16629949 -0.6797787 0.017460145
-85.586037 64.8666 640.71936 0.70743382 -0.37453645 -0.59938294 0.0027510717
-84.734787 65.275513 641.34851 0.68686146 -0.3955189 -0.60974264 0.0025557217
-104.16742 66.803749 641.28119 -0.65903771 0.12666664 -0.74136686 0.0087505719
-103.22314 66.377747 640.63727 -0.71350825 0.17243275 -0.67909718 0.027145373
-84.50473 66.4813 640.8877 0.66153419 -0.45908687 -0.59296846 0.0068937582
-83.50238 66.850731 641.3399 0.63243324 -0.49798372 -0.59332991 0.01000263
-105.36172 68.618546 641.86609 -0.63350642 0.091432624 -0.76831615 0.00420585
-104.38276 68.268951 641.07013 -0.64411867 0.10999047 -0.75697631 0.0046775839
-83.16217 68.203018 641.19598 0.60537785 -0.56420082 -0.56142247 0.016431846
-82.326187 68.740082 641.77979 0.57394743 -0.58506203 -0.57296306 0.013684222
-105.439 69.73555 641.76843 -0.63894582 0.09372925 -0.76352018 0.01148172
-104.50072 69.657394 640.96228 -0.64560813 0.10416166 -0.75653183 0.010637893
-82.837555 69.430511 640.82336 0.57154483 -0.59888363 -0.56095898 0.0093185827
-81.976433 69.86792 641.3775 0.55305141 -0.60601741 -0.57173157 0.0047889096
-105.49509 71.215088 641.69073 -0.63476473 0.097070955 -0.76658398 0.0083437469
-104.52785 71.356316 641.10876 -0.64774072 0.098174378 -0.7555089 0.015510525
-81.387924 70.956451 640.99048 0.54628026 -0.62171757 -0.56128877 0.0014172224
-80.461121 71.404373 641.36163 0.54611671 -0.62470728 -0.55811948 0.0021896733
-78.822968 71.823853 641.2854 0.55686665 -0.63707191 -0.53295308 0.0069988556
-77.833549 71.813354 640.95154 0.56861192 -0.64743239 -0.50745618 0.012669194
-76.451202 71.915703 641.89099 0.56817657 -0.6368863 -0.52110595 0.010982555
-105.2401 72.688293 641.68921 -0.62741977 0.10342158 -0.77178264 0.004104312
-104.30342 72.763077 641.12207 -0.64227569 0.10046121 -0.75986147 0.012109045
-103.2595 73.375549 640.62952 -0.64484322 0.10113769 -0.75759381 0.011752076
-77.058716 72.235107 640.92126 0.56883699 -0.63639706 -0.52098298 0.0092522809
-75.771423 72.847214 641.20319 0.58228034 -0.62430656 -0.52075988 0.012571113
-74.692039 73.281258 641.79083 0.59413826 -0.60419434 -0.53098857 0.013508675
-105.023 73.813499 641.91699 -0.62283576 0.11750795 -0.77347761 0.0041376888
-104.14404 74.197212 641.46381 -0.63394183 0.11632363 -0.76458263 0.010792525
-102.95236 74.352882 640.82184 -0.63872641 0.11336113 -0.76103729 0.011259122
-101.861 74.835701 640.85901 -0.63942611 0.12237781 -0.75905067 0.011617432
-75.360939 74.008759 640.87555 0.59918118 -0.59582978 -0.53476059 0.011171083
-74.473274 74.29467 641.34875 0.61325872 -0.5786441 -0.53766596 0.013160104
-103.7712 75.323723 641.85535 -0.62830627 0.13803329 -0.76562268 0.012218435
-102.71419 75.664139 641.43268 -0.62280881 0.14851986 -0.76814783 0.009930701
-101.61562 75.606392 641.01898 -0.6251806 0.15691732 -0.76454312 0.012118626
-74.031693 75.605621 641.09357 0.6379205 -0.5312767 -0.55749667 0.0081103202
-73.223831 76.092171 641.64368 0.6550203 -0.50688136 -0.56037462 0.011048771
-103.04475 76.784698 641.76227 -0.62335992 0.16977984 -0.76328057 0.014941468
-73.716064 76.871712 640.73187 0.6633479 -0.49224019 -0.56362152 0.0064780279
-72.864532 77.333221 641.3465 0.67895043 -0.47055227 -0.56356621 0.009108155
-71.862854 77.781555 641.95648 0.69286215 -0.44747549 -0.56542706 0.010066293
-72.350441 78.453407 641.16882 0.69441628 -0.44417679 -0.56612098 0.0076365154
-71.611107 78.884148 641.49268 0.70095992 -0.43130729 -0.56800449 0.0069262069
-71.168129 80.225784 641.19989 0.70649415 -0.42046437 -0.56927651 0.0048065991
-70.316902 80.420845 641.75824 0.70850152 -0.41552871 -0.57040459 0.0051521454
-70.848412 81.553368 640.71667 0.69874877 -0.41892931 -0.57986927 0.00095423404
-69.980309 81.790489 641.40582 0.69618398 -0.41940737 -0.58260226 0.00095991307
-69.547112 83.137825 641.0368 0.68589872 -0.42303801 -0.59209955 1.6243988e-05
-68.783669 83.162918 641.79932 0.67249823 -0.43231022 -0.60071123 0
-69.320587 84.66729 640.98291 0.71291107 -0.39797091 -0.57738811 0.0016316993
-68.880051 84.2211 641.97052 0.71484733 -0.40106568 -0.57283479 0.0016333528
