# .PCD v0.7 - Point Cloud Data file format
VERSION 0.7
FIELDS x y z normal_x normal_y normal_z curvature
SIZE 4 4 4 4 4 4 4
TYPE F F F F F F F
COUNT 1 1 1 1 1 1 1
WIDTH 623
HEIGHT 1
VIEWPOINT 0 0 0 1 0 0 0
POINTS 623
DATA ascii
46.36145 -60.671448 528.79395 -0.95533514 0.29524204 -0.012916505 0.16361217
74.381798 -60.95153 528.8504 0.81808609 -0.22339533 -0.52993363 0.16360512
46.73101 -59.375 528.90625 -0.9815411 0.18921788 0.027814666 0.13741961
66.796867 -58.628231 528.51562 0.49232823 0.74068785 -0.4571591 0.20249063
67.968758 -58.613747 528.51562 0.41822645 0.7478264 -0.51559895 0.19164506
69.53125 -58.598579 528.51562 0.37750164 0.7304616 -0.56913829 0.17402634
71.09375 -58.573769 528.51562 0.37574154 0.69113678 -0.6173721 0.16462426
72.730331 -58.943176 528.46075 0.50797409 0.50902838 -0.69487578 0.15746084
74.179169 -59.424011 528.95715 0.6142894 0.39226118 -0.68467486 0.16121881
46.852154 -57.812496 528.90625 -0.99025929 0.13791925 0.019099891 0.084898241
64.425606 -57.448181 528.55872 0.750036 0.61699849 -0.23824117 0.17481816
65.359795 -57.756287 528.82422 0.65361571 0.69876623 -0.29070991 0.19375913
66.328125 -58.112846 528.96747 0.53428549 0.76379889 -0.36214659 0.20201381
67.968758 -58.153336 529.19708 0.39217126 0.79786313 -0.45783857 0.19523676
69.53125 -58.143234 529.18042 0.33739603 0.77921683 -0.52819043 0.17629063
71.093758 -58.099373 529.12598 0.32052225 0.75355822 -0.57394731 0.16276257
72.444572 -58.269192 529.30664 0.3873592 0.67983383 -0.62271887 0.16385353
46.885445 -56.250008 528.90625 -0.99549687 0.089440204 0.031407077 0.04845953
62.838581 -55.856846 528.79645 0.65892035 0.72107881 -0.21417123 0.1103081
63.791187 -56.501617 528.96423 0.74278587 0.6467042 -0.17332852 0.1547229
46.484383 -54.6875 528.03638 -0.99954152 -0.015480382 0.026020776 0.02402591
47.04274 -54.578678 529.02057 -0.99753392 0.019726066 0.067357972 0.027040681
61.087811 -54.30299 528.98438 0.72670013 0.63475609 -0.26266247 0.051273786
61.995087 -55.218372 528.90625 0.68721747 0.68537837 -0.24080837 0.080641538
47.123898 -53.230564 529.01617 0.99192792 -0.016050644 -0.12578303 0.016990645
59.609421 -53.333794 528.87457 0.78041661 0.56330091 -0.27137062 0.029105306
60.546875 -53.623199 528.51562 0.75397247 0.59338719 -0.28181058 0.034764588
46.944706 -51.5625 528.90625 0.99176395 0.072314151 -0.10571206 0.0074242665
58.411835 -51.171867 528.90625 0.83607966 0.49205893 -0.24258798 0.019267604
58.868088 -52.150169 528.90625 0.81482828 0.52144176 -0.25328529 0.022340421
46.838284 -50.390633 528.51562 0.98875034 0.095123656 -0.11543089 0.0041486989
58.100769 -50.221951 528.95087 0.85445058 0.46959379 -0.22225168 0.016847411
57.40414 -48.848293 528.55365 0.88664138 0.41787603 -0.19810784 0.014015433
162.10941 -42.818058 528.44409 0.22021535 0.82368916 -0.52253366 0.11111894
161.73332 -41.128544 528.51562 0.25314638 0.87327045 -0.41631195 0.12195132
162.43344 -40.823296 528.61816 0.22531481 0.89398825 -0.38732204 0.1156759
159.77574 -39.438507 528.9046 0.3131589 0.94608879 -0.082749434 0.13940617
161.0446 -40.062374 529.00934 0.27230322 0.91238183 -0.30563104 0.12847795
163.07903 -40.306988 529.03644 0.19058985 0.92812032 -0.31979382 0.11213932
163.67188 -39.767967 528.90625 0.15079056 0.95902717 -0.23985234 0.11652334
167.29625 -39.84399 528.90814 -0.14132197 0.98978519 0.018799119 0.11908312
171.88705 -39.382233 529.06427 0.3222298 -0.88691872 -0.33097294 0.09563566
173.29065 -39.407341 529.11108 0.31862971 -0.86237723 -0.39342168 0.078601122
145.02419 -37.983074 528.7348 0.0039776796 -0.75951928 -0.65047258 0.0039668605
146.21321 -38.2868 528.87866 0.017710727 -0.7623806 -0.64688653 0.0024409553
147.65625 -38.349594 528.82782 0.028426308 -0.76392955 -0.64467323 0.0013283133
149.21875 -38.354504 528.82233 0.017609572 -0.7666375 -0.64183861 0.0015365332
150.77104 -38.346436 528.92371 -0.048651565 -0.76745641 -0.63925248 0.010708475
152.22668 -38.104469 528.85858 -0.1355581 -0.77380371 -0.61875015 0.031629801
153.82812 -37.894737 529.04913 -0.18933739 -0.78744191 -0.58658898 0.050320089
155.14503 -37.804337 529.33685 -0.19272059 -0.81655777 -0.54414362 0.067912534
157.03125 -37.639381 529.29688 -0.25769752 -0.85361868 -0.45268872 0.0999244
158.42488 -38.010876 528.91803 -0.26931748 -0.89242989 -0.36199027 0.11896211
159.15268 -38.671883 528.90625 -0.27974626 -0.93382466 -0.22296526 0.13168131
164.41231 -38.21986 529.28632 -0.021795411 -0.94592345 -0.32365713 0.10322829
165.23436 -37.890614 528.87061 -0.0078483606 -0.99010301 -0.14012331 0.10929445
167.74626 -38.28125 528.90625 0.16558091 -0.96492022 -0.20374471 0.1111423
168.8802 -37.663738 528.36359 0.27762127 -0.92094719 -0.27346429 0.10995462
170.30731 -38.279266 528.94067 0.31491941 -0.89791203 -0.30753818 0.10246865
172.08022 -38.659035 528.87518 0.33371106 -0.86707175 -0.36989674 0.090651475
173.67957 -38.392281 528.75488 0.31976539 -0.84395796 -0.4306798 0.070205152
175.00432 -37.886314 529.28711 0.2712757 -0.83043557 -0.48660675 0.043955129
154.29691 -37.254898 528.31073 -0.21477601 -0.78471774 -0.58145452 0.056174748
155.44705 -37.102036 528.52502 -0.2158733 -0.81412005 -0.53908002 0.073687971
157.11081 -37.087364 528.54211 -0.27092153 -0.83311671 -0.48220131 0.096825577
165.16913 -37.054043 529.22455 1.265161e-06 -0.97462034 -0.223864 0.096226253
166.97586 -37.046822 529.29688 0.099843159 -0.95382231 -0.28329203 0.097924076
168.87437 -37.132465 529.23621 0.23833027 -0.91788453 -0.31731153 0.097180583
169.55623 -37.109375 529.29688 0.27509487 -0.89813966 -0.34302774 0.09540958
174.97861 -37.091957 528.54852 0.28479064 -0.81697088 -0.5014509 0.045411453
176.5625 -36.851906 528.75684 0.24147651 -0.81158119 -0.53200108 0.027540833
177.73441 -36.799103 528.8125 0.22876287 -0.80256063 -0.5509665 0.019422984
178.9084 -36.793766 528.91101 0.22788171 -0.7839365 -0.5775063 0.010591377
180.46788 -36.594395 528.81274 0.24667287 -0.76733446 -0.59190398 0.0054145497
182.03127 -36.396641 528.8623 0.24363703 -0.76157451 -0.60053742 0.0038624872
183.46269 -36.304615 529.26648 0.24596226 -0.76678532 -0.59291053 0.0044809734
183.67307 -35.604225 528.4408 0.23486608 -0.7588802 -0.60740328 0.0018029325
185.25797 -35.130795 528.92773 0.25230196 -0.75736457 -0.60228121 0.00089949783
186.78993 -33.681015 528.81989 0.28798369 -0.74483436 -0.60190296 0.001263354
187.62866 -32.421886 528.51562 0.31131175 -0.7308749 -0.60737699 0
35.417641 -78.327499 530.21124 0.75068367 0.63288325 -0.1895594 0.12596837
36.774563 -78.661804 530.34436 0.63241696 0.72952855 -0.26045501 0.13238029
38.203121 -78.800941 530.09631 0.49325654 0.80831975 -0.32142991 0.14269345
39.459793 -78.524284 530.0838 0.37641793 0.84411818 -0.38180375 0.1552511
34.070053 -76.837135 530.46875 0.88966084 0.44592279 -0.098267242 0.13410127
34.707458 -77.730362 530.65558 0.81131643 0.56041539 -0.16643378 0.12574823
38.452728 -77.780907 530.85144 0.48754358 0.79471326 -0.36156893 0.17165288
39.955486 -77.323769 530.45349 0.34898007 0.83400226 -0.42737952 0.20447969
41.328117 -76.895836 530.54462 0.17264649 0.76672065 -0.61833048 0.21130577
42.908978 -77.124779 530.78033 -0.078700915 0.72387785 -0.68542469 0.13761579
44.921875 -76.926987 530.83704 -0.28902006 0.73553461 -0.61274487 0.025216565
45.831806 -76.81311 530.85938 -0.34594175 0.72718912 -0.59289145 0.012130226
47.265617 -76.58213 530.07812 -0.45533597 0.70981151 -0.53743535 0.028108936
32.988579 -75.39064 530.85938 0.95740122 0.28659728 -0.035283923 0.13423528
33.246231 -75.898087 530.39062 0.92530555 0.37281913 -0.06939327 0.13401897
42.578133 -76.491592 530.85938 0.02274745 0.6843459 -0.72880268 0.20974542
47.344749 -75.974373 530.67517 -0.45187861 0.7048685 -0.54677796 0.033529934
48.537422 -75.439522 530.13885 -0.57372892 0.68656278 -0.44661683 0.078125037
32.877907 -74.21875 530.85938 -0.99089926 -0.12783435 -0.04215461 0.13297978
33.11517 -74.088539 529.89191 -0.99248749 -0.053412963 -0.11007123 0.13581359
48.632263 -74.691315 530.85938 -0.5470413 0.67930359 -0.48917535 0.074808367
50.152153 -74.38839 530.39435 -0.65555745 0.64589119 -0.39124039 0.06833186
51.701923 -73.91227 530.16412 -0.69618249 0.63057262 -0.3430863 0.06228425
52.734375 -73.733658 529.88171 -0.70221961 0.63379538 -0.32433179 0.063158885
33.202335 -72.67411 530.47266 -0.9856624 0.072933316 -0.15215263 0.13531858
51.774963 -73.130829 530.86414 -0.67263609 0.62942344 -0.38908452 0.056992467
53.297474 -72.616508 530.4303 -0.65710455 0.66124696 -0.3618924 0.066265084
33.796223 -70.988304 530.36859 -0.9348495 0.25898835 -0.24286106 0.134693
53.500347 -71.45266 530.83276 -0.63223541 0.66552329 -0.39668271 0.072447918
54.263474 -70.866707 530.20831 -0.61030781 0.70436049 -0.36249253 0.087222904
34.151527 -70.124435 530.85938 -0.90544105 0.32613373 -0.27168596 0.12890956
35.138474 -69.513748 530.31323 -0.85557961 0.40672913 -0.32024205 0.12709978
54.871162 -69.715607 530.58081 -0.54482198 0.72038764 -0.42919767 0.087802321
35.546867 -68.764511 530.85938 -0.8251943 0.4473266 -0.34489605 0.12325823
36.690742 -68.326584 530.44464 -0.7928378 0.49321172 -0.35798106 0.12211753
38.067139 -67.74263 530.30676 -0.74427843 0.54291087 -0.38896978 0.11222817
39.453117 -67.57814 529.51215 -0.68536192 0.58214569 -0.43747631 0.10453527
56.15176 -68.099754 530.49817 -0.43764094 0.79043555 -0.42858148 0.0889557
57.226048 -67.57814 529.86743 -0.38663062 0.85079139 -0.35590848 0.091638356
38.671883 -67.26329 530.46875 -0.72155321 0.56513828 -0.39997464 0.11068887
39.826061 -66.774498 530.45435 -0.66992402 0.60623109 -0.42858565 0.099574588
41.36076 -66.086266 530.29816 -0.53156465 0.72541392 -0.43727994 0.10229302
57.8125 -67.272751 530.46875 -0.3421863 0.84744716 -0.40588412 0.074014932
59.533932 -66.932724 530.61475 -0.33756542 0.86816782 -0.36377767 0.065294415
60.981525 -66.767769 530.35089 -0.41080981 0.87588453 -0.253104 0.089010634
62.421875 -66.550911 530.30664 -0.42090827 0.88093597 -0.21630524 0.10622308
64.07373 -66.137161 530.4364 -0.42380247 0.87898004 -0.21859905 0.13023706
64.607948 -66.015633 530.07812 -0.41896859 0.89063972 -0.17670965 0.13773169
41.406242 -65.630898 530.85938 -0.50314152 0.77213079 -0.38815293 0.11475334
42.65659 -65.093361 530.37274 -0.4345037 0.83229631 -0.34422293 0.16613756
64.453125 -65.874252 530.85938 -0.42028201 0.86705434 -0.26754421 0.13841426
65.23436 -65.737564 530.46875 -0.42855909 0.87716973 -0.21658807 0.14468855
66.598122 -65.316948 530.48914 -0.40753639 0.8865726 -0.21886775 0.15291451
67.89064 -64.934753 530.29657 -0.40870661 0.89431709 -0.18208757 0.15660708
69.14061 -64.593285 530.07812 -0.4458321 0.88744432 -0.1169461 0.15752582
43.237579 -64.312523 530.66687 -0.46982807 0.8328104 -0.29272589 0.17835243
44.114685 -63.874538 530.49042 -0.53494817 0.8176446 -0.21280912 0.20339404
68.932297 -64.453125 530.85938 -0.39935252 0.88841236 -0.22636488 0.15809304
69.624199 -64.370529 530.34442 -0.45046756 0.88178891 -0.13973992 0.15496306
71.191406 -63.687008 530.42395 -0.50995326 0.85548288 -0.08998169 0.15662146
72.265625 -63.19265 530.46875 -0.56257105 0.82588637 -0.037754349 0.15466741
44.838013 -62.761372 530.35474 -0.68789434 0.72271436 -0.066972435 0.20864043
45.399902 -62.006084 530.33856 -0.78442496 0.61919123 0.035772841 0.21060783
72.882011 -62.762058 530.46875 -0.5883345 0.80822259 -0.02527076 0.156611
73.74868 -62.028454 530.46875 -0.63477343 0.77267265 0.006296529 0.16055331
45.894772 -61.066452 530.59662 0.80787778 -0.56376207 -0.17177263 0.20742501
74.604744 -61.326908 530.34692 -0.71148747 0.69946581 0.067328207 0.160246
75.262352 -60.483643 530.59894 -0.67014658 0.74111295 -0.040683616 0.16672134
46.457878 -59.752354 530.53174 0.89050311 -0.39780265 -0.22081059 0.19054404
46.718578 -59.244793 530.33856 0.92189538 -0.31402975 -0.22692327 0.17869139
74.609367 -58.984367 529.66589 0.57163745 0.50924516 -0.6433506 0.1709495
75.42997 -59.375004 530.38794 0.75871038 0.27526852 -0.59041154 0.17872815
47.096439 -57.671673 530.54688 0.95043117 -0.21821164 -0.22150441 0.14210883
66.473183 -57.39006 530.21802 0.46647555 0.85796452 -0.21516867 0.20633847
67.968758 -57.448975 530.47516 0.34398109 0.88155121 -0.32333365 0.19696219
69.53125 -57.451977 530.4787 0.2664856 0.86192906 -0.43135101 0.18251586
71.093758 -57.378323 530.41949 0.25649655 0.84245706 -0.47378859 0.16419478
72.754272 -57.58744 530.46655 0.28314462 0.80299479 -0.52443165 0.16657129
74.187813 -57.965168 530.37549 0.40109649 0.72074628 -0.56537271 0.17564917
75.393867 -58.19875 530.85455 0.49086621 0.67653722 -0.54895145 0.18334615
47.364693 -56.230488 530.32257 0.97496974 -0.14835225 -0.16560705 0.085571446
62.834431 -55.853241 530.55182 -0.69134784 -0.71748996 -0.085125446 0.1804007
63.992298 -56.176228 530.26617 0.76212412 0.62192869 -0.17992054 0.18194187
65.234543 -56.650433 530.47424 0.62859094 0.77553034 -0.058532774 0.1937547
66.015633 -56.792854 530.85938 0.48039842 0.87628961 -0.036523245 0.20143382
47.329906 -54.765625 530.37891 0.97603804 -0.10841131 -0.18867117 0.045344025
58.980621 -55.063854 530.81189 0.87603557 -0.29558316 -0.38104081 0.18498018
60.966187 -54.464405 530.39062 0.7502256 0.62960267 -0.20189606 0.10645119
61.993896 -55.182907 530.46875 0.26692984 -0.21330099 -0.93981439 0.15506776
47.243717 -53.175541 530.46875 0.99091142 -0.033368923 -0.13031174 0.021974033
59.727085 -52.983204 530.48077 0.76219124 0.60505509 -0.23015831 0.036821064
60.424225 -53.686024 530.85938 0.74952877 0.63921601 -0.17207439 0.074420869
47.08506 -51.953136 530.46875 0.98990679 0.0030646855 -0.14168683 0.014477145
58.947941 -51.653851 530.42255 0.79587513 0.56175143 -0.2258718 0.024557987
58.298065 -50.143364 530.07812 0.83535272 0.50725466 -0.2118457 0.019087527
162.10941 -40.683342 530.46875 0.20912057 0.92069739 -0.32952222 0.10323165
167.67532 -41.060097 530.48175 -0.11648875 0.99274409 -0.029824948 0.097887695
168.35938 -40.726929 530.85938 -0.13020925 0.98854148 0.076363213 0.09336625
173.82816 -40.660233 530.85938 0.23731549 -0.88725209 -0.39555675 0.060942378
174.60939 -40.908337 530.85938 0.25221163 -0.87611657 -0.41086385 0.049884737
146.48441 -39.311214 530.36633 0.023474529 -0.76709104 -0.64110863 0.0035515279
147.65625 -39.509457 530.39844 0.034133442 -0.76786828 -0.63969791 0.002066202
149.21875 -39.543644 530.37598 0.032588106 -0.77256489 -0.63409901 0.001454028
150.78127 -39.479034 530.42767 -0.013875977 -0.77850217 -0.62748861 0.0075533441
152.30946 -39.403885 530.7066 -0.085238606 -0.77789909 -0.62258118 0.022096209
153.51561 -39.11805 530.85938 -0.13907598 -0.79484898 -0.59065473 0.041492119
159.911 -39.312378 530.46875 -0.085567787 0.051845662 -0.99498248 0.11386289
161.14497 -40.03529 530.46875 0.21874437 0.95043397 -0.22096616 0.10762483
162.85577 -39.986298 530.38055 0.18473296 0.95221967 -0.24321069 0.098498456
163.86868 -39.453117 530.31458 0.13896859 0.97474647 -0.17480595 0.095863059
167.73775 -39.453117 530.07812 -0.13809809 0.98516607 0.10186619 0.10153833
168.40747 -39.810925 530.59552 -0.028428333 0.11597285 -0.99284548 0.094286658
170.73352 -39.401279 530.68243 0.22720009 -0.92364711 -0.30863586 0.086765409
171.76833 -39.609211 530.36792 0.24895002 -0.90586758 -0.3426775 0.083052009
173.21919 -40.293156 530.2467 0.26366425 -0.88903731 -0.37429127 0.073039874
174.83623 -39.655373 530.48743 0.25037375 -0.85490257 -0.4543727 0.045287542
176.17188 -39.132744 530.85938 0.19990376 -0.83043814 -0.52001065 0.021501131
145.70311 -38.829506 529.79175 0.016182048 -0.76316649 -0.64599925 0.0036659823
152.73438 -38.800392 529.89502 -0.14201802 -0.77828813 -0.61163586 0.035429731
153.91998 -38.670086 530.26337 -0.1648508 -0.80778223 -0.5659613 0.051450014
155.45085 -38.419872 530.41956 -0.17715591 -0.83594215 -0.51943856 0.070831254
157.03125 -38.120129 530.18555 -0.22629772 -0.85776591 -0.46154839 0.095678687
158.8022 -38.587452 530.47968 -0.19812454 -0.92822629 -0.31486937 0.10614572
164.18553 -38.194298 530.52454 0.21254775 0.90079409 -0.37867314 0.087799653
167.8584 -38.671883 530.46875 0.13542043 -0.97259945 -0.18897538 0.090502433
168.52684 -38.017155 530.33167 0.17607987 -0.94822121 -0.26433384 0.090709709
169.89372 -38.305912 530.42218 0.22706586 -0.92303139 -0.31057093 0.089177221
175.13397 -38.650127 530.05023 0.25856811 -0.84265447 -0.47230926 0.041725442
176.6183 -38.310696 530.28192 0.21531801 -0.8271786 -0.51905078 0.024035364
177.83418 -38.293957 530.45636 0.19334123 -0.81034058 -0.55314308 0.014656526
178.85045 -38.155437 530.45172 0.20014843 -0.79719192 -0.56958383 0.0095957043
180.46875 -37.912983 530.44739 0.23477831 -0.78465664 -0.57375354 0.0052705444
181.91269 -37.876476 530.82251 0.24649079 -0.78162646 -0.57297683 0.0055163456
165.14316 -37.036377 530.07812 -0.010113944 -0.9752937 -0.22068086 0.084911913
168.93466 -36.718758 530.21582 0.20490152 -0.91391748 -0.3503859 0.084149897
169.67424 -36.848965 530.33856 0.22392298 -0.901582 -0.37014642 0.082317762
180.85936 -37.109375 529.53052 0.24158946 -0.77049553 -0.58989084 0.0032057727
182.19783 -37.195885 529.95801 0.24147199 -0.7695573 -0.59116238 0.002570475
183.68265 -36.980888 530.42957 0.25014219 -0.77173883 -0.58467782 0.0029942095
184.77605 -36.350838 530.43805 0.25439623 -0.77104455 -0.58375758 0.0019083696
185.62529 -35.631733 530.3703 0.26744682 -0.76728785 -0.58287346 0.0023552659
186.39531 -34.850433 530.36554 0.29075858 -0.7630536 -0.57724226 0.0022052214
187.08803 -33.96352 530.12592 0.31013519 -0.75514477 -0.57755733 0.0034639637
34.342945 -76.95311 531.64062 0.83848757 0.51545882 -0.17675084 0.12894309
35.144089 -77.308533 532.00909 0.7727778 0.59189993 -0.22906078 0.12667085
36.671108 -77.179611 531.94116 0.69819444 0.65859181 -0.28068009 0.15127069
38.20908 -77.084503 531.54828 0.52846479 0.76350546 -0.37119299 0.18301614
39.453117 -76.926895 531.59473 0.36458251 0.79874665 -0.47862664 0.19726416
41.796864 -76.521698 531.64062 0.072574742 0.7084319 -0.70203793 0.18992428
42.578133 -76.747864 531.64062 -0.086338811 0.69804871 -0.71082604 0.15296565
44.921875 -76.665726 531.64062 -0.29358926 0.73775822 -0.60788006 0.0058699637
33.572437 -75.894417 532.0802 0.90715241 0.40090415 -0.12786858 0.13165629
38.443314 -76.203293 532.40967 0.50983697 0.75506228 -0.41224667 0.20238264
39.921879 -76.052437 532.08008 0.26597396 0.77740896 -0.56999403 0.22126642
41.419056 -76.191536 532.25958 0.078681827 0.71498179 -0.69470149 0.19563942
46.217857 -75.753883 532.00458 -0.36423838 0.70857525 -0.60436046 0.026603645
47.265617 -75.228127 531.39185 -0.43493518 0.69104022 -0.577317 0.040367797
32.704353 -74.21875 532.03125 -0.99309844 -0.1103129 -0.039832223 0.13035877
47.540051 -74.46106 532.42188 -0.42831174 0.67095107 -0.60528821 0.038201135
48.389034 -74.155403 531.84479 -0.49474835 0.66357958 -0.56114733 0.044635434
49.793808 -73.820671 531.47131 -0.59445572 0.64728034 -0.47712746 0.040607322
32.830734 -72.786446 532.16144 -0.9966228 -0.013457842 -0.081004776 0.13401484
33.063232 -72.265625 531.64062 -0.98847646 0.073223241 -0.13248651 0.1364146
49.356876 -73.04686 532.42188 -0.54583907 0.61690462 -0.56699955 0.026904492
50.167271 -72.812614 532.05023 -0.60162914 0.61667413 -0.50769621 0.037826844
51.311501 -72.378601 531.45105 -0.66329718 0.61293226 -0.42936099 0.054406367
52.734375 -72.265625 531.04944 -0.65403229 0.63777393 -0.40680003 0.060102213
32.98381 -71.48439 532.42188 -0.98022676 0.12990552 -0.14926526 0.1313929
33.19891 -71.039055 531.79242 -0.9635393 0.19417188 -0.18409085 0.12995088
50.689739 -71.387894 532.42188 -0.5872286 0.58348083 -0.5609926 0.067120858
51.616894 -71.093758 531.71411 -0.63759929 0.6069203 -0.47446275 0.078476876
52.994785 -70.963539 531.20752 -0.62434024 0.64176601 -0.44534889 0.070582837
33.776699 -69.748856 532.06055 -0.91643286 0.31703967 -0.24420626 0.12543339
34.638943 -69.14061 531.49268 -0.87598836 0.38801751 -0.28650817 0.12394299
51.653732 -69.689056 532.25134 -0.43615317 0.63197339 -0.64060915 0.14592454
53.090168 -69.655724 531.6861 -0.58341968 0.63945884 -0.50071335 0.07066565
54.445923 -69.107452 531.48773 -0.52133387 0.68657976 -0.50677335 0.075178266
35.318439 -68.28611 532.03583 -0.84394425 0.4445599 -0.30020753 0.12280494
36.594509 -67.628311 531.60663 -0.7893545 0.51051736 -0.34101546 0.11692397
53.281517 -68.104652 532.37604 -0.4902755 0.63263738 -0.59949976 0.064158045
54.739323 -68.023293 532.04144 -0.44061264 0.69053119 -0.57360888 0.062721923
56.172657 -67.664413 531.521 -0.3810285 0.75972801 -0.52690661 0.067785218
36.960365 -66.996918 532.2688 -0.77611917 0.53724283 -0.33016545 0.1131106
38.320564 -66.552795 531.9082 -0.73049521 0.57633698 -0.36635005 0.10724796
39.728859 -66.05658 531.61975 -0.66610587 0.63087887 -0.39786285 0.092833348
55.02948 -66.767502 532.40228 -0.36559334 0.69180053 -0.62269861 0.056766126
56.328133 -66.777954 532.11993 -0.31882164 0.74392116 -0.58731085 0.050934535
57.806171 -66.47747 531.98157 -0.26610863 0.78864634 -0.55427712 0.044510067
59.319195 -66.302345 532.00787 -0.23492123 0.82279128 -0.51751953 0.04249249
60.867157 -66.14093 532.1452 -0.28401887 0.83784288 -0.46621096 0.064010762
62.557617 -66.038521 531.69299 -0.40462962 0.8518849 -0.33251628 0.10934149
63.671886 -66.015633 531.237 -0.4230594 0.85906672 -0.28814089 0.12386866
40.090542 -65.389893 532.27295 -0.59960496 0.70945287 -0.37033838 0.094237819
41.311165 -65.123283 531.7243 -0.48214337 0.80095023 -0.3549881 0.1271833
61.328114 -65.969917 532.42188 -0.30579561 0.82511276 -0.47505578 0.078114137
62.5 -65.814407 532.42188 -0.38497344 0.8223328 -0.41900381 0.10804357
64.062508 -65.624962 532.03125 -0.41895154 0.83416784 -0.35866913 0.13342905
65.246719 -65.251038 532.06006 -0.41393206 0.83379233 -0.36530894 0.14823453
66.328125 -64.966263 531.86835 -0.38739413 0.85481757 -0.34527203 0.15464166
67.57814 -64.674225 531.64062 -0.36309052 0.87163943 -0.32925683 0.1586411
41.684666 -64.366302 532.33472 -0.43405277 0.83746713 -0.33203468 0.13148175
42.88306 -63.941544 531.92334 -0.41821977 0.86523402 -0.27651823 0.17217466
43.845356 -63.453182 531.64062 -0.46005949 0.86865324 -0.18381193 0.20485714
68.016609 -64.410355 532.07819 -0.35792163 0.86700571 -0.34668896 0.15637104
69.662315 -63.847458 532.16321 -0.35346541 0.87663358 -0.32645962 0.1559125
70.937431 -63.446087 531.84106 -0.40632352 0.87792367 -0.25328085 0.15594633
72.265625 -63.0154 531.64062 -0.50069243 0.8486433 -0.17062159 0.14803304
44.553558 -62.430546 531.92883 -0.53624511 0.84405804 -0.0027061116 0.21465996
72.668808 -62.646667 532.16711 -0.49277714 0.84859574 -0.19249935 0.15004012
73.755363 -61.921917 531.90106 -0.54664409 0.82569897 -0.13928883 0.15503216
44.960129 -61.375587 532.42188 0.56464648 -0.80019987 -0.20212512 0.21887797
45.761845 -60.890453 531.95312 0.63807654 -0.72047788 -0.27160633 0.22020641
74.628716 -61.344391 531.87561 -0.60025251 0.79444665 -0.092473686 0.16140415
75.391464 -60.548035 532.01941 -0.64839768 0.7582826 -0.06773442 0.16620842
46.377125 -59.615643 532.03125 0.66422606 -0.64988524 -0.36939538 0.20611566
46.952934 -58.984367 532.03125 0.68732959 -0.59704745 -0.41365734 0.20082125
75.875839 -59.375 532.03125 -0.64605647 0.75970358 -0.073901832 0.18495172
47.218475 -57.903809 531.85199 0.79060316 -0.44206443 -0.42370474 0.17715523
48.076279 -57.448681 532.11981 0.7649833 -0.41505888 -0.49247006 0.17533539
74.609367 -57.29945 531.41156 0.26094788 0.84672135 -0.46364769 0.18773787
75.669304 -57.684422 531.90326 0.12133294 0.89412332 -0.43107036 0.20020175
47.824039 -56.250008 532.03125 0.84220165 -0.34267294 -0.41625908 0.14403483
62.751945 -56.065838 532.03125 -0.43971011 -0.8209343 -0.36431012 0.20407696
64.062508 -56.150818 532.03125 -0.46263924 -0.83969355 -0.28439364 0.20429802
65.23436 -56.06781 532.03125 -0.43438292 -0.87471998 -0.21488717 0.19637781
66.412033 -56.551083 531.86383 0.41493043 0.85721058 -0.30499637 0.19519602
67.968758 -56.682709 532.09058 0.25200459 0.96022844 -0.12022883 0.18878515
69.531242 -56.660923 532.04504 0.18728188 0.94549555 -0.26638991 0.18127237
71.09375 -56.576748 531.96869 0.19985572 0.91697818 -0.3452661 0.16807002
72.656242 -56.619186 532.01123 0.20296149 0.8997581 -0.3863185 0.16705292
74.243095 -56.654873 532.23541 0.1971187 0.89841384 -0.39242417 0.18755962
75.39064 -56.942642 532.42188 0.19664842 0.90412349 -0.37932855 0.20121157
47.392765 -54.6875 532.03125 0.94744515 -0.20836772 -0.24275605 0.085133217
58.993404 -54.475285 531.72418 0.41005462 -0.7134769 -0.56816006 0.15753801
61.300766 -54.334991 531.69183 -0.59501308 -0.78058475 -0.19143409 0.15665226
62.109951 -54.863285 532.03912 -0.33589676 -0.86847979 -0.36457682 0.17029451
47.293655 -53.186737 531.83594 0.97923899 -0.10576571 -0.1729293 0.034971721
59.055 -53.514389 532.14276 -0.56044775 -0.79034841 -0.24748296 0.14891931
60.741447 -53.14193 531.96338 0.7598964 0.61194843 -0.21926351 0.094172776
61.531128 -53.515614 532.42188 -0.55091161 -0.81160897 -0.19438954 0.13467088
59.477093 -51.65572 531.58105 0.76420265 0.61445427 -0.19606148 0.032847144
60.205341 -51.953136 532.42188 0.71885449 0.67459089 -0.16785532 0.045818813
167.57812 -41.669773 532.18695 -0.060773406 0.99791783 0.021600781 0.081955403
168.39499 -41.136101 531.8844 -0.14664853 0.98877543 -0.028590735 0.082684286
171.87337 -40.960659 532.26459 0.16145329 -0.92333472 -0.34840465 0.063128963
173.48289 -41.094532 531.90118 0.20121211 -0.89078826 -0.40744317 0.053363089
175 -41.311749 531.74738 0.19979285 -0.86746871 -0.45561045 0.035276096
176.08989 -41.043869 532.20441 0.16339417 -0.8413021 -0.51527959 0.019067949
149.21875 -40.118889 531.64062 0.04022539 -0.78557855 -0.6174531 0.0049311928
150.65106 -40.103466 531.78003 0.017928042 -0.78469664 -0.61962056 0.0047296453
152.34375 -39.764252 531.64062 -0.056811456 -0.78613424 -0.61543918 0.018097419
153.52309 -39.455143 531.63312 -0.10539993 -0.79363286 -0.59919757 0.033640955
160.0197 -39.352428 531.90106 -0.14611833 -0.98246372 -0.11582113 0.091282278
160.9375 -39.813416 532.03125 0.20353645 0.94959044 -0.23843414 0.094297245
162.69333 -39.840393 531.95013 0.1528171 0.97102886 -0.18371162 0.08568462
163.67188 -39.166733 532.03125 0.12732463 0.98588097 -0.10875306 0.079656839
168.98047 -39.685081 531.85583 0.13303351 -0.96320683 -0.23352647 0.077707529
170.1787 -39.772469 532.0033 0.15619622 -0.93986923 -0.3037245 0.072371855
171.6454 -40.291065 531.51801 0.19103302 -0.9234466 -0.33279529 0.071294799
175.39062 -40.234386 531.27277 0.20424177 -0.85259581 -0.48100492 0.029922169
176.53749 -39.979053 531.74023 0.17650335 -0.83260167 -0.52499622 0.017949684
177.67508 -39.739288 531.95325 0.16584706 -0.81838912 -0.55021268 0.013132932
178.99782 -39.419136 532.11218 0.18925487 -0.80619049 -0.5605706 0.0089044869
180.46875 -39.203362 532.42188 0.2196355 -0.79649782 -0.56333965 0.0045710085
158.98439 -38.751274 531.64062 -0.15360151 -0.93366933 -0.32352459 0.091228299
164.22221 -38.671883 531.64062 0.10787066 0.99210769 -0.063923806 0.07853274
167.93123 -38.671883 531.64062 0.11123846 -0.96898448 -0.22066957 0.076780856
168.60287 -38.375595 531.94006 0.12624986 -0.94990683 -0.28589857 0.074213028
169.65407 -38.411461 531.90106 0.15898784 -0.92763001 -0.33797246 0.07241682
179.29688 -38.671883 531.14014 0.19982018 -0.79409498 -0.57400799 0.0066066254
180.56158 -38.711559 531.57556 0.22329934 -0.78846729 -0.57311147 0.003302488
182.028 -38.455593 531.95721 0.24624452 -0.78771859 -0.56467956 0.0048808409
183.42119 -37.908726 532.02716 0.26519778 -0.78821152 -0.55533117 0.0058366717
184.2027 -37.260994 531.64062 0.26189005 -0.78104639 -0.56690407 0.0036264865
185.21286 -36.664551 532.08191 0.28446671 -0.7835536 -0.55237895 0.0037142816
186.27217 -35.492569 531.64062 0.30057588 -0.77514762 -0.55569804 0.0037955171
35.026043 -76.804893 532.75543 0.79055279 0.56537038 -0.23533505 0.12875365
33.707401 -75.539795 533.35126 0.89227635 0.41930687 -0.16740566 0.12909617
35.364422 -75.989204 533.45569 0.8161121 0.52567381 -0.24005841 0.14426132
36.710835 -75.804382 533.51337 0.77064794 0.57458258 -0.27560219 0.16803376
38.180897 -75.551529 533.57861 0.56500202 0.71076441 -0.4190307 0.20208088
39.537025 -75.570511 533.59375 0.27149686 0.76322263 -0.58632815 0.2082155
41.62849 -75.573593 533.66388 0.0044657085 0.67315698 -0.73948616 0.173568
42.582348 -75.604675 533.58044 -0.16913724 0.68745828 -0.70625335 0.13045934
44.602798 -75.769295 533.49548 -0.29439434 0.73464316 -0.61125392 0.0086445287
46.08828 -75.647385 533.20312 -0.33857262 0.70793635 -0.61983442 0.0081374934
32.759747 -74.088539 533.46356 0.96476126 0.25240329 -0.074352816 0.12971383
33.182323 -74.636818 533.98438 0.93340212 0.33365971 -0.1320294 0.13192132
46.480225 -74.04808 533.41937 -0.34812102 0.63468617 -0.68991685 0.068084367
47.265614 -74.082581 533.05316 -0.40588009 0.6519984 -0.64043689 0.033465821
32.6623 -72.656242 533.59375 -0.99782193 -0.063228354 -0.018800011 0.1314491
47.549335 -73.04686 533.98438 -0.41529641 0.60899353 -0.67576313 0.043600105
48.556892 -72.78141 533.45239 -0.48101693 0.60154176 -0.63778549 0.036779251
49.609364 -72.265625 532.72937 -0.56201869 0.59579867 -0.57372373 0.035109635
32.873512 -71.09375 533.59375 -0.98498535 0.12356579 -0.1205625 0.130503
48.966812 -71.669449 533.98438 -0.43633056 0.52840012 -0.72829187 0.085057572
49.85994 -71.101624 533.27557 -0.42520225 0.53969979 -0.72658604 0.11687892
33.29731 -69.454559 533.42395 -0.93879437 0.28211424 -0.19767807 0.12184747
50.297337 -69.558205 533.49158 -0.095595717 0.52725774 -0.84431082 0.1596742
51.171867 -69.14061 532.81708 -0.15442444 0.59400022 -0.78950423 0.16740996
33.993965 -68.370705 533.60278 -0.89588159 0.37638763 -0.23606889 0.12189826
34.934498 -67.772942 533.258 -0.85227054 0.44432294 -0.27606526 0.12207562
50.582607 -68.267891 533.98438 0.04193997 0.53494793 -0.84384346 0.13965373
51.46349 -68.029129 533.15363 -0.017133076 0.58958268 -0.80752629 0.15232107
52.734375 -67.968758 532.54913 -0.31492403 0.65102255 -0.69064647 0.12088667
35.358376 -67.085434 533.78906 -0.83042723 0.48820865 -0.26840815 0.12171862
36.611736 -66.413841 533.48059 -0.78227383 0.55144036 -0.28976053 0.11729283
38.071953 -66.015633 532.92554 -0.73164284 0.59556508 -0.33166397 0.10645602
51.548195 -66.529083 533.59711 0.14595683 0.5889473 -0.79488212 0.14387156
53.022381 -66.328125 532.97229 -0.048670728 0.6353181 -0.77071524 0.12803993
54.557293 -66.276039 532.72137 -0.33971354 0.66738355 -0.6627171 0.060035229
56.250008 -66.015633 532.6507 -0.26908767 0.72547096 -0.63346958 0.041246947
37.109375 -65.827431 533.98438 -0.75848776 0.58821136 -0.2805419 0.11590802
38.36961 -65.434067 533.70404 -0.71637428 0.63362235 -0.29211426 0.10683327
39.595009 -64.978447 533.32343 -0.62902087 0.71283102 -0.31016859 0.11040932
51.948788 -65.228691 533.98071 0.16472545 0.60207474 -0.78126276 0.14292179
53.046867 -65.424477 533.58459 0.034965076 0.61110157 -0.79077953 0.12911658
54.735035 -65.274651 533.25305 -0.23460317 0.6562351 -0.71715879 0.066494912
56.220295 -65.239693 533.20807 -0.22433607 0.7213307 -0.65525204 0.041905139
57.8125 -65.204224 533.17957 -0.20733389 0.75463307 -0.62252837 0.037393503
59.392845 -65.223915 533.19855 -0.19479132 0.76993108 -0.60766983 0.043051086
61.015617 -65.17897 533.40466 -0.26672196 0.77076703 -0.57859963 0.085520007
62.5 -65.12455 533.54248 -0.34758788 0.77085853 -0.53381616 0.12123132
64.048317 -65.080437 533.38605 -0.38885528 0.79214275 -0.47042692 0.13897797
65.23436 -64.745293 533.59375 -0.38765693 0.80587363 -0.44753754 0.15311483
66.015633 -64.573944 533.20312 -0.389938 0.81930286 -0.4203465 0.15311866
40.048244 -64.377487 533.87872 -0.55598795 0.78758132 -0.26569352 0.12035596
41.226761 -63.881302 533.52271 -0.4628188 0.84149033 -0.27873436 0.12762707
42.663612 -63.414238 533.28864 -0.38402939 0.88787562 -0.25337413 0.16686781
53.426018 -64.099228 533.89886 0.081607915 0.61461592 -0.78459382 0.12745374
54.609375 -63.905445 533.72003 -0.046170048 0.65117151 -0.75752491 0.10064127
56.183559 -63.903442 533.83044 -0.17901751 0.68751574 -0.70375764 0.058555067
57.967587 -63.910702 533.87836 -0.21550985 0.70061159 -0.68021971 0.065228388
59.375004 -64.236893 533.83368 -0.22581506 0.71156687 -0.66534215 0.074736163
60.613972 -64.420311 533.96021 -0.27908841 0.71547884 -0.64046836 0.10587955
65.528214 -64.453125 533.98438 -0.3654438 0.80030751 -0.47535115 0.15423034
66.487411 -64.363365 533.48846 -0.36386395 0.82985777 -0.42301187 0.15580158
68.06089 -63.809803 533.69629 -0.32289839 0.85694289 -0.40172815 0.15739034
69.442451 -63.527699 533.48651 -0.31655055 0.86771303 -0.38323587 0.15435348
70.703117 -63.138336 533.20312 -0.31366742 0.8722688 -0.37517995 0.15640543
43.230347 -62.830139 533.81598 -0.35625926 0.92200559 -0.15160814 0.17960162
44.16386 -62.497284 533.35187 -0.38341594 0.92243671 -0.045855541 0.2078725
55.110298 -62.886322 533.97894 -0.050238643 0.61873919 -0.78398854 0.10611253
71.139053 -62.85257 533.63483 -0.33071524 0.8757714 -0.35164186 0.1532571
72.841415 -62.238731 533.61267 -0.43999794 0.85611677 -0.27104592 0.15203033
73.828133 -61.627598 533.59375 -0.48542494 0.84612542 -0.22007819 0.16010544
44.853676 -61.250507 533.38129 0.46002212 -0.85902989 -0.22460483 0.21287616
45.656849 -60.546429 533.56128 0.43327871 -0.82584888 -0.36089209 0.21462111
74.517029 -61.277031 533.40118 -0.53409767 0.82350975 -0.19123626 0.16173132
75.40731 -60.559326 533.41193 -0.58972251 0.7915253 -0.16035907 0.16999559
46.375736 -59.545635 533.59375 0.43697947 -0.78475451 -0.43955576 0.20621388
46.989868 -58.857269 533.72394 0.39204887 -0.77216029 -0.50006616 0.19746499
48.046886 -58.564632 533.98438 0.30151162 -0.76344997 -0.57116985 0.1954989
76.134689 -59.257439 533.53693 -0.60838455 0.77906579 -0.15140969 0.18827687
47.265617 -58.33696 532.93341 0.51456022 -0.69557899 -0.50139558 0.19196495
48.124847 -57.950409 533.44183 0.38708284 -0.7339204 -0.55814666 0.19054186
62.870934 -57.419445 533.33923 -0.13795148 -0.8401432 -0.52452707 0.24188662
63.632671 -57.497536 533.68268 -0.131649 -0.86845112 -0.47797596 0.23968172
76.235619 -57.680664 533.02405 -0.29710272 0.92224586 -0.24737109 0.21052854
76.583626 -57.8125 533.98438 -0.52053213 0.83499789 -0.17839524 0.21328403
47.623444 -55.859386 533.59375 0.50283629 -0.65438509 -0.56474406 0.14245208
48.103798 -56.605152 533.51709 0.43417877 -0.68682885 -0.58288503 0.16204646
62.81271 -56.214329 533.28625 -0.12124004 -0.84759068 -0.51661485 0.20350097
63.891651 -56.179104 533.62225 -0.1617714 -0.8660388 -0.47308239 0.20390473
65.327171 -55.757233 533.27643 -0.26196432 -0.90155804 -0.34433678 0.19080658
66.469948 -55.872379 533.65759 -0.20343919 -0.93755662 -0.28213495 0.1831959
67.968758 -56.205383 533.59375 0.17144781 0.98322642 -0.062220491 0.18072189
69.565125 -55.951096 533.68805 0.13010612 0.98784894 -0.085011594 0.17702197
71.09375 -55.803974 533.53668 0.16105841 0.96718866 -0.19648468 0.17167513
72.656242 -55.807003 533.54315 0.17019965 0.95049262 -0.25999179 0.17082977
74.21875 -55.879089 533.61475 0.16727889 0.94400346 -0.28438565 0.19187166
75.724274 -56.326096 533.62988 0.081384748 0.95199865 -0.29508492 0.2128194
47.563183 -54.817707 533.46356 0.6696375 -0.54531264 -0.50420207 0.11929965
62.478695 -54.627857 533.48798 -0.076771364 -0.85997045 -0.50453639 0.15628299
59.050644 -53.530952 533.30859 0.13296419 -0.79729646 -0.5887605 0.11691153
61.055489 -52.831501 533.17224 -0.21829735 -0.8574062 -0.46604806 0.11628196
61.857838 -53.56889 533.72394 -0.11411761 -0.8630029 -0.49214146 0.13248999
167.57812 -42.187588 533.59375 0.027220039 -0.99209762 -0.12247988 0.069728598
167.90353 -41.796864 533.59375 0.040973272 -0.98517567 -0.16658334 0.065988109
168.5921 -41.093529 533.67188 0.059851635 -0.96719313 -0.24689133 0.062284119
170.70314 -40.587036 533.20312 0.11562672 -0.94019848 -0.32040185 0.058306824
171.69722 -41.096081 533.59375 0.10998722 -0.9198519 -0.37653068 0.048603017
173.4375 -41.467415 533.59375 0.13219532 -0.88001621 -0.45617521 0.031314351
175 -41.582664 533.59375 0.13627712 -0.85748297 -0.49613655 0.021906529
176.46019 -41.567245 533.47498 0.13966705 -0.83185756 -0.53712767 0.014692759
177.74045 -40.913082 533.7829 0.15171383 -0.82241696 -0.54828215 0.01056785
178.51564 -40.644764 533.98438 0.16540211 -0.81606901 -0.55378115 0.0095216194
162.76244 -40.162689 533.15515 0.12280994 0.98366046 -0.13164273 0.079381049
169.29176 -40.356903 533.20312 0.095554441 -0.95198637 -0.29084581 0.063187778
170.27531 -40.097664 533.56604 0.1021228 -0.92947984 -0.35445482 0.054010656
177.73441 -40.234386 532.60852 0.15505414 -0.8168785 -0.55557871 0.011671653
178.98824 -40.201984 533.5108 0.1837793 -0.8109163 -0.55555373 0.0083067762
180.5974 -39.545071 533.45496 0.2248486 -0.80488962 -0.54917735 0.0067216316
181.64066 -39.187283 533.59375 0.24525489 -0.80377716 -0.5420261 0.0066066794
169.14061 -38.671883 532.77899 0.11601435 -0.93465322 -0.33610123 0.063842818
182.53496 -38.730354 533.45691 0.25881076 -0.79915076 -0.5425635 0.0059809159
183.79918 -38.06424 533.50824 0.27449918 -0.79860604 -0.5356105 0.0055767447
184.87489 -37.206871 533.20312 0.29128933 -0.79446745 -0.53289026 0.0046712114
33.984364 -75.39064 534.06903 0.86734658 0.44702861 -0.2188044 0.13116242
35.15625 -75.39064 534.20386 0.85186118 0.47077385 -0.22957452 0.14350426
36.588551 -75.194069 534.55511 0.78980845 0.54518878 -0.28101921 0.16483922
38.28125 -75.233063 534.46069 0.53837228 0.71277279 -0.44956672 0.20132448
39.843754 -75.269592 534.61047 0.19477201 0.74433088 -0.63877648 0.19613601
41.015625 -75.39064 534.31561 0.061092455 0.72443444 -0.68663126 0.18231785
33.498909 -74.434608 534.73376 0.9098171 0.3704392 -0.18710324 0.13275705
35.286457 -74.863708 534.99072 0.85999912 0.45277011 -0.2353736 0.1481934
36.718758 -74.609367 535.3103 0.82130575 0.50733465 -0.26089931 0.17383477
37.890614 -74.794144 535.00317 0.6675123 0.64430588 -0.37322542 0.19788605
39.84375 -74.609367 535.13763 0.1468686 0.71502924 -0.68349308 0.21034576
41.241615 -74.551659 534.70251 -0.029092064 0.57094926 -0.82046974 0.19505307
32.618702 -72.656242 534.76562 -0.12786885 0.87779325 -0.46165845 0.12966004
48.046551 -72.265404 534.76544 -0.45544487 0.57351458 -0.68091923 0.030309165
32.728119 -71.09375 534.76562 -0.99555701 0.066999644 -0.066161729 0.13230929
48.824295 -71.196609 534.64471 -0.39655691 0.48758796 -0.77781785 0.10036741
49.609364 -70.703117 534.10413 -0.38508892 0.50597632 -0.77181256 0.11802138
32.915833 -69.921883 534.76562 -0.96680653 0.2111076 -0.14394009 0.1257371
33.061356 -69.14061 534.76562 -0.95281357 0.26141113 -0.15430671 0.12328491
49.380791 -69.53125 534.76562 -0.16326481 0.44119638 -0.88243437 0.13434796
49.609364 -69.53125 534.25439 -0.11188892 0.47014427 -0.87546855 0.14799815
33.725853 -67.970062 534.77185 -0.90593827 0.37140238 -0.2033132 0.12778988
50.03215 -68.144844 534.66266 0.031350181 0.49549821 -0.86804301 0.13013373
35.293476 -66.523621 534.7514 -0.82387662 0.50923973 -0.24880153 0.12621263
36.328136 -66.015633 534.3576 -0.77940124 0.56332445 -0.27422494 0.12137275
50.238873 -66.438194 534.84894 0.16786234 0.53186709 -0.83002394 0.14012448
51.171867 -66.015633 534.09027 0.16425863 0.55946207 -0.81241703 0.13870728
36.954315 -65.385544 534.80109 -0.74876624 0.611027 -0.25689515 0.11401594
38.151035 -64.924919 534.6026 -0.70627981 0.65922731 -0.25804693 0.10764249
50.390633 -65.23436 535.49182 0.17231697 0.51231581 -0.8413319 0.14720584
51.325603 -64.987709 534.72437 0.18134937 0.56631398 -0.8039906 0.14988092
38.817451 -64.453125 534.91534 -0.67163795 0.70146024 -0.238445 0.10941294
39.856976 -63.875973 534.74896 -0.55818141 0.80147976 -0.21462487 0.12089685
41.406242 -63.211308 534.76562 -0.44656205 0.87901735 -0.16706529 0.13980298
51.763062 -63.989475 534.90649 0.17666815 0.5661518 -0.80514634 0.15081891
52.929684 -63.785835 534.41425 0.1142505 0.59169644 -0.79802394 0.13401306
54.296883 -63.125908 534.76562 0.01441646 0.61867678 -0.7855134 0.10897178
56.640625 -63.671886 534.10889 -0.1926527 0.68375236 -0.70382363 0.062508285
57.421864 -63.671886 534.14404 -0.20104979 0.68353099 -0.7016868 0.06518811
59.375 -63.420387 534.5752 -0.25665626 0.65072858 -0.71461862 0.10818726
61.015617 -63.736366 534.58453 -0.29530653 0.67983067 -0.67128563 0.13652037
62.534798 -63.88261 534.58856 -0.33226278 0.71343899 -0.61693299 0.15566412
64.065529 -63.904457 534.62341 -0.34258163 0.74782854 -0.56867421 0.16899583
65.166214 -63.894505 534.62091 -0.34446016 0.77784449 -0.52564746 0.17244762
66.414536 -63.674629 534.76447 -0.32874048 0.81681514 -0.47407022 0.17083476
67.838554 -63.488018 534.62524 -0.31441951 0.84632295 -0.42997411 0.15752049
69.53125 -63.080521 534.76562 -0.29474336 0.86267632 -0.41099381 0.15540469
41.406242 -62.890617 535.30469 -0.44384918 0.88957494 -0.10795546 0.13595292
42.723686 -62.781631 534.71594 -0.35998261 0.92205513 -0.14222088 0.16784325
44.139881 -62.107563 534.76343 -0.30822122 0.95131457 -0.00047617021 0.19752139
51.727669 -62.32267 534.86169 0.26904875 0.60303205 -0.75097615 0.17175964
53.515491 -62.716011 534.78192 0.097901165 0.59596568 -0.79701954 0.12740915
54.722828 -62.817455 534.85333 -0.024746764 0.5980894 -0.80104727 0.10351744
56.171883 -62.643414 534.7132 -0.15997182 0.60738432 -0.77813452 0.092679404
57.867981 -62.849983 534.67957 -0.22878453 0.61279488 -0.75639945 0.096340708
59.375 -62.890617 535.11292 -0.25313771 0.59411365 -0.76351184 0.11981627
61.003239 -62.456066 534.99225 -0.32097673 0.60497808 -0.72868061 0.18054284
62.237579 -62.630207 535.08978 -0.3317672 0.6551013 -0.67880255 0.1943696
64.062508 -62.890617 535.37659 -0.30715308 0.71130514 -0.63221991 0.18973252
68.359375 -62.890617 535.41028 -0.2983056 0.85110468 -0.43201232 0.16174421
69.781548 -62.890614 534.98853 -0.2920332 0.85854608 -0.42144424 0.15377288
71.09375 -62.572941 534.76562 -0.30645242 0.86629772 -0.39448097 0.15435061
72.474411 -62.062202 534.77673 -0.36235699 0.86105824 -0.35675764 0.15799671
44.738293 -61.174454 534.76562 0.34538504 -0.90152556 -0.26069307 0.20653768
45.720337 -60.566021 534.72125 0.3377189 -0.83750033 -0.42958015 0.21128201
74.061958 -61.27663 534.85175 -0.46338338 0.83947283 -0.28383324 0.1656976
75.351707 -60.502869 534.64954 -0.55090266 0.80798161 -0.20897834 0.17415915
46.426598 -59.467331 534.76562 0.30972961 -0.79768693 -0.51745838 0.20043136
46.91991 -58.745903 534.76562 0.30903992 -0.78787464 -0.53268003 0.18893737
48.663616 -58.935818 534.71448 0.20376316 -0.77380872 -0.59975052 0.20458765
49.609364 -59.765636 535.35046 0.050781764 -0.7647751 -0.64229298 0.2209032
76.230225 -59.441082 534.76562 -0.61849898 0.76285058 -0.18846241 0.18578433
48.300339 -57.8125 534.76562 0.22141194 -0.77805966 -0.58787745 0.17948329
63.717812 -57.472107 534.89368 0.016965488 -0.81614482 -0.57759827 0.22750588
76.814674 -57.682285 534.86591 -0.59066927 0.78856546 -0.1710975 0.21718596
47.742485 -55.859386 534.76562 0.29917777 -0.74194038 -0.60001427 0.13600746
48.142685 -56.433739 534.76562 0.23950429 -0.77746665 -0.58153534 0.14899555
62.848495 -56.624039 534.8656 0.063256599 -0.78406042 -0.61745274 0.19661726
63.818077 -56.304161 534.74786 -0.0088240486 -0.82138097 -0.57031178 0.1961095
66.796867 -55.568039 534.76562 -0.1203725 -0.91807419 -0.3776907 0.16965145
67.968758 -55.76963 534.58044 -0.10251127 -0.97507167 -0.19679092 0.16706797
69.14061 -55.721104 534.43573 0.155881 0.034964971 -0.98715681 0.1721368
76.170509 -55.860489 534.76703 0.068261638 0.97319818 -0.21960323 0.22772419
76.839813 -56.640625 535.08173 -0.37390068 0.90671295 -0.19511524 0.23439413
62.845161 -54.554382 534.68274 0.018274572 -0.82624984 -0.5630073 0.14255533
63.634514 -55.078117 534.76562 0.011104762 -0.83154237 -0.55535042 0.16049424
65.23436 -55.203827 534.94946 -0.068023629 -0.85467452 -0.51468855 0.16420281
66.015633 -55.187256 535.01123 -0.074118145 -0.86349148 -0.49888778 0.16416886
69.921883 -55.455444 534.76562 0.11239684 0.9923895 0.050300106 0.17044744
71.09375 -55.195793 534.9693 0.14071445 0.99005026 -1.0565795e-05 0.16778174
72.656242 -55.15012 534.91431 0.15315637 0.98085964 -0.12023892 0.17271467
74.21875 -55.158546 534.91858 0.15550497 0.97282839 -0.1715319 0.19696012
75.39064 -55.261986 535.07544 0.13923673 0.9735896 -0.18093255 0.21585752
62.109383 -53.515614 534.30841 -0.054860163 -0.84701484 -0.52873081 0.12879752
167.57812 -42.195381 534.76562 0.010844615 -0.96706748 -0.25428918 0.057903245
168.67612 -41.189796 534.91144 0.028066641 -0.94361252 -0.32985994 0.046214368
171.91858 -40.994122 534.70142 0.065118663 -0.89119524 -0.44892165 0.028774524
173.4375 -41.472687 534.76562 0.10687184 -0.86207318 -0.49538702 0.021886043
175 -41.594696 534.76562 0.12149575 -0.85195726 -0.5093208 0.020682883
176.42279 -41.862041 534.75488 0.1307676 -0.83837938 -0.52916914 0.014803807
177.78923 -41.369537 534.76562 0.15265775 -0.83213782 -0.53314388 0.012270205
178.77605 -40.840248 534.84259 0.17747465 -0.82484835 -0.53677547 0.010718289
170.8213 -40.234386 534.45618 0.072931841 -0.91433209 -0.3983438 0.039160803
179.9157 -40.234386 534.76562 0.21566133 -0.81733078 -0.53428513 0.0085187536
180.33855 -40.055286 534.85931 0.22520633 -0.8194496 -0.52705258 0.0091174496
181.84331 -39.350395 534.7392 0.25723574 -0.81369787 -0.52127302 0.0078810249
183.14984 -38.641663 534.76562 0.27804303 -0.81146228 -0.51402438 0.0069085266
33.672588 -74.042549 535.88623 0.8841275 0.40327632 -0.23598056 0.13285835
35.18008 -74.32386 535.91754 0.87799394 0.42096266 -0.22785319 0.14518411
36.718758 -74.070045 536.17365 0.87611699 0.43440849 -0.20906526 0.16999705
38.510914 -74.29982 535.9234 0.42687011 0.71765572 -0.55022925 0.20718086
39.921879 -73.905693 535.81702 0.043826446 0.65514559 -0.75423044 0.22180989
41.015625 -74.130386 535.54688 -0.042766195 0.56216514 -0.82591856 0.19778715
32.664448 -72.526039 535.80731 0.97986817 0.17370521 -0.098411262 0.13250771
33.188553 -73.07325 536.34631 0.94243348 0.28629103 -0.17279068 0.13827483
39.453117 -73.229668 536.59766 -0.084002264 0.61997706 -0.7801103 0.23078361
41.015499 -73.039902 536.32062 -0.16906556 0.40151158 -0.90011406 0.20958909
32.603848 -71.093758 535.9375 -0.99984479 0.017170893 -0.0039462685 0.13124542
47.43924 -71.480202 536.1261 -0.37299168 0.45370337 -0.80933946 0.08181645
48.046513 -71.008385 536.0072 -0.37445652 0.44483775 -0.81357342 0.087874316
32.845825 -69.53125 535.9375 -0.97856408 0.1859905 -0.088429645 0.1333992
48.913551 -69.293587 536.01208 -0.16553988 0.41011006 -0.896887 0.11533116
33.275852 -68.101128 535.9007 -0.93753904 0.31834674 -0.1402708 0.13346854
49.280136 -68.359375 535.54688 -0.037644304 0.43986231 -0.89727592 0.13112858
49.700424 -67.662003 535.54688 0.033773825 0.46296003 -0.88573551 0.12820882
34.018623 -66.830284 535.96344 -0.87923205 0.44023731 -0.1820499 0.13321456
34.885551 -66.111374 535.93011 -0.83360255 0.5136435 -0.20316793 0.13203858
49.429268 -66.796867 535.54688 0.11510503 0.47045788 -0.874883 0.13345194
49.707939 -66.356674 535.85376 0.13008577 0.48280036 -0.86601472 0.13816689
35.409954 -65.514175 536.19305 -0.80238366 0.56248724 -0.19947059 0.12873313
36.515388 -65.089073 535.72595 -0.75462544 0.61501199 -0.22869346 0.11840869
50.057552 -65.362488 536.10541 0.14565678 0.48473364 -0.86244857 0.14465249
36.889904 -64.43309 536.43872 -0.72642362 0.6582157 -0.19763783 0.11693203
38.209553 -63.990986 536.00311 -0.67263281 0.7154246 -0.18903072 0.10707624
39.614685 -63.443134 535.54688 -0.55619842 0.81670219 -0.15375586 0.12136468
50.399899 -64.311226 536.28693 0.1643725 0.49331006 -0.854182 0.15304607
51.130219 -63.387337 535.9375 0.17808861 0.51068139 -0.84112364 0.16088504
66.015633 -63.048779 535.54688 -0.284637 0.78671008 -0.54778558 0.18848352
39.75367 -62.876259 536.29419 -0.51286119 0.8545472 -0.081991464 0.11376543
41.312984 -62.680744 535.85938 -0.4408524 0.89517975 -0.065592371 0.13445349
42.967152 -62.207638 536.12024 -0.34108669 0.93970972 0.02460544 0.16578734
43.979942 -61.944366 535.54688 -0.27656698 0.96066946 -0.024996959 0.1851401
51.704853 -62.445087 535.69958 0.19314158 0.53333938 -0.82355654 0.16291603
53.075954 -62.112484 535.86853 0.11327784 0.54558992 -0.83036125 0.1306888
54.616886 -62.121792 535.89185 -0.011674996 0.56594807 -0.82435822 0.11038128
