# .PCD v0.7 - Point Cloud Data file format
VERSION 0.7
FIELDS x y z normal_x normal_y normal_z curvature
SIZE 4 4 4 4 4 4 4
TYPE F F F F F F F
COUNT 1 1 1 1 1 1 1
WIDTH 624
HEIGHT 1
VIEWPOINT 0 0 0 1 0 0 0
POINTS 624
DATA ascii
-122.26564 47.265617 402.32953 0.12766638 -0.78991789 -0.59977585 0
91.108948 46.821945 401.08279 0.23816538 0.83461893 -0.49667749 0.13952984
93.723915 45.975182 401.2453 0.0073470287 0.73313648 -0.68004185 0.18623707
95.881813 46.803188 401.28409 -0.30935574 0.76143998 -0.56965625 0.19277987
-123.51105 47.904358 400.55167 0.15966561 -0.79312062 -0.58776402 0.0001825582
-121.36609 48.554649 401.14313 0.13242686 -0.78710449 -0.60243636 7.5366661e-05
-118.87215 49.133007 401.52017 0.1185525 -0.77711385 -0.61809331 0.00024417826
-116.0715 49.30032 401.59424 0.11423089 -0.76909322 -0.62884575 0.0009111914
-113.82812 49.391838 401.75049 0.10288178 -0.75791442 -0.64419019 0.00032065017
-111.28229 49.588737 401.92905 0.098615713 -0.73854053 -0.66695786 0
-108.98438 49.74292 402.09464 0.12172186 -0.71968329 -0.68354928 0
-107.42188 49.609364 402.48196 0.15090832 -0.71067166 -0.68714803 0.0014419438
88.737663 48.832676 401.17139 0.33641756 0.73443508 -0.58943051 0.084588721
90.234367 47.656178 401.95312 0.25235593 0.71179467 -0.65548825 0.11234866
96.823997 48.676685 401.21512 -0.47211096 0.67482859 -0.56720155 0.17398973
97.779823 48.437508 402.19482 -0.56035161 0.64140362 -0.52402997 0.15402472
-118.35938 50.117054 400.39062 0.12729998 -0.77022463 -0.62493902 0
-115.80693 50.317657 400.39062 0.11816791 -0.76277673 -0.63577354 0.000207715
-113.56026 50.416332 400.60205 0.10259712 -0.75384885 -0.64898825 0.00044170278
-111.32812 50.479492 400.83698 0.099905737 -0.72426319 -0.68224752 0
-109.01443 50.79673 400.87317 0.12733005 -0.70064294 -0.70205879 0
-106.12392 51.012787 401.23511 0.17979687 -0.67914099 -0.71164644 0.0026143705
-103.57232 51.393311 401.46655 0.23035486 -0.67081779 -0.70493984 0.0029968298
-101.39612 51.732056 401.89993 0.27001441 -0.6691609 -0.69232643 0.0027613703
-99.609375 51.953136 402.49158 0.30321357 -0.66760093 -0.67997837 0.0052166833
82.03125 52.307068 400.39062 0.43624726 0.67197263 -0.59844893 0.0053918138
84.101448 51.774921 401.04916 0.43900898 0.63575763 -0.63488853 0.012348696
86.348244 50.949936 401.24213 0.42927301 0.63382369 -0.64342231 0.025476316
87.556061 50.390633 401.95312 0.36289075 0.65471417 -0.66306835 0.054912996
96.994301 51.152393 401.35025 -0.46708056 0.5093717 -0.72275603 0.14369793
-103.09674 52.814323 400.45193 0.23931646 -0.63903946 -0.73099673 0.0016546098
-101.07474 53.482449 400.91089 0.28428519 -0.63019943 -0.72251683 0.0014416552
-99.294548 53.644806 401.93353 0.32160783 -0.63356805 -0.70367604 0.0022906393
78.925171 54.330116 400.8085 0.39148256 0.43480024 -0.81098104 0.090065494
81.09491 53.367058 401.34515 0.4314082 0.5426442 -0.72071093 0.053879067
83.194824 52.729874 401.96021 0.42274228 0.58972591 -0.68812233 0.022274563
97.254112 52.924892 400.96054 -0.59941411 0.46190965 -0.65371412 0.11684024
97.829628 54.215687 401.52713 -0.72228885 0.34958589 -0.59673148 0.07851243
-100.56442 55.46875 400.51306 0.31148931 -0.58632362 -0.74779612 0.00075846829
-99.38282 55.385933 401.39008 0.33745527 -0.5952366 -0.729258 0.0022695079
-16.015631 57.421864 402.36905 -0.050116666 -0.72205502 -0.69001806 0.034817677
-13.671875 57.421864 402.24411 -0.01323322 -0.78479862 -0.61960948 0.034502875
-11.328121 57.421864 402.25174 0.049297642 -0.85310125 -0.51941115 0.030210735
-8.9843769 57.421864 402.37418 0.13093327 -0.89899361 -0.41793188 0.02306799
74.561035 57.359428 400.68591 0.35561776 0.36675191 -0.85966802 0.095411792
76.2481 56.397717 401.16168 0.38467035 0.39873821 -0.83248818 0.097659335
78.198486 55.355568 401.68579 0.38870639 0.42173898 -0.81917256 0.095079094
98.531548 56.369431 401.11353 -0.84486824 0.24568371 -0.47522312 0.06010348
-25.781244 59.765636 402.38171 -0.1004697 -0.52251363 -0.84669077 0.014754375
-23.422953 59.575737 402.16653 -0.095813498 -0.53794593 -0.83751655 0.017309885
-21.368954 59.336811 401.96072 -0.096206166 -0.56193984 -0.82156438 0.020584758
-18.641994 59.005646 401.67676 -0.091599464 -0.59920871 -0.79533553 0.025682902
-16.054928 58.780815 401.4155 -0.075332113 -0.64754516 -0.75829428 0.029684067
-13.671875 58.72234 401.29083 -0.040362734 -0.70022219 -0.71278304 0.031213794
-11.282164 58.850372 401.15414 0.018056588 -0.76070172 -0.64885056 0.029760567
-8.9843769 58.743233 401.29193 0.10696144 -0.83781743 -0.53537017 0.02409384
-6.2967982 58.837376 401.43271 0.21577328 -0.87373215 -0.43592891 0.018951269
-3.6321371 59.244904 401.65869 0.29773206 -0.86604249 -0.40165412 0.018393772
-1.6056895 59.615681 402.02304 0.33903602 -0.85523045 -0.39196345 0.018151341
71.910446 59.573807 401.07703 0.40425563 0.44750091 -0.79769683 0.12023732
73.674835 58.399445 401.35098 0.40025702 0.43701071 -0.80549109 0.10086089
75.39064 57.552845 401.95312 0.41719559 0.45110133 -0.78895843 0.090274945
99.502876 59.097778 401.26605 -0.87235332 0.23045224 -0.43115136 0.03740932
-27.929688 61.523438 402.35315 -0.13036533 -0.44724569 -0.88485944 0.0066706184
-26.104149 61.397049 402.01562 -0.11581546 -0.44981501 -0.88558072 0.008797043
-23.940224 61.123737 401.75919 -0.11019319 -0.46704608 -0.87733996 0.010028179
-21.324877 61.481308 401.30255 -0.11633613 -0.47210091 -0.87383443 0.013443431
-18.903116 61.185791 400.96597 -0.11310343 -0.50033128 -0.85841495 0.015278647
-16.104488 61.234264 400.47113 -0.098461218 -0.51629633 -0.85073119 0.016753213
-13.961888 60.289787 400.39062 -0.06603875 -0.59166604 -0.80347383 0.024304401
-12.109369 60.026764 400.39062 -0.026005249 -0.64974093 -0.75971073 0.026768468
-8.9843769 60.017773 400.39062 0.08188469 -0.75314409 -0.65273958 0.023314983
-6.2500014 60.243637 400.39062 0.20627266 -0.81585252 -0.54021877 0.017331591
-3.423053 60.829571 400.57333 0.30176726 -0.81069678 -0.50170439 0.016054591
-1.112847 61.228752 401.09491 0.34575367 -0.81053203 -0.47274971 0.015973562
1.0720278 61.624916 401.77707 0.35790512 -0.81533933 -0.45511067 0.017083775
2.7343631 62.109383 402.21945 0.34805897 -0.81034428 -0.47137794 0.017285559
69.807838 61.758415 401.14447 0.41109708 0.45278612 -0.79119146 0.13939409
70.725899 60.713085 401.30356 0.41153914 0.45620245 -0.7889961 0.12901637
100.49068 61.37896 401.06552 -0.87216187 0.25718448 -0.4161607 0.02482448
178.53656 62.147209 401.19891 -0.60315776 -0.79448825 0.070633821 0.057848725
181.31168 61.820576 401.21716 -0.43395066 -0.88736331 -0.15579842 0.06567651
183.92473 61.713078 401.24142 -0.23580727 -0.90353179 -0.35780615 0.056545675
186.24771 61.737892 401.37375 -0.074229933 -0.85965222 -0.50545812 0.040662408
188.52483 61.930607 401.63144 0.078257442 -0.73826832 -0.66995203 0.033261362
190.7616 62.144314 402.08496 0.18749219 -0.60763049 -0.77177191 0.031798922
-30.078114 63.671886 402.25778 -0.16846165 -0.35064489 -0.92123222 0.0018763384
-28.331944 63.497322 402.01254 -0.14653505 -0.366521 -0.91879803 0.0032513912
-26.329781 63.514053 401.67969 -0.13072094 -0.36596054 -0.92140383 0.0039005829
-23.737309 63.899406 401.25922 -0.12913997 -0.35945818 -0.92418218 0.004608125
-21.602161 63.566368 401.04514 -0.1288891 -0.38569823 -0.9135778 0.0097719179
-18.749996 63.671875 400.69333 -0.12483926 -0.3906602 -0.91203064 0.0089094527
-16.714724 63.8078 400.40109 -0.11580969 -0.39182824 -0.91272056 0.0094296057
-0.44417381 62.933552 400.40939 0.35140696 -0.75855941 -0.54872644 0.012261036
1.3531381 63.502102 400.82834 0.3555091 -0.75940365 -0.54490304 0.012474508
3.552603 63.697571 401.61176 0.33514303 -0.77662373 -0.53341794 0.014209797
6.0893188 64.33094 402.04181 0.29066789 -0.78058326 -0.5533551 0.01402979
69.640556 63.742565 401.29504 0.47001982 0.45422047 -0.75681251 0.1316573
71.010475 64.568436 400.84183 0.50202733 0.41686249 -0.75775599 0.11986437
74.08812 64.569748 400.66525 0.32105985 0.57280612 -0.75419736 0.12419568
76.140602 64.128799 401.1395 0.26191422 0.58372396 -0.76854879 0.12557575
78.463562 63.329403 401.13608 0.20242396 0.50593036 -0.83848619 0.13737707
81.176582 62.916267 401.30951 0.13678481 0.33993053 -0.93045002 0.16740985
84.010963 63.655849 401.25 0.18765801 -0.28761822 -0.93918067 0.1699681
85.718903 64.518784 401.09695 0.43431398 -0.72340655 -0.53670686 0.11682398
101.68713 63.51144 401.29651 -0.8563838 0.28653511 -0.42953971 0.018348044
176.27103 63.703644 401.1478 -0.72105896 -0.6357488 0.27549481 0.044284746
187.10938 62.596352 400.39062 0.039756078 -0.74213451 -0.66907096 0.031571288
188.73164 62.949734 400.46521 0.14037058 -0.60946208 -0.78028983 0.031562492
191.08936 63.246864 400.9512 0.22326238 -0.4809736 -0.84783155 0.03829908
193.51758 63.822647 401.43945 0.31585631 -0.36104754 -0.87742776 0.042474192
195.91145 64.444366 402.04596 0.42894313 -0.24060799 -0.87069827 0.044095919
-25.390625 65.155205 401.14642 -0.13842575 -0.29043505 -0.94682932 0.0051723775
-23.828131 65.23436 401.01547 -0.13627455 -0.29400671 -0.94603878 0.0035975687
-21.484375 65.624992 400.71439 -0.13559712 -0.28837857 -0.94786662 0.0072536045
-18.643463 65.840134 400.49582 -0.12839213 -0.27938089 -0.95155758 0.0030490428
-17.053827 65.625 400.39062 -0.12026954 -0.29256192 -0.9486531 0.00554332
2.0672531 65.149872 400.39062 0.34170702 -0.70690763 -0.61928821 0.0080410242
3.7363472 65.709167 400.60226 0.31539622 -0.70836914 -0.63145751 0.0073969043
6.2586966 66.097702 400.94562 0.27087066 -0.72920412 -0.62840307 0.0091374982
8.9511757 65.925201 401.5463 0.22271468 -0.76283658 -0.60702437 0.010055579
11.240475 66.35054 401.63287 0.18078525 -0.76616615 -0.61668962 0.0060568559
13.671875 66.636894 401.74515 0.15272953 -0.77431673 -0.61409062 0.0045857229
16.048807 66.649567 401.96878 0.14133206 -0.78707677 -0.60044599 0.0055622421
18.749998 66.921257 402.06564 0.13857569 -0.78803569 -0.59983039 0.0040644282
20.703136 67.090561 402.2157 0.14137664 -0.79438198 -0.59073681 0.0042178463
71.820229 65.413887 401.53125 0.60760379 0.37938583 -0.69777071 0.11782876
73.688324 65.253067 401.6969 0.50923193 0.46704671 -0.72287637 0.12400796
75.39064 65.23436 402.49173 0.39759111 0.57430196 -0.71561062 0.12352491
86.776382 65.492706 401.55878 0.58639735 -0.75071228 -0.30425209 0.088986225
88.1073 66.598068 401.01562 0.69567293 -0.70904821 -0.11528112 0.029456008
103.12446 66.01506 401.16428 -0.82617205 0.33374515 -0.4539316 0.012438809
174.3623 66.422348 400.98627 0.78061348 0.40378973 -0.47707063 0.026637739
175.32649 65.442566 401.72403 -0.74969447 -0.56930488 0.33741686 0.034871362
194.49309 65.774345 400.69376 0.37557319 -0.12561607 -0.91824043 0.049999848
195.92979 66.015617 401.67252 0.45749691 -0.057216149 -0.8873685 0.055443686
7.4218807 67.52932 400.39062 0.22429906 -0.68587279 -0.69229215 0.0036374892
8.7889643 67.711494 400.44977 0.19926244 -0.69914681 -0.68665004 0.002927402
11.44651 67.973839 400.55441 0.15814075 -0.71929085 -0.6764704 0.0015429354
13.671875 68.158958 400.63596 0.13846691 -0.73698705 -0.66157168 0.0015458436
15.995058 68.03006 400.87204 0.13329127 -0.76327592 -0.6321736 0.0036929527
18.8601 68.336884 400.91837 0.1325558 -0.77357131 -0.61969066 0.0031395489
21.518173 68.423203 401.21051 0.13937034 -0.78598058 -0.60233742 0.0032781928
23.878675 68.681488 401.33578 0.14703755 -0.79306984 -0.59111774 0.0031736533
26.109735 69.0243 401.33801 0.15144129 -0.79947978 -0.58128965 0.0030735978
28.515627 69.154938 401.58691 0.15186179 -0.80620664 -0.57181197 0.0023917791
31.078531 69.468605 401.69571 0.1521391 -0.80736113 -0.57010663 0.0012147895
33.872765 69.689896 401.89267 0.1536779 -0.81402534 -0.56013018 0.0017070064
36.039322 69.917496 402.04169 0.15393727 -0.81751412 -0.55495405 0.0015403923
37.890614 69.921883 402.47614 0.1531453 -0.81665725 -0.5564329 0.00097116549
89.207954 67.950287 401.31613 0.57813466 -0.80475605 -0.13464004 0.018581776
90.540459 69.441856 401.06723 -0.7761327 0.62939954 0.038394663 0.016849132
104.37531 68.489761 401.32721 -0.8087467 0.38032019 -0.44864833 0.012375632
105.11882 69.83075 400.88568 -0.80552673 0.38895455 -0.44703585 0.017778212
172.01584 69.534828 400.77396 0.72794521 0.34417951 -0.59298921 0.011949329
173.2059 68.324257 401.39841 0.7603488 0.3604708 -0.54030585 0.01578572
194.31421 69.059486 400.9848 0.45327616 0.18885334 -0.8711344 0.059478443
195.73299 68.191566 401.90549 0.5169341 0.15040502 -0.84270835 0.064788885
26.562496 70.191368 400.39062 0.14882521 -0.79392731 -0.58951718 0.0029045413
28.77985 70.56282 400.39062 0.14880353 -0.79717594 -0.58512229 0.0015796876
31.356535 70.648903 400.69159 0.15007578 -0.80130982 -0.57911992 0.001010487
34.113205 70.96759 400.76505 0.15184046 -0.80999553 -0.56643766 0.0013744062
36.319077 71.040123 401.05075 0.15323761 -0.81512398 -0.55865115 0.0014305327
38.83157 71.339523 401.20474 0.1513861 -0.80964667 -0.56705779 0.00010921556
40.966797 71.490547 401.42554 0.15348129 -0.8187452 -0.55326289 0.00075140101
43.755203 71.873627 401.56528 0.15033139 -0.81753081 -0.5559172 0.00017242495
46.372761 72.040672 401.89291 0.14757119 -0.82276499 -0.54889023 0.00017279573
48.530823 72.302551 402.08188 0.14258854 -0.82196569 -0.55139911 0
91.696785 71.100578 401.36703 -0.78705204 0.61685085 0.0066368682 0.036396265
92.588341 72.283943 401.06161 -0.7817983 0.62352961 0.0015410531 0.066155501
104.9895 70.703117 401.95312 -0.80240387 0.38097805 -0.45935145 0.035004359
105.58714 71.579437 401.17218 -0.80606925 0.3799341 -0.45376483 0.031884301
171.38712 71.466667 401.38849 0.69190162 0.35685006 -0.6276387 0.012992897
192.25772 71.875008 400.39062 0.51454353 0.41709217 -0.74918568 0.056114674
193.54236 71.455765 401.43536 0.53229606 0.41097617 -0.74010783 0.052503787
41.406242 72.642296 400.39062 0.15193699 -0.81772226 -0.55519855 0.00056623563
43.960125 73.055145 400.42633 0.14922513 -0.81666708 -0.55748242 3.6138135e-05
46.484375 73.071815 400.7883 0.14644998 -0.81989765 -0.55346209 0.00011858231
48.92532 73.354561 400.90802 0.14090388 -0.82170224 -0.55222416 9.7306574e-06
51.238098 73.439659 401.23639 0.13459496 -0.82859564 -0.54342753 0.00011970419
53.567657 73.840309 401.19424 0.12289368 -0.83560926 -0.53540093 0.00061961031
56.25 74.211609 401.16153 0.10037748 -0.82822967 -0.55132568 2.7448517e-05
58.772156 74.276855 401.44974 0.08027067 -0.83422738 -0.54554683 0.00051062589
61.249134 74.539871 401.46338 0.066331595 -0.82865739 -0.55581212 0
63.671875 74.611549 401.55939 0.067326106 -0.84916294 -0.52382207 0.00078496244
66.015625 74.42572 401.78864 0.051792536 -0.64731395 -0.76046187 0.023042375
68.750008 74.528503 401.87152 0.013489388 -0.30425003 -0.95249671 0.065271862
70.875778 74.695091 402.08624 0.054035675 -0.35480466 -0.93337762 0.09327849
93.596931 73.940392 401.15518 -0.82595825 0.55053103 -0.12127879 0.056217086
106.26369 73.800522 401.21658 -0.81793451 0.38260621 -0.42964581 0.035924856
169.39609 74.361664 400.56415 0.63211352 0.42990085 -0.64468426 0.015024999
171.49109 73.66333 401.23947 0.66731578 0.39402083 -0.6320104 0.013519537
173.80219 73.801933 401.94086 0.69420803 0.37191808 -0.61624032 0.01135087
191.5575 74.245682 400.97629 0.62819135 0.58923113 -0.50811636 0.03237883
192.75429 73.36869 401.66968 0.61049569 0.56453919 -0.55550927 0.034866851
59.375 75.075394 400.39062 0.07457877 -0.83441472 -0.54606789 0.00035682073
61.615437 75.343277 400.39398 0.063127488 -0.83210713 -0.55101055 0
63.671875 75.483734 400.50098 0.066430435 -0.85358179 -0.51670605 0.0010843572
66.12722 75.500221 400.66824 0.077851407 -0.84124601 -0.53501803 0.0015301037
68.75 75.4524 400.82617 0.062539436 -0.6804828 -0.73009044 0.022666348
71.569084 75.473892 401.02304 0.03806163 -0.48782584 -0.87211078 0.054009616
73.826843 75.775749 401.25189 0.099959321 -0.64189625 -0.76024824 0.047109183
76.128769 76.478401 401.13763 0.18480498 -0.81871098 -0.54365379 0.0053886473
78.185104 77.059898 401.52795 0.23448808 -0.85735458 -0.45821217 0.0038192463
94.719742 75.731476 401.34549 -0.80010873 0.59977746 0.009647632 0.044401795
95.677742 76.849083 401.09033 0.75967115 -0.63883775 -0.12159809 0.049131788
107.06605 76.019356 401.39645 -0.84432268 0.39384437 -0.36332607 0.021744935
107.66667 76.95311 400.78125 -0.86110067 0.39743075 -0.3171033 0.0043502343
166.64806 77.117004 400.39062 0.58134091 0.5101971 -0.63383096 0.012434934
168.90419 76.210777 401.16681 0.61125845 0.47361028 -0.6340791 0.013908636
170.98483 75.812973 401.62918 0.6386764 0.44133779 -0.63032806 0.012033332
186.80722 76.606392 401.09305 -0.77878225 -0.51689363 0.35541421 0.040726889
188.56992 76.034409 401.21487 -0.73444372 -0.56501704 0.37596285 0.037319656
190.63251 75.493362 401.36746 -0.68544257 -0.60326797 0.40772095 0.031207163
79.076241 77.770508 400.75854 0.26667619 -0.88667655 -0.37774128 0.0031510524
80.546364 78.645264 400.65103 0.30095077 -0.90006161 -0.31514713 0.00324477
96.806274 78.376793 401.22855 0.54942101 -0.70697957 -0.44532734 0.09558744
97.502884 79.29689 400.39062 0.69363588 -0.69578475 -0.18642129 0.12391934
108.27361 78.60968 401.10971 -0.86816466 0.40495089 -0.2868883 0.0045297197
164.53125 79.532982 400.65103 0.57892072 0.53812748 -0.61259258 0.0080654407
166.17908 78.806404 401.17813 0.5818457 0.52621752 -0.62012148 0.0093949819
168.44553 77.975929 401.73996 0.5965873 0.50551444 -0.6233288 0.012334757
170.70314 77.734383 402.30545 0.6244452 0.48207393 -0.61455101 0.012859887
186.61127 78.734627 401.18561 -0.8145169 -0.42151761 0.39860398 0.034534991
97.265633 80.078125 401.67731 0.78968638 -0.60250807 -0.11567017 0.063258328
97.919037 80.631721 400.54382 -0.79626918 0.60493886 0.002089075 0.077258594
109.27419 80.586838 401.229 -0.87896377 0.41173109 -0.24062452 0.0039517391
110.1207 81.901039 400.65103 -0.88959247 0.41809914 -0.18389741 0.002766134
162.08641 82.355324 400.42581 0.58167171 0.53184587 -0.61546558 0.0084713381
163.67567 81.375275 401.2572 0.57789063 0.54047269 -0.61149955 0.0087399567
165.90402 80.330101 401.89957 0.58135051 0.53525531 -0.61280781 0.007757742
184.75702 82.016319 400.6196 -0.044812001 -0.80195868 -0.59569627 0.018934458
186.00656 80.998878 401.53571 -0.84037018 -0.33561203 0.4256084 0.024015909
110.54686 82.965378 400.39062 -0.89196932 0.419177 -0.16935593 0.0020452598
161.32343 84.18306 401.10138 0.59657753 0.52705997 -0.60522962 0.0084381737
162.85353 83.14296 402.01489 0.57760984 0.53131121 -0.6197381 0.008746163
184.45653 83.985207 400.86887 0.84089279 0.23384833 -0.48807177 0.011045041
185.47885 83.901413 402.05249 0.84926432 0.25342253 -0.46317083 0.012764818
157.19044 87.119179 400.83163 0.63877827 0.48553678 -0.59683865 0.018236002
159.09196 86.754639 400.85916 0.62724775 0.50064731 -0.59658408 0.012243901
161.17867 86.12471 401.50763 0.60788029 0.51595813 -0.6035468 0.008680407
184.02512 86.515182 401.06561 0.8286643 0.21798325 -0.51555669 0.0059492057
185.0538 85.546883 401.95312 0.83979928 0.20575273 -0.5023973 0.0086466754
156.92555 87.939476 400.6976 0.63671082 0.48961028 -0.59571898 0.022810712
159.03928 88.152328 400.88107 0.63393825 0.49069908 -0.59777641 0.015323978
182.42189 89.072258 400.78125 0.81447828 0.22512309 -0.53473806 0.0039522117
183.47125 88.829453 401.2963 0.81360084 0.23607679 -0.53133929 0.0037856852
182.37944 90.815346 400.52109 0.80315405 0.21953414 -0.55384868 0.0048405603
182.86983 90.234367 401.17188 0.81390369 0.21786873 -0.53860384 0.0040870649
-123.73735 45.886829 403.44553 0.13587426 -0.79531491 -0.59077269 0.0016448204
-121.51874 46.503407 403.67938 0.11364248 -0.78807729 -0.60499537 0.00035465157
-118.9338 46.954388 404.10971 0.09999866 -0.77940017 -0.61849463 0.00020613922
-116.01562 47.172657 404.18246 0.097888023 -0.77357042 -0.62610441 0.00098081364
-113.59814 47.241699 404.26901 0.093890563 -0.75950152 -0.64369404 0.00017285727
-111.48438 47.329651 404.44135 0.094038546 -0.74933183 -0.65548348 0
-109.375 47.265617 404.81995 0.11180293 -0.75227773 -0.64929068 0
91.304985 47.078693 403.45773 0.17929593 0.68110096 -0.70989746 0.12144256
93.705109 46.152496 403.40591 -0.0038112239 0.71697438 -0.69708908 0.15478186
96.022209 46.648472 402.73438 -0.26095298 0.7054109 -0.65901369 0.17070538
-120.70313 47.659607 402.73438 0.11459343 -0.78232419 -0.61223954 0
-118.5364 47.989845 402.95453 0.10630586 -0.77813846 -0.61903113 0.0002595176
-116.01562 48.03698 403.11621 0.10425629 -0.77084792 -0.62842989 0.00053703599
-113.59375 48.23452 403.13031 0.098168969 -0.75529176 -0.64799476 0
-111.3675 48.415443 403.24173 0.096319214 -0.74079388 -0.66479093 0
-108.98438 48.457878 403.53088 0.11785436 -0.73472083 -0.66805363 0
-106.19838 48.800625 403.55969 0.17733867 -0.72163785 -0.66917098 0.0024757364
-103.55411 49.003574 403.88034 0.23626229 -0.71835482 -0.654329 0.0052986308
-101.36317 49.300732 404.15372 0.2662209 -0.7144984 -0.64700735 0.0058020665
-99.505875 49.650612 404.48358 0.29405656 -0.70682824 -0.64336967 0.0057162051
89.207619 49.278172 403.45822 0.26562658 0.63752407 -0.7231912 0.080105938
90.438354 48.131096 403.80521 0.20868148 0.65015912 -0.73057866 0.10238771
97.289848 48.190441 402.85214 -0.44263437 0.62786615 -0.64020228 0.15771529
98.051811 49.210915 403.39233 -0.53893495 0.56056547 -0.6287412 0.1350216
-102.99479 50.240997 402.69058 0.24303976 -0.69995123 -0.67156529 0.0055764406
-100.99061 50.597095 403.03391 0.27294767 -0.69359529 -0.6666522 0.005113808
-98.713371 51.216637 403.64215 0.3146843 -0.68168545 -0.66051394 0.0058977637
-97.085869 51.763439 404.47186 0.35023528 -0.66824663 -0.65633959 0.0058391122
84.76561 52.449585 402.73438 0.40804848 0.57348859 -0.71035713 0.018715739
86.622429 51.684467 403.3548 0.39896584 0.56257063 -0.72411364 0.02539888
88.008461 50.61311 403.73901 0.32280907 0.61010861 -0.72357571 0.054251324
97.422005 50.390633 402.73438 -0.462888 0.51189858 -0.72366744 0.13643824
98.039871 51.203133 403.57205 -0.53359771 0.46031004 -0.70949852 0.10800712
-98.163635 53.396694 402.8634 0.34224647 -0.641388 -0.68665045 0.0044037974
-96.886665 53.337746 403.9278 0.37218753 -0.63943946 -0.67275077 0.0057753781
81.634178 54.283344 403.15338 0.42780232 0.45958057 -0.7783128 0.073958024
83.825172 53.422066 403.60818 0.41956624 0.50197625 -0.75629622 0.040494416
85.567551 52.78001 403.86755 0.3912389 0.54216158 -0.74363494 0.020619493
98.112022 53.476681 403.39893 -0.62989712 0.37521577 -0.68003142 0.080271393
-33.203125 57.421864 404.86407 -0.17935865 -0.64265871 -0.74486268 0.019678971
-30.97105 57.14164 404.43561 -0.13881157 -0.6569702 -0.74102741 0.020969002
-28.515629 57.023872 404.28793 -0.09701474 -0.65697473 -0.74764448 0.021734571
-26.171871 56.945992 404.15955 -0.074883692 -0.6631335 -0.74474585 0.023808831
-23.724405 56.912056 404.01141 -0.062265836 -0.67565078 -0.73458761 0.027784428
-21.484375 56.69714 404.00281 -0.053592458 -0.70628697 -0.70589411 0.031890508
-18.625971 56.660542 403.6312 -0.045289386 -0.74508864 -0.66542596 0.035430823
-16.072824 56.291946 403.6091 -0.017125344 -0.81404173 -0.58055389 0.035246644
-13.671875 56.240555 403.49164 0.021766208 -0.86498922 -0.50131816 0.032270815
-11.301177 56.288025 403.61844 0.082291082 -0.90792745 -0.4109695 0.026453637
-8.9788523 56.553047 403.56317 0.14789361 -0.92549038 -0.34870493 0.020838231
-6.484376 57.070042 403.54749 0.22083718 -0.92332458 -0.31416991 0.017802484
-4.1603446 57.399605 404.1557 0.27686206 -0.91469264 -0.29442278 0.016304821
76.815353 57.244495 403.03549 0.42856154 0.48042274 -0.76519865 0.094345875
78.55304 56.362019 403.5878 0.40899277 0.47364148 -0.77999276 0.090118133
80.839561 55.366024 404.14398 0.41894367 0.46941769 -0.77726007 0.081682697
98.89843 56.145157 403.50793 -0.77561635 0.2587198 -0.57574594 0.066747881
-35.546867 59.765636 404.95798 -0.25758284 -0.54478449 -0.79803574 0.013811058
-33.655254 59.046917 404.46143 -0.20853312 -0.57236117 -0.7930426 0.012345285
-31.220558 58.892952 403.73883 -0.15947112 -0.56486988 -0.80962396 0.012199604
-28.456686 58.859131 403.1857 -0.11481782 -0.56245208 -0.81881893 0.013531005
-26.205383 58.640358 403.00714 -0.094148345 -0.57772982 -0.81078011 0.018073514
-24.023441 58.355347 402.89984 -0.081910498 -0.59370881 -0.80050015 0.021739302
-21.540051 58.171665 402.7085 -0.080116101 -0.61553192 -0.78402925 0.026357099
-19.53125 57.7351 402.73438 -0.075121351 -0.64993429 -0.75626856 0.030168641
-5.4687557 57.702316 402.73438 0.24798161 -0.91053689 -0.3307986 0.017996754
-3.3725419 57.989391 403.26511 0.29677427 -0.89730632 -0.32675114 0.017601805
-1.108009 58.80677 403.39288 0.33374768 -0.87271297 -0.35634884 0.017488353
1.0392169 59.50647 403.93991 0.34341547 -0.85564935 -0.38720796 0.018398819
74.006622 59.404083 403.32227 0.44770908 0.50667322 -0.73677599 0.091919661
75.923203 58.467197 403.83176 0.44119123 0.51263303 -0.73658514 0.086150348
99.683426 58.567982 403.46036 -0.83943027 0.24570429 -0.48475373 0.050491273
100.11244 59.765636 403.90625 -0.85649478 0.24883837 -0.45221251 0.042918958
-35.546867 60.546875 404.65579 -0.26773167 -0.5045622 -0.82081473 0.0095279329
-33.809227 61.122086 403.93097 -0.23339076 -0.46865803 -0.85199088 0.0053221476
-31.257956 61.278164 403.16388 -0.17819847 -0.45367172 -0.87317085 0.0033246235
-29.00749 61.00613 402.68735 -0.13867052 -0.46679646 -0.87342519 0.0066271969
1.5623049 60.466316 402.95673 0.3502939 -0.83623391 -0.42190883 0.018319288
3.5134144 61.241871 403.52353 0.33167595 -0.82307971 -0.46101063 0.018082542
5.9796791 61.960049 404.10834 0.29171693 -0.80975854 -0.50910938 0.016848087
8.2031193 62.109383 404.91974 0.24407554 -0.80483073 -0.54099405 0.01512614
69.921883 62.466888 402.73438 0.45150095 0.52959085 -0.71810895 0.11902869
71.385086 61.315674 403.53165 0.46264279 0.52836847 -0.7118907 0.10428681
73.279739 60.552895 404.29633 0.45842624 0.54294771 -0.70360017 0.089816809
81.417412 62.30492 404.20068 0.28226158 0.53227967 -0.79812694 0.14547919
83.20314 62.382729 403.51562 0.24423982 0.39570418 -0.88530511 0.17923374
100.47262 61.175274 403.58728 -0.86928582 0.26381576 -0.41802323 0.031018438
179.04109 61.737141 403.45447 -0.61684734 -0.77688259 0.1263046 0.057229575
181.29579 60.859535 403.58273 -0.48830712 -0.87165695 -0.042075489 0.065624386
183.98438 60.595592 403.55386 -0.31397063 -0.91770703 -0.24338509 0.065350011
186.32814 60.553406 403.52231 -0.16107725 -0.90158969 -0.40148482 0.053685058
188.80229 60.734188 403.431 0.0015417251 -0.82542855 -0.56450444 0.037371438
191.16473 61.075188 403.57434 0.13856401 -0.69883752 -0.70173079 0.028885391
193.65683 61.610207 403.80975 0.26479048 -0.56117433 -0.78419989 0.032292411
196.23717 61.973442 404.40631 0.37301773 -0.45449948 -0.80888075 0.036652882
-30.933193 62.8377 402.68927 -0.18150033 -0.38707805 -0.90400678 0.0019487869
4.6123567 62.702995 402.73438 0.31930277 -0.79989332 -0.50814998 0.016247937
6.5428529 63.238682 403.07346 0.28381732 -0.79454672 -0.53678977 0.014943422
9.0047874 63.650101 403.49585 0.2320471 -0.79448754 -0.56119847 0.013061221
11.300769 63.913254 403.81482 0.19110668 -0.79096842 -0.58124626 0.0091559505
13.584644 64.197853 404.00079 0.16345692 -0.79022288 -0.59061807 0.0064647687
16.081856 64.501144 404.05258 0.14778689 -0.79849738 -0.58357602 0.0062253173
18.582586 64.608109 404.42508 0.14400843 -0.80339032 -0.57777643 0.0048888987
69.653358 63.549931 403.65756 0.5392651 0.49201688 -0.68345636 0.10235903
70.465652 62.890617 404.52625 0.48570099 0.55541956 -0.67498422 0.10241043
76.923111 64.462677 403.54407 0.29718846 0.67218673 -0.67811805 0.12039624
78.613327 63.505306 403.65247 0.29427925 0.62989181 -0.71877396 0.1272995
80.970985 62.625408 403.18082 0.2563225 0.50411558 -0.82472193 0.15167904
84.080704 63.069691 403.35123 0.23686823 0.12718418 -0.96318096 0.20252463
85.83567 64.200546 403.70126 0.32539237 -0.4632808 -0.82431221 0.20551552
99.609375 64.453125 404.97351 -0.87161624 0.28738952 -0.39710501 0.040953506
101.36543 63.754299 403.58322 -0.87085867 0.29325414 -0.39447069 0.01816288
176.88173 64.207993 403.31534 -0.74482167 -0.57364088 0.34084737 0.045070596
177.94289 63.081837 403.79333 -0.69807267 -0.66823483 0.25720948 0.051184654
194.49471 62.922161 402.76352 0.343299 -0.42380124 -0.83817559 0.044493057
196.56389 63.482235 403.21783 0.4323172 -0.31531623 -0.84479439 0.043280721
198.53662 63.744873 404.12061 0.51712734 -0.22777908 -0.82504308 0.043780986
11.8465 65.182861 402.68866 0.17921326 -0.77872366 -0.60122555 0.0063184639
13.671875 65.355843 402.8511 0.15823255 -0.78483558 -0.5991624 0.0054182778
16.189241 65.566933 402.95404 0.14388128 -0.79268342 -0.59241122 0.0056320066
18.643785 65.693268 403.19592 0.14037229 -0.79547995 -0.58949757 0.004127583
21.586292 65.947548 403.54611 0.14511104 -0.80261236 -0.57858121 0.0043949429
23.881786 66.388382 403.56116 0.15124297 -0.8083998 -0.56887197 0.0042079049
26.039782 66.627754 403.83643 0.15473443 -0.81090903 -0.56434357 0.0034018685
28.513912 66.949097 404.07373 0.15565695 -0.81254739 -0.56172729 0.0027738172
30.468746 67.287308 404.29688 0.15490943 -0.81406015 -0.55974025 0.0015557875
69.917442 65.245209 403.50592 0.64441794 0.38833004 -0.65873009 0.095279276
71.519257 66.066933 403.5639 0.66332394 0.35603473 -0.6582101 0.10722139
73.749359 66.06678 403.65805 0.61911482 0.42411858 -0.66092366 0.12223355
75.777573 65.492638 403.98273 0.43086123 0.60396039 -0.67051506 0.12343657
86.867783 65.570534 403.26501 0.57400274 -0.70645112 -0.41406238 0.14710437
88.040344 66.673965 403.67188 0.69687468 -0.68927437 -0.19815773 0.096457273
101.16426 66.031761 404.12454 -0.86261308 0.27205825 -0.42647749 0.049136087
102.88802 66.507629 403.21396 -0.84633172 0.33838603 -0.4113605 0.014668381
175.86343 65.985657 403.57556 0.78208363 0.42270556 -0.45789206 0.029872345
197.25063 65.95417 402.74985 0.5322715 -0.015670391 -0.84642863 0.058100995
198.62521 66.030571 403.97769 0.59135592 0.040874537 -0.80537409 0.057383258
26.350975 67.583321 402.7131 0.15332945 -0.80634189 -0.57122922 0.0028663303
28.704739 67.734337 403.02121 0.15343361 -0.80948281 -0.56674135 0.0024620784
31.327963 68.019867 403.42453 0.15423803 -0.81260043 -0.562042 0.0013801713
33.99704 68.531265 403.48709 0.1542865 -0.81757718 -0.55476403 0.00159894
36.2649 68.915382 403.64224 0.15461975 -0.8182736 -0.55364341 0.0013668237
38.721237 69.425262 403.58954 0.15372673 -0.81994784 -0.55141056 0.00094648724
40.863018 69.710823 403.87256 0.15396743 -0.82316363 -0.54653054 0.00077662466
43.169636 69.919594 404.36743 0.15297751 -0.81950682 -0.55227393 0.00024538141
89.23661 68.204712 403.48535 0.72718388 -0.68303812 -0.068282433 0.046512716
90.315338 69.701721 403.5842 0.70764732 -0.68672651 -0.16625856 0.065393239
101.65387 68.062798 404.40021 -0.8384732 0.23342082 -0.49241999 0.086590692
103.26204 68.886047 403.38068 -0.81829643 0.32641363 -0.47312278 0.049596816
174.21092 68.994987 403.42444 0.76690972 0.34686098 -0.53994167 0.013540795
175.33011 67.762123 404.24716 0.78453213 0.36670035 -0.50004017 0.017345533
196.78793 69.01152 403.20114 0.59501302 0.26261044 -0.75960207 0.060442831
198.19054 68.38559 404.33533 0.63367593 0.25769016 -0.72941798 0.056892287
39.453117 70.06073 402.73438 0.15261015 -0.81752652 -0.55530226 0.00040399903
41.210934 70.308372 402.92969 0.15409215 -0.82144058 -0.54908192 0.00078330142
43.845177 70.644127 403.27048 0.15091726 -0.81881428 -0.55386573 9.4667732e-05
46.565559 71.037262 403.54828 0.14803359 -0.82298964 -0.54842877 7.3159732e-05
48.76656 71.440659 403.60873 0.14282967 -0.82217848 -0.55101925 7.6055221e-05
51.056522 71.888596 403.63934 0.13710561 -0.82845289 -0.54301739 0.00025164403
53.502033 72.203133 403.90833 0.12520555 -0.83658057 -0.53334463 0.00093656371
55.46875 72.305603 404.37888 0.10873315 -0.82860059 -0.54917961 2.9594616e-05
91.495117 71.336197 403.54089 0.63124716 -0.69480586 -0.34463295 0.1178843
104.02644 71.394577 403.43628 -0.78346258 0.31878492 -0.53344399 0.078707546
105.07813 72.265625 402.55673 -0.7953434 0.36438552 -0.48440903 0.058191773
173.57957 71.458664 403.73795 0.73865724 0.34734923 -0.57769722 0.010249007
194.85208 71.809097 402.80765 0.58526075 0.48652202 -0.64866501 0.044168673
196.21194 71.215553 403.78952 0.60558784 0.45751134 -0.65111202 0.044195365
51.953136 72.540016 402.73438 0.13261653 -0.82959163 -0.54239345 7.5034965e-05
53.828125 72.790565 402.84677 0.12206833 -0.83561748 -0.53557706 0.00061618577
56.346252 72.990479 403.2702 0.10035084 -0.82795775 -0.55173868 6.3534491e-05
59.044472 73.234383 403.52557 0.07859572 -0.83046567 -0.55149746 0.00022739635
61.328125 73.385727 403.4516 0.067659214 -0.83541793 -0.54543489 7.1861738e-05
63.671875 73.338257 403.39041 0.058825713 -0.75136483 -0.65725988 0.011522864
65.955521 73.250778 403.52249 0.04566586 -0.3209891 -0.94598138 0.059338801
68.739487 73.457184 403.57111 0.13286351 -0.2902216 -0.9476912 0.099090844
71.419388 74.159592 403.58093 0.15542369 -0.38249582 -0.9107911 0.11070397
72.922379 74.737648 403.67188 0.12884595 -0.45189941 -0.88271499 0.10760278
93.049698 73.742744 403.63403 0.49001667 -0.68461585 -0.53961539 0.12940617
104.43106 72.919617 404.29688 -0.76547951 0.26920557 -0.58443952 0.11279637
105.48672 73.855476 403.53439 -0.79176593 0.33901754 -0.50810826 0.083925754
171.89127 74.310966 403.09796 0.67863053 0.40618709 -0.6119417 0.012288904
173.47968 73.849838 404.01987 0.71309352 0.38291481 -0.58725971 0.011118551
175.19785 73.828133 404.40329 0.73700792 0.36423773 -0.56934196 0.0099717118
191.01562 74.647118 404.49863 0.65160811 0.60634184 -0.4558031 0.024163842
193.73293 73.984627 403.60916 0.61319894 0.60535103 -0.50748122 0.024291571
195.66963 73.003647 404.32642 0.59639376 0.58881497 -0.54553777 0.0260673
74.24926 75.367287 403.125 0.087106712 -0.52419347 -0.84713262 0.085343383
76.183975 76.154274 402.70605 0.11140511 -0.70297629 -0.70243376 0.023638351
77.734383 76.613754 402.73438 0.16346262 -0.76524293 -0.62264216 0.0084354179
94.430176 76.224403 403.67386 0.095508926 -0.57255757 -0.81428242 0.095880993
96.648453 75.624596 403.74728 0.13616598 -0.69192868 -0.70900881 0.11486907
106.79662 76.316063 403.45456 -0.82993811 0.39709049 -0.39181864 0.03823971
169.57948 77.038879 403.14377 0.62363583 0.48142332 -0.61588144 0.0124129
171.47522 76.266663 403.63922 0.65762353 0.44417974 -0.60846996 0.01148982
173.43231 75.605301 404.28256 0.69603831 0.41077802 -0.58889049 0.012605879
186.93896 76.415306 403.4183 -0.76293957 -0.5063141 0.4019568 0.036369402
189.02255 76.110184 403.68274 -0.7204777 -0.55627221 0.41409299 0.031884152
190.98586 75.378868 403.38998 0.65985596 0.60161871 -0.45016104 0.026661359
96.029282 77.999161 402.93198 -0.48123172 -0.33405355 -0.81044692 0.070058972
107.41024 77.757729 404.26718 -0.85208237 0.41069856 -0.3244724 0.0041210265
107.9839 78.610313 403.25522 -0.86122805 0.41303012 -0.29612893 0.0041071349
167.31569 79.29689 402.73438 0.59311742 0.52722305 -0.60847974 0.010073945
169.04752 78.775993 403.61819 0.61310792 0.51573694 -0.59842634 0.012206541
170.95718 78.249496 404.03513 0.63623816 0.4867287 -0.59857851 0.0116502
186.92348 78.249641 403.48093 -0.79485589 -0.44049975 0.4173297 0.03269624
189.08865 78.089699 403.96835 -0.76454675 -0.4763431 0.43424121 0.031946339
108.8976 80.327118 402.73438 -0.87243682 0.41360715 -0.2603519 0.004270826
164.57698 82.265671 402.89056 0.58595729 0.55005068 -0.5950616 0.01002163
166.32298 81.204582 403.35202 0.5875625 0.54307353 -0.59986788 0.0084046321
168.75 80.48484 404.26785 0.60408932 0.53736418 -0.58848608 0.010312472
170.70314 80.475327 404.27161 0.61314029 0.52781862 -0.58776402 0.010611117
186.79526 81.557526 403.31573 -0.82978725 -0.35715073 0.42883152 0.022874214
187.85735 80.68013 403.90485 -0.81279916 -0.38432822 0.43777782 0.026900422
162.19154 84.862427 402.73438 0.58322889 0.52706742 -0.61809713 0.0099861231
163.67599 83.932045 403.5032 0.58032745 0.53459752 -0.61434978 0.0097454023
165.65056 83.365524 404.47949 0.5886057 0.54737377 -0.59491622 0.0092701092
186.35681 84.007637 403.61142 0.84356642 0.25844139 -0.47074813 0.013008492
159.76562 86.328117 403.13446 0.61539418 0.50593722 -0.60441512 0.010244112
161.4528 86.029945 403.09497 0.59876484 0.51470882 -0.61364108 0.008313234
162.87126 85.530251 404.3699 0.57670355 0.51497966 -0.6341995 0.0091115711
184.79163 86.873337 402.87808 0.84337336 0.20547268 -0.49648997 0.00796289
185.88237 86.187515 403.93661 0.8451578 0.20523342 -0.49354589 0.0091064237
184.5394 88.997971 402.98511 0.82158333 0.22918114 -0.5219931 0.004665507
185.54881 88.672371 403.73474 0.83682972 0.22330566 -0.49985048 0.0065499907
-123.78151 44.540462 406.57077 0.1179359 -0.7892859 -0.60259348 0.0025135349
-121.54646 44.479694 406.59024 0.098184131 -0.78500646 -0.61165738 0.0025171086
-118.94261 44.552727 406.97452 0.086815931 -0.77857971 -0.62151152 0.0014373555
-116.01562 44.724133 407.17838 0.081859417 -0.76793689 -0.63527322 0.00036968864
-113.67188 44.761353 407.22256 0.083240107 -0.76528519 -0.63828653 0.00051838905
-111.32812 44.847168 407.33047 0.099852636 -0.76848924 -0.63202363 0.001119866
-109.8361 44.931232 407.43372 0.11996485 -0.77098966 -0.62544662 0.00078098389
-123.82812 45.279083 405.07816 0.12888245 -0.79209846 -0.59663171 0.0025586551
-121.07193 45.500122 405.19864 0.10228293 -0.78454453 -0.61157835 0.0011214949
-118.59827 45.727055 405.62482 0.092515074 -0.7780022 -0.62141258 0.00044331807
-116.01562 45.922546 405.72092 0.089490406 -0.77206367 -0.62921309 0.00071556569
-113.73926 45.997032 405.71231 0.087322727 -0.76243353 -0.64114732 0.00028871823
-111.32812 46.09177 405.85431 0.09509857 -0.75372052 -0.65027809 7.5240387e-05
-108.81387 46.235565 406.06146 0.12724428 -0.75936002 -0.6381076 0.00034898403
-106.3101 46.378784 406.32343 0.17747867 -0.76313752 -0.62138754 0.001218707
-103.63446 46.618004 406.58066 0.23131357 -0.75611788 -0.61219251 0.0037591073
-101.23812 46.943699 406.9259 0.26917979 -0.74947721 -0.60483575 0.0060330904
-99.511879 47.222126 407.35825 0.29471946 -0.74503595 -0.59838277 0.0062404014
91.75827 47.28653 405.3678 0.13806924 0.63979733 -0.75603986 0.11263406
93.895103 46.696224 406.11673 -0.014819295 0.64890909 -0.76072162 0.12351253
96.002029 46.63998 405.625 -0.22180656 0.65346646 -0.72372884 0.13882518
-105.46875 47.61338 405.07816 0.19764765 -0.74140519 -0.64129078 0.0012002503
-103.22545 47.972248 405.08359 0.24241716 -0.73420078 -0.63417912 0.0061181327
-100.99653 48.169895 405.49832 0.27196446 -0.72922939 -0.62790114 0.0064432453
-98.656952 48.613579 406.18381 0.31064162 -0.72210407 -0.61811614 0.0077325073
-96.917816 49.35062 406.77115 0.34649619 -0.70741993 -0.61603355 0.0082929451
89.649223 49.6581 405.33853 0.218353 0.59049785 -0.77693903 0.071086816
90.929924 48.782963 406.42526 0.1653913 0.59646553 -0.78541368 0.083460085
92.982513 48.056377 407.21567 0.042184465 0.59815198 -0.80027157 0.10176834
97.265633 47.515289 405.46875 -0.37810749 0.60935313 -0.69693869 0.13471392
99.009949 49.649559 405.25638 -0.6190846 0.48404208 -0.6184153 0.10543001
-97.565414 50.390633 405.07816 0.33502978 -0.69542456 -0.63571995 0.0088329818
-96.132126 50.962921 405.99182 0.37120849 -0.67945987 -0.6328811 0.008261472
87.176987 52.018688 405.4079 0.37563065 0.52168781 -0.76599181 0.021570221
88.786865 51.076992 406.03702 0.27660486 0.56779844 -0.77530289 0.047959413
90.301598 51.171879 407.36234 0.16337638 0.57151634 -0.80416244 0.055095036
99.040878 51.240669 406.1235 -0.62765455 0.41516423 -0.65855026 0.086188465
-95.795052 52.734375 405.1701 0.39408603 -0.64597082 -0.65377206 0.0076366006
-33.412865 54.365742 407.41537 -0.14222015 -0.74746943 -0.64889365 0.027798023
-31.25 54.233368 406.98758 -0.11617399 -0.75838727 -0.6413675 0.026861029
-28.527611 54.113876 406.85233 -0.078416988 -0.77301121 -0.62952721 0.025269009
-26.171871 54.158119 406.92905 -0.026639402 -0.80373871 -0.59438574 0.025297254
-23.828131 54.228409 406.96542 0.0078991726 -0.83786827 -0.54581529 0.025660472
-21.484375 54.314392 407.04025 0.024570974 -0.8688525 -0.49446085 0.025994089
-18.894327 54.581459 406.74805 0.031639021 -0.88896835 -0.45687443 0.026490692
-16.015629 54.76984 406.64062 0.054721538 -0.9143241 -0.40126938 0.025144121
-13.828122 54.872456 407.10938 0.090918258 -0.93698895 -0.33732119 0.021498283
84.175972 54.373703 405.35486 0.41754863 0.47920474 -0.7720207 0.048190884
86.319435 53.605145 405.9043 0.38310394 0.50971174 -0.77034098 0.028899306
88.76355 53.540268 407.07547 0.27061987 0.5354625 -0.80002809 0.035116352
90.740791 53.484177 407.40027 0.099483341 0.56396919 -0.8197816 0.06008238
98.930443 53.493187 406.14343 -0.67036378 0.34442246 -0.65725607 0.073545724
-37.912556 57.406055 407.41013 -0.27999589 -0.65918803 -0.69790643 0.023410251
-36.201267 56.683495 406.86911 -0.22040422 -0.68578357 -0.69363016 0.02679207
-33.985054 56.046028 406.13556 -0.17306292 -0.70018548 -0.69266838 0.02641814
-31.318937 55.714367 405.59549 -0.12796277 -0.71373707 -0.68862551 0.025664931
-28.515631 55.520947 405.51321 -0.090010323 -0.72343403 -0.68450087 0.025243128
-26.171869 55.496014 405.49573 -0.056615721 -0.73223948 -0.6786899 0.027022408
-24.017326 55.424355 405.4906 -0.032836135 -0.76131916 -0.64754528 0.029600399
-21.484375 55.255405 405.56934 -0.012180164 -0.8087762 -0.5879904 0.03229858
-18.749996 55.278366 405.37775 0.0029659653 -0.85024625 -0.52637666 0.032913767
-16.015627 55.199127 405.32101 0.027988963 -0.89247787 -0.45022193 0.030308211
-13.589843 55.13319 405.72473 0.072180226 -0.92605913 -0.37041131 0.025019985
-11.474212 55.33503 406.3616 0.12281797 -0.94374228 -0.30702803 0.019228581
-8.9329834 55.833504 406.18015 0.17405964 -0.94698781 -0.27003187 0.01633078
-6.2008653 56.583656 406.25 0.23463416 -0.93999052 -0.24771915 0.014285432
-3.7317712 57.335655 406.31 0.28279772 -0.92517668 -0.25312757 0.013851901
79.110558 57.24229 405.25107 0.42146629 0.5214811 -0.74190539 0.087286696
81.369545 56.464542 405.70758 0.42606705 0.51235813 -0.74562454 0.085293926
83.827354 56.179779 406.42331 0.42788246 0.49082094 -0.75895411 0.073513351
86.309204 56.252121 407.06656 0.40379149 0.47421592 -0.78235012 0.062972538
88.671875 55.72353 407.25934 0.3107422 0.48273996 -0.81878048 0.052670691
90.966255 55.367702 407.38223 0.065255083 0.55573267 -0.82879609 0.073201381
99.103058 56.458389 406.3324 -0.75210607 0.32096279 -0.57560343 0.075421497
-37.890614 58.400734 406.75415 -0.29419199 -0.61854506 -0.72859663 0.020161349
-36.29443 58.737701 405.78143 -0.2589505 -0.60224819 -0.75514352 0.017923139
-34.491943 58.158867 405.11414 -0.21141785 -0.61722171 -0.75785214 0.018185772
-2.7343631 57.662704 406.25 0.29926825 -0.91701704 -0.26366335 0.014137883
-1.1848725 58.22216 406.20035 0.31888178 -0.90175414 -0.2918115 0.015580162
1.1602062 59.129196 406.18106 0.32941443 -0.87698114 -0.34984335 0.01818512
2.9713333 59.783119 406.46451 0.31881824 -0.8599056 -0.3986443 0.019469654
76.337486 59.392136 405.19159 0.44778362 0.5578559 -0.69877505 0.082890585
78.514069 58.984386 405.86923 0.41908047 0.56359053 -0.71185482 0.088493086
81.035858 58.679062 406.93677 0.40713602 0.56441987 -0.71810198 0.092224851
83.732933 57.952114 407.42188 0.41663036 0.52172554 -0.74446058 0.093342178
85.546883 57.586609 407.42188 0.42734972 0.490069 -0.75973988 0.092137598
89.378876 58.180817 407.3584 0.34835345 0.43132669 -0.83223027 0.11670537
96.488449 58.981812 407.41925 -0.60943604 0.4538193 -0.6501044 0.1025501
99.244324 58.725651 406.52435 -0.78514951 0.34018484 -0.51750803 0.069994539
100.16451 59.765636 405.46875 -0.85278773 0.27946201 -0.44119611 0.048031881
182.41028 59.771549 406.79337 -0.52227467 -0.85213143 0.033182807 0.062795848
183.94632 59.405285 406.233 -0.41789371 -0.90232211 -0.1057338 0.06587033
186.3383 59.234699 406.09137 -0.27834612 -0.92053664 -0.27410913 0.063304342
188.724 59.07626 406.14514 -0.14486568 -0.90086657 -0.40921065 0.05195957
191.01843 58.943352 406.4068 -0.034063429 -0.85854143 -0.51161158 0.039069943
193.61591 59.136791 406.56042 0.10722861 -0.77388692 -0.62418032 0.026732642
196.43463 59.395939 406.97882 0.2560131 -0.65311706 -0.71266782 0.022396248
198.73761 59.726578 407.34985 0.35548699 -0.54752588 -0.75752521 0.026420474
-36.328136 60.210228 405.07816 -0.28507549 -0.52858627 -0.79958028 0.01277321
4.1861267 60.35463 405.77991 0.31127113 -0.83966029 -0.44506291 0.019150821
6.2471228 60.977837 406.19431 0.27858195 -0.82509959 -0.49153104 0.01802629
8.984725 61.730553 406.24344 0.22832182 -0.80958509 -0.54077822 0.014542651
11.24837 62.12611 406.74655 0.19320831 -0.80899864 -0.55515021 0.011726015
12.890636 62.328129 407.42188 0.17310594 -0.81591982 -0.55164224 0.010539126
71.996643 62.109085 405.09531 0.47377148 0.55850548 -0.68089074 0.088151515
74.057701 61.409206 405.28479 0.46218008 0.57060868 -0.67881912 0.084250815
76.303345 61.347504 406.26212 0.43509185 0.60219395 -0.66937107 0.085986383
78.134895 61.266846 406.54041 0.40055647 0.61125445 -0.68258518 0.092400819
81.045326 61.796379 406.31259 0.33568659 0.59685642 -0.72875029 0.12488622
82.58432 62.109383 405.85938 0.29954904 0.55670142 -0.7748251 0.1471096
97.265633 62.175064 407.36774 -0.71445513 0.42224261 -0.55791128 0.10881422
98.820602 61.238361 406.77884 -0.80376381 0.3675403 -0.46784383 0.063111722
100.43941 61.00182 405.43521 -0.86162788 0.28109309 -0.42259216 0.036978904
179.48402 62.020618 405.56021 -0.65187269 -0.7281335 0.21185759 0.054325167
180.8501 61.010284 406.36124 -0.60266763 -0.78486657 0.1441398 0.058522005
191.79688 60.023994 405.07816 0.090119138 -0.76005 -0.64358574 0.023873597
194.11971 60.462898 405.22064 0.23300231 -0.64316481 -0.72941691 0.026488347
196.53627 60.924152 405.52963 0.3429814 -0.52961159 -0.77580625 0.030447019
198.79533 61.36668 405.95493 0.43620577 -0.42412522 -0.79362607 0.033870779
201.10791 61.445385 407.03897 0.50357574 -0.34012982 -0.79418075 0.035229418
11.53298 62.865967 405.24097 0.19146578 -0.80090976 -0.5673486 0.01096956
13.771791 62.917641 406.1344 0.16515771 -0.8064549 -0.56776178 0.0084904963
15.981952 63.390606 406.12891 0.15363814 -0.80931389 -0.56692702 0.0074085626
18.80728 63.885719 406.25723 0.14777246 -0.81497693 -0.56033552 0.0061077778
21.460579 64.431374 406.30026 0.15038523 -0.81906819 -0.55363482 0.0054939231
23.446531 64.728691 406.97543 0.15760234 -0.82218283 -0.54697073 0.0049293106
69.885162 64.300285 405.12399 0.59567916 0.44410247 -0.66928273 0.089713506
71.379433 63.854118 405.62796 0.53994226 0.51861846 -0.66294587 0.091167405
73.949104 63.804184 406.30154 0.48264548 0.5888865 -0.64827931 0.089222975
76.56176 63.901691 406.47525 0.39269397 0.65929961 -0.64118284 0.097994834
78.637177 63.435276 406.45508 0.34559238 0.66615641 -0.66090965 0.11032236
81.077133 62.882599 407.02554 0.31374669 0.63295782 -0.7077623 0.13520528
83.985794 62.967831 406.21588 0.27900368 0.50112921 -0.81916195 0.18532935
85.891167 64.155983 406.19244 0.28227282 -0.20362081 -0.93747574 0.23973759
98.66674 63.696095 406.37201 -0.83168572 0.30984065 -0.46075758 0.084771134
100.49086 63.376686 405.14725 -0.8703872 0.30624503 -0.38553894 0.022640569
178.67223 63.773121 406.20767 -0.73550099 -0.5840106 0.3434675 0.045909699
199.63629 63.131512 405.10345 0.54065561 -0.24956244 -0.80337423 0.043843109
201.15794 63.699543 406.18658 0.59959877 -0.117111 -0.7916857 0.043838829
202.57285 63.28125 407.42188 0.61450589 -0.096303545 -0.78301227 0.041545328
22.265614 65.043182 405.07816 0.14987664 -0.81024069 -0.56661022 0.0047314828
23.991358 65.23925 405.51917 0.15539461 -0.81698591 -0.55532563 0.0046617789
26.164816 65.526329 406.29086 0.15975714 -0.82196766 -0.54666883 0.0045191958
28.536865 66.07151 406.36023 0.15916702 -0.82215303 -0.54656208 0.003308211
31.242952 66.754265 406.14087 0.15849942 -0.82264757 -0.54601181 0.0024361678
33.555588 67.145454 406.44531 0.1578965 -0.82549596 -0.54187185 0.001932309
35.546867 67.427605 406.64062 0.15659104 -0.82559478 -0.54210007 0.0016120712
69.873383 65.300644 405.15811 0.63600951 0.38855299 -0.66672206 0.089124948
71.382088 65.884804 405.72867 0.64298409 0.39844626 -0.65407342 0.093910374
74.033455 65.909256 406.42429 0.5710969 0.50745809 -0.64524001 0.10173898
76.243004 65.977211 406.31055 0.43673185 0.65009975 -0.62180024 0.11217312
77.829887 65.876999 407.42331 0.32489598 0.75942165 -0.56366777 0.10549397
