# .PCD v0.7 - Point Cloud Data file format
VERSION 0.7
FIELDS x y z normal_x normal_y normal_z curvature
SIZE 4 4 4 4 4 4 4
TYPE F F F F F F F
COUNT 1 1 1 1 1 1 1
WIDTH 613
HEIGHT 1
VIEWPOINT 0 0 0 1 0 0 0
POINTS 613
DATA ascii
7.4407358 -128.16313 398.14801 -0.24342985 0.051537193 -0.96854824 0.031646747
8.0808449 -126.49822 397.90326 -0.26404104 0.04666999 -0.96338171 0.031038443
6.7178345 -125.22117 397.93823 -0.24243562 0.044669311 -0.96913862 0.03163949
7.776557 -125.44777 397.74481 -0.26095542 0.043923635 -0.964351 0.028163591
61.40321 -125.64809 398.27496 0.28873569 -0.017871054 -0.95724207 0.016320618
6.5744214 -124.20168 397.83688 -0.2382655 0.042322043 -0.97027749 0.026852703
7.7234573 -124.30817 397.44461 -0.26213959 0.037092708 -0.96431684 0.026804682
5.9734712 -122.9035 397.3306 -0.22530288 0.031873815 -0.97376722 0.026466548
6.5356426 -123.10883 397.59439 -0.23606527 0.032497711 -0.97119361 0.026741315
7.2962976 -123.33053 397.26297 -0.2536858 0.032300744 -0.96674728 0.025982223
6.3746367 -122.39098 397.24872 -0.23174042 0.025007099 -0.97245616 0.027910799
133.03275 -85.387169 397.88815 0.615991 0.18576036 -0.7655378 0.0094513604
133.71626 -85.577583 398.10779 0.6080882 0.1919658 -0.77031028 0.010667281
131.49997 -84.16375 397.33795 0.63845879 0.17681274 -0.74907112 0.0098960008
132.60397 -84.604332 397.75537 0.62192672 0.17711829 -0.76278192 0.0072888928
133.62659 -84.816238 398.21725 0.61472631 0.18217123 -0.76741457 0.0094187204
131.58977 -83.348335 397.36014 0.64545685 0.1779553 -0.74277687 0.0109774
132.40912 -83.457054 397.90866 0.62767404 0.17355789 -0.7588827 0.0076926984
130.73622 -81.822662 397.36111 0.64131051 0.17449163 -0.747177 0.0036276532
131.48923 -82.204063 397.83749 0.6359219 0.17515814 -0.75161356 0.0065506655
132.25052 -82.094589 398.30576 0.63510072 0.17554452 -0.75221759 0.0093829138
133.2336 -82.740616 398.33133 0.62042791 0.17094456 -0.76540661 0.006603139
130.70572 -80.93943 397.51501 0.63971168 0.17445108 -0.74855578 0.0078536123
131.36079 -80.980263 397.87833 0.63734877 0.17466769 -0.75051826 0.008531413
132.04633 -81.283829 398.32867 0.64033204 0.17559837 -0.74775666 0.0097162388
130.52669 -80.097771 397.4888 0.62627697 0.17144628 -0.76051515 0.0077548125
131.26445 -79.809464 398.0769 0.62413555 0.1708367 -0.76241046 0.0077401572
130.59097 -78.467415 397.71338 0.63587439 0.17437315 -0.75183624 0.0099683749
131.18047 -78.673576 398.10574 0.62499774 0.17133774 -0.7615912 0.0062342105
130.4631 -77.405663 397.73471 0.63436884 0.17359284 -0.75328732 0.008316962
131.01198 -77.346451 398.19574 0.63220662 0.17375965 -0.75506449 0.0065343892
130.42607 -76.194839 397.62592 0.62736863 0.16451502 -0.76114613 0.0060153166
131.06448 -76.188751 398.25421 0.61836386 0.16564392 -0.76823711 0.0021730282
-42.787041 -55.311859 397.37488 0.043032825 0.76735532 -0.63977659 0.0069086077
-41.084629 -55.412346 397.67892 0.019871075 0.75240409 -0.65840203 0.0068258457
-40.372749 -55.704021 397.48608 0.0021392754 0.73523861 -0.67780501 0.0065697185
-44.914864 -54.239258 397.35547 0.097366482 0.78379315 -0.61334169 0.017197218
-43.727188 -54.420334 397.52628 0.069844574 0.78606522 -0.61418492 0.012201072
-42.71336 -54.548904 397.66623 0.042900544 0.77308393 -0.63285136 0.0071394728
-41.401901 -54.619709 397.89734 0.023176212 0.76047522 -0.64895314 0.0059877108
-40.394272 -54.825829 397.86066 0.0080388263 0.75016713 -0.66119927 0.0067404076
-45.907703 -53.182495 397.36185 0.14573628 0.73681647 -0.66019887 0.021376969
-44.851353 -53.531033 397.52896 0.10280593 0.78441632 -0.61165512 0.019842824
-43.822727 -53.423012 398.09122 0.074117728 0.79618478 -0.60049677 0.015463838
-42.753338 -53.721245 398.16156 0.045370396 0.7870397 -0.61523163 0.0093681989
-41.736454 -53.794174 398.30502 0.031802516 0.77952248 -0.62556642 0.0079286909
-40.429836 -53.649788 397.69388 0.0079634739 0.755826 -0.65472412 0.0052917609
93.505432 -35.184914 397.35248 -0.29995552 0.57411373 -0.7618531 0.0083387028
94.008255 -35.259663 397.57993 -0.31607822 0.5749498 -0.75467032 0.011092047
93.316216 -34.156178 397.63834 -0.3290844 0.58250415 -0.743231 0.016495688
94.130188 -34.323502 398.00452 -0.34645984 0.57039356 -0.744726 0.021139702
94.833237 -34.30051 397.52921 -0.35866761 0.55727178 -0.7488696 0.022557143
93.040672 -33.118046 397.89615 -0.34478709 0.56903452 -0.74653971 0.029968888
96.545288 -32.771935 397.3848 -0.34259021 0.37112883 -0.86307317 0.018889876
97.34874 -32.75666 397.32855 -0.33017042 0.36375684 -0.87101579 0.016615914
92.835869 -32.10503 397.69473 -0.32109234 0.37908599 -0.86786723 0.038030989
96.8153 -32.161266 397.40109 -0.33596176 0.36570898 -0.86797845 0.01657334
97.469818 -32.146996 397.53525 -0.32765734 0.35875013 -0.87403607 0.015190152
-7.6666265 -11.018586 397.72037 0.0029012652 0.73463297 -0.67845851 0.018608186
-6.5924387 -10.864593 397.28333 -0.010796255 0.73584747 -0.6770612 0.017665617
-7.7068415 -10.317576 397.98044 0.0039316886 0.71957105 -0.6944077 0.016379045
-6.6509438 -10.350572 397.87039 -0.0077666678 0.72005397 -0.6938746 0.016162271
-5.4192176 -10.266198 397.71054 -0.021078635 0.7245478 -0.68890214 0.018005384
-4.2489977 -10.166069 397.68048 -0.036727458 0.72360361 -0.68923801 0.014962792
-3.0277116 -9.8443966 398.02512 -0.052722346 0.71440625 -0.69774204 0.008791524
-2.498596 -9.0922689 398.37183 -0.056079689 0.70412779 -0.7078554 0.011215999
-1.9700049 -9.2932835 398.17212 -0.067763209 0.7167412 -0.69403911 0.011251498
-44.970612 -3.0168381 397.66571 0.19656534 0.49730521 -0.84501457 0.005511953
-43.818756 -2.780808 397.48007 0.19762258 0.49106786 -0.848409 0.0018938585
-42.611019 -2.7964416 397.56509 0.19686927 0.48759031 -0.85058701 0.00018728102
-41.483009 -2.9088604 397.6312 0.19652741 0.48796135 -0.85045326 0.00029189026
-40.191116 -2.843641 397.81668 0.19486481 0.49371174 -0.84751189 0.0035908821
-38.941967 -2.9812107 397.87622 0.19419709 0.4969871 -0.8457489 0.0050100363
-37.737961 -3.0203862 397.76187 0.19332668 0.50417823 -0.84168231 0.0073567443
-36.62904 -2.892133 397.80972 0.18906204 0.51416987 -0.83659118 0.010292903
-35.381897 -2.901792 397.8349 0.17930858 0.53769141 -0.82385468 0.016435953
-34.248013 -2.5418222 398.04428 0.18240446 0.53440768 -0.82531029 0.014575143
-33.311729 -2.4985778 397.89508 0.18454239 0.52681828 -0.82970273 0.0091634532
-47.044708 -1.3018425 397.36337 0.19546263 0.49342757 -0.84753978 0.0069520585
-46.168369 -1.4292108 397.39221 0.19706087 0.4942058 -0.84671581 0.0066744597
-45.070282 -1.8162122 397.80884 0.20141605 0.48517367 -0.85090423 0.0030602748
-43.812889 -1.8060366 398.03961 0.20258556 0.47888318 -0.85418379 0.00032181339
-42.59182 -2.1027982 398.13287 0.19928439 0.48300034 -0.85264087 0.00047472492
-41.360584 -2.1942616 398.24078 0.19919422 0.48132843 -0.85360682 0.00031311344
-40.332336 -2.2557821 398.21448 0.1967278 0.48989055 -0.84929705 0.0034060683
-34.286823 -2.392539 398.16647 0.18355116 0.53149933 -0.82693249 0.014087802
-32.993099 -2.3492911 398.04062 0.18579714 0.52428854 -0.83102405 0.0081869671
-47.219181 -0.61108232 397.40292 0.19901568 0.48309755 -0.8526485 0.0040230374
-46.175579 -0.59024334 397.66092 0.20146167 0.48499671 -0.85099441 0.0054685771
-45.090805 -0.63598162 398.06033 0.2035661 0.48018172 -0.85322118 0.0043407711
-43.964222 -0.8123132 398.28976 0.20531274 0.47308779 -0.85675818 0.00044495432
-48.370518 0.17746712 397.25247 0.20141901 0.47478262 -0.85674495 0.0032620747
-47.163795 0.30485421 397.48358 0.20316614 0.47369108 -0.85693663 0.0031680339
-46.176495 0.48894253 397.90042 0.20455752 0.47829404 -0.85404396 0.0070817731
-45.106667 0.58928055 398.26688 0.20412759 0.48063701 -0.85283053 0.008882002
-46.049274 1.4227209 397.91284 0.20752481 0.47252205 -0.8565374 0.0096509447
-45.182091 1.8814598 398.08542 0.20696512 0.47655377 -0.85443658 0.012694508
-44.132133 1.3747145 398.38348 0.20459907 0.47624928 -0.85517597 0.0088125449
-44.49073 2.7960198 398.24161 0.20873773 0.4740766 -0.85538298 0.015258533
-44.23587 2.7656217 398.31921 0.20749007 0.47478557 -0.85529321 0.014342391
7.8926396 -128.40352 398.47516 -0.24688737 0.054196034 -0.96752751 0.03327347
7.5462036 -127.8725 398.62775 -0.24209656 0.050309729 -0.96894699 0.030389836
7.7328978 -126.67906 398.67133 -0.24936613 0.047631525 -0.96723717 0.031527158
6.7820868 -124.86306 398.40701 -0.24008763 0.046800945 -0.96962243 0.030331425
61.104141 -125.32027 398.59824 0.29242447 -0.017214984 -0.95613366 0.01509111
61.757378 -125.35072 399.16983 0.26178196 -0.026831755 -0.96475399 0.021300096
62.806713 -125.41672 399.28262 0.22354579 -0.031907883 -0.97417104 0.02585138
63.661385 -125.89745 399.52487 0.2030724 -0.01943755 -0.97897083 0.028836736
6.7893682 -124.61428 398.42041 -0.2396867 0.046101663 -0.96975511 0.030699996
60.88047 -124.13789 398.88837 0.2805427 -0.02806229 -0.95943123 0.017636178
61.815407 -124.24919 399.17142 0.24027401 -0.030290099 -0.97023243 0.021228537
62.646912 -124.25833 399.42715 0.21315585 -0.031450771 -0.97651184 0.023859298
61.009293 -123.03745 399.12738 0.25923875 -0.033835951 -0.96522045 0.015368885
61.61898 -123.09367 399.46448 0.23265883 -0.027249234 -0.97217661 0.016853163
60.85358 -121.7718 399.0928 0.26464811 -0.046727736 -0.96321231 0.019163037
61.429298 -121.8191 399.33594 0.23990656 -0.038712896 -0.97002381 0.016234804
61.078129 -120.56992 399.1647 0.25971591 -0.055860944 -0.96406806 0.019831538
61.642754 -120.61355 399.3609 0.23832124 -0.045292839 -0.97012967 0.016413068
62.551476 -120.58192 399.58081 0.21228047 -0.036392912 -0.97653091 0.016869327
61.073277 -119.69537 399.00131 0.27120602 -0.062713489 -0.9604761 0.024691135
61.775066 -119.40802 399.28177 0.24651062 -0.053532328 -0.96766055 0.02111394
62.535725 -119.03714 399.44708 0.2195897 -0.039933804 -0.97477466 0.01397372
61.996937 -118.51357 399.1239 0.24914108 -0.056370914 -0.96682525 0.017698409
62.729095 -118.21275 399.54565 0.22124027 -0.041454025 -0.97433788 0.0093198493
134.10478 -85.728851 398.54175 0.59718174 0.19614896 -0.77775282 0.0092750015
134.68939 -85.740646 398.74936 0.59330976 0.19811168 -0.78021491 0.0077100387
133.0657 -84.222946 398.49915 0.61825198 0.17557003 -0.76611996 0.0075869905
133.87531 -84.544899 398.65933 0.61358643 0.18187411 -0.76839674 0.0093086492
134.72697 -84.527672 398.99582 0.60162842 0.18534973 -0.77697408 0.0069375769
132.95082 -83.352531 398.5654 0.62597901 0.17337205 -0.76032388 0.0089868614
133.77495 -83.418213 399.06244 0.61975014 0.17578055 -0.76486003 0.0080314949
134.65891 -83.602081 399.38968 0.61771053 0.18104587 -0.76528168 0.0091172289
131.94141 -82.227341 398.43112 0.63418794 0.17584899 -0.75291628 0.0087185344
132.75876 -82.213585 398.5983 0.62998784 0.17323327 -0.75703734 0.0086811995
133.63072 -82.276802 399.2225 0.62242019 0.17263879 -0.7634061 0.0067585711
132.58881 -80.972031 398.83932 0.65233761 0.17903344 -0.73647988 0.014625069
133.45255 -81.010841 399.43158 0.65516061 0.18047896 -0.73361564 0.013273854
131.73251 -79.735222 398.53265 0.63269556 0.17382863 -0.75463885 0.0090428432
132.58678 -79.838577 399.13443 0.65105855 0.179259 -0.73755616 0.014734071
133.59776 -79.842216 399.43405 0.66690069 0.1837348 -0.72213918 0.017957678
131.58597 -78.552917 398.66635 0.62398094 0.17142157 -0.76240563 0.0041122171
132.50696 -78.638771 399.23468 0.62806249 0.1725481 -0.75879163 0.0057594064
131.61073 -77.38031 398.79321 0.6317057 0.17303038 -0.75565094 0.0056115482
132.40813 -77.429955 399.32898 0.62485534 0.17143424 -0.76168633 0.0034254114
131.5215 -76.478828 398.79034 0.62296814 0.1692806 -0.76371121 0.0036228248
132.10898 -76.661766 399.30154 0.63074422 0.17276184 -0.75651515 0.0046949135
-41.159664 -54.135162 398.48621 0.021248363 0.76876658 -0.63917649 0.0064944103
-40.664062 -54.375595 398.62439 0.01292619 0.76177394 -0.64771396 0.0057974812
-43.662758 -53.002129 398.49146 0.067416184 0.79830891 -0.59846306 0.015665401
-42.544189 -53.223923 398.59988 0.044207714 0.79312766 -0.60744888 0.010752989
-41.339634 -53.319843 398.76288 0.027308853 0.78099 -0.62394613 0.0076406244
-43.407558 -52.644432 398.60852 0.05991488 0.79929906 -0.59793913 0.01591133
-42.680252 -52.650337 398.65961 0.048294596 0.79941195 -0.59883898 0.013195027
-41.601662 -52.674774 398.93546 0.033620186 0.78895581 -0.6135295 0.0092105996
94.01445 -33.785042 398.5752 -0.34929231 0.54055166 -0.7653749 0.031353611
93.353333 -32.865105 398.75101 -0.31488881 0.35965768 -0.87834585 0.037835635
93.893211 -33.12067 398.72299 -0.32364643 0.36273193 -0.873887 0.033812817
-8.6537743 -9.7836065 399.19913 0.015166943 0.70183957 -0.71217358 0.015766941
-7.8852892 -9.9181919 398.84363 0.0063892636 0.7050696 -0.70910931 0.01594425
-6.6638236 -9.8851223 398.78922 -0.0042843493 0.70602614 -0.70817286 0.017778296
-5.3388085 -9.8043108 398.79849 -0.018992553 0.70303416 -0.71090245 0.015811794
-4.3182697 -9.7698526 398.75369 -0.030038083 0.70534295 -0.70822954 0.015007171
-3.1589022 -9.9399958 398.7146 -0.045909185 0.70793074 -0.70478815 0.0096983584
-8.9060745 -9.2823696 399.31628 0.017408367 0.6953392 -0.71847087 0.015838502
-7.7563643 -9.4427919 399.37549 0.0043965103 0.69354802 -0.72039694 0.016140286
-6.4862714 -9.4333849 399.25702 -0.0058662384 0.69786602 -0.71620435 0.020112567
-5.4336095 -9.3635311 399.36459 -0.020460071 0.68830204 -0.72513562 0.013988612
-4.19242 -9.3408041 399.24115 -0.030523326 0.69598353 -0.71740878 0.016964834
-3.0269949 -9.2798519 399.05258 -0.044852789 0.70265496 -0.71011567 0.016372344
-2.0690882 -8.8403254 399.01181 -0.059258979 0.7039423 -0.70778072 0.016596245
-1.7725562 -7.8991275 399.32373 -0.061174702 0.6956073 -0.71581286 0.022439396
-38.803207 -2.4983714 398.48621 0.1948445 0.49669763 -0.84577012 0.006250923
-37.869762 -2.5052841 398.73972 0.19384016 0.50501382 -0.84106302 0.0096206134
-36.871517 -2.4767921 398.4126 0.19201346 0.50968415 -0.83866143 0.010739526
-35.437981 -2.5820148 398.53674 0.18056414 0.53850073 -0.82305139 0.019291302
-33.290985 -2.643914 398.83112 0.18713221 0.52119392 -0.8326695 0.0078512616
-43.540657 -1.5255811 398.47449 0.2031371 0.47642612 -0.85542595 0
-42.492008 -1.6071725 398.51807 0.1999442 0.48071939 -0.85377467 0.0013024622
-41.417557 -1.5974982 398.71222 0.19977488 0.48094791 -0.85368556 0.0016690614
-40.176628 -1.7395246 398.87659 0.19719428 0.48941895 -0.84946072 0.0052334717
-38.927452 -1.8409286 398.99713 0.19491643 0.49998885 -0.84381199 0.0094094891
-37.760128 -1.8867215 399.18741 0.19374396 0.50708491 -0.83983815 0.011172246
-36.616756 -1.918632 399.04147 0.18955299 0.51891905 -0.83354223 0.014675651
-35.367073 -1.9624141 399.08276 0.18403396 0.53422415 -0.82506734 0.018571954
-34.188221 -1.9795606 399.0842 0.18964155 0.51844013 -0.8338201 0.010451997
-33.078209 -2.0095255 399.04474 0.19096681 0.51173383 -0.83765161 0.0058083497
-31.868958 -1.8203833 399.36865 0.19100566 0.50514513 -0.84163254 0.0010501158
-30.678728 -1.6639439 399.34647 0.18113258 0.52084833 -0.83421105 0.005555524
-29.523886 -1.5289392 399.46228 0.17245112 0.53236467 -0.82876319 0.0086384872
-28.267084 -1.3300377 399.2869 0.16329654 0.54967785 -0.81926101 0.012169268
-44.543308 -0.020350417 398.46722 0.20372713 0.48089966 -0.85277832 0.0068249647
-43.713802 -0.51289421 398.6416 0.20399234 0.47415164 -0.85648549 0.0019834246
-42.657326 -0.68115658 398.83398 0.19897933 0.48422951 -0.85201472 0.0051370277
-41.507015 -0.57541174 399.10745 0.19889237 0.48559648 -0.85125673 0.0064655226
-40.49268 -0.77782345 399.35831 0.19831239 0.48861653 -0.8496623 0.0079042185
-39.14185 -1.0874861 399.37439 0.19382383 0.5056262 -0.84069884 0.012673867
-44.851406 0.7410596 398.44031 0.20383409 0.48208028 -0.85208589 0.010484281
-43.738636 0.56305212 398.8848 0.20435579 0.47316602 -0.85694385 0.0048609604
-42.625893 0.52666849 399.16812 0.19936517 0.48570856 -0.85108209 0.009075135
-41.626431 0.45460454 399.45312 0.19935425 0.48540026 -0.85126048 0.0091908285
-40.718716 0.10045163 399.55896 0.19905254 0.48894331 -0.84930128 0.0095028002
-44.622681 1.881196 398.4917 0.20493078 0.48108926 -0.85238284 0.014638623
-43.75095 1.8475592 398.84631 0.2046403 0.47554275 -0.85555917 0.0097519523
-42.641319 1.7617337 399.3273 0.2017833 0.48097706 -0.85319668 0.010978114
-41.852089 1.3368771 399.54156 0.19886665 0.4884232 -0.84964395 0.012498291
-43.523613 2.8685632 398.68793 0.20684007 0.47211662 -0.8569265 0.012021463
-42.564053 2.9243505 399.20114 0.20422561 0.47761512 -0.85450321 0.01411713
-41.690277 3.0430076 399.4317 0.20281798 0.48360577 -0.85146368 0.016134849
-42.178661 3.6290071 398.90494 0.20547549 0.4747082 -0.85582238 0.015393808
63.772854 -126.01302 400.18533 0.20208314 -0.026078589 -0.97902113 0.03074945
63.367985 -125.32788 400.07275 0.20588923 -0.024584873 -0.97826642 0.029414557
64.071991 -125.57842 400.44989 0.20112869 -0.026973102 -0.97919339 0.030609878
65.475021 -125.48398 400.62402 0.20294914 -0.027313471 -0.97880828 0.036776531
67.022522 -124.99521 400.58099 0.20279701 -0.030409947 -0.9787485 0.031451508
62.241066 -123.63002 399.67682 0.2169016 -0.029209321 -0.97575641 0.021388475
63.206875 -124.16588 400.09045 0.20048167 -0.025125189 -0.97937524 0.024616355
63.870373 -123.9034 400.51993 0.19659461 -0.019265896 -0.98029554 0.021675136
70.598343 -123.6832 400.71469 0.18963124 -0.031675182 -0.9813444 0.025729988
70.832855 -123.70047 400.793 0.17857407 -0.033423737 -0.98335862 0.023046991
62.07238 -122.985 399.85364 0.21717991 -0.026133249 -0.9757818 0.018952601
62.970348 -122.93945 399.99774 0.20034023 -0.022081133 -0.97947747 0.021031668
63.916286 -123.00077 400.44391 0.19731058 -0.024707144 -0.9800297 0.024634726
71.655724 -122.92127 400.60483 0.14105849 -0.033537548 -0.98943311 0.01221458
72.622475 -122.64363 400.38629 0.081547767 -0.045737512 -0.99561936 0.0058664731
61.961067 -121.83054 399.78268 0.22179444 -0.034276593 -0.97449076 0.018131414
63.028988 -121.76991 400.13535 0.20175439 -0.025702361 -0.97909886 0.020991959
63.978931 -121.88081 400.64697 0.19890401 -0.025163222 -0.97969592 0.025519269
72.643379 -122.01845 400.60138 0.081090003 -0.062650532 -0.99473584 0.011816734
62.059944 -120.49278 399.74841 0.22576563 -0.039790016 -0.9733687 0.019253425
63.030369 -120.63459 400.00821 0.20253678 -0.029322775 -0.97883558 0.017032553
64.015472 -120.52579 400.6582 0.196234 -0.028100528 -0.98015434 0.02122983
72.027168 -120.67493 400.74158 0.11201455 -0.08427649 -0.99012637 0.013429688
61.1912 -119.81499 399.64758 0.25788981 -0.053612143 -0.9646858 0.018072439
62.021454 -119.75546 399.71945 0.23177508 -0.04377256 -0.97178406 0.019882115
63.008831 -119.38026 399.89975 0.20654945 -0.034635849 -0.9778229 0.013847161
64.073929 -119.4593 400.46701 0.19370189 -0.029859498 -0.9806059 0.018918907
65.19857 -119.20567 400.71161 0.19383059 -0.021741241 -0.98079413 0.018013526
68.592789 -118.8554 400.74933 0.19553214 -0.031867038 -0.98017943 0.023939971
70.589584 -119.3849 400.72113 0.16455819 -0.066756725 -0.98410577 0.016106071
62.273041 -118.31793 399.69189 0.23361015 -0.045357831 -0.97127187 0.0086630303
63.153973 -118.3692 399.90256 0.2083831 -0.036283769 -0.97737408 0.01088279
64.221077 -118.2614 400.23572 0.19396709 -0.029609123 -0.98056108 0.013777555
65.375 -118.25426 400.48276 0.19338886 -0.020940203 -0.98089874 0.015474881
66.568512 -118.14366 400.55563 0.19482765 -0.019710664 -0.98063946 0.018927615
67.593887 -118.5913 400.76672 0.19527125 -0.022053473 -0.98050123 0.020853424
68.748444 -118.12639 400.53253 0.18810616 -0.040927999 -0.98129559 0.022186652
69.893021 -118.35912 400.70682 0.16870165 -0.06568183 -0.98347628 0.018603029
63.563702 -117.58645 399.75293 0.20615502 -0.034759939 -0.97790182 0.0061157467
63.939968 -117.59389 399.76477 0.19768164 -0.032684848 -0.97972125 0.0057971673
134.37917 -82.811951 399.65405 0.62510395 0.177021 -0.76020306 0.0090752896
134.67375 -83.063133 399.81268 0.6213097 0.17988616 -0.76263702 0.0091752084
134.11522 -82.088348 399.92065 0.62725139 0.17485493 -0.75893444 0.0073196678
134.68062 -82.139832 400.10834 0.62474573 0.17622893 -0.76068133 0.0075446567
134.01183 -81.005325 399.99826 0.65656269 0.18112142 -0.73220259 0.015025635
134.67111 -80.913521 400.45013 0.65693241 0.18152572 -0.73177058 0.01650684
132.84183 -79.376549 399.6138 0.64697295 0.1784775 -0.74133116 0.013024849
134.06345 -79.792351 400.02094 0.67600739 0.1858985 -0.71306086 0.019439869
134.63167 -79.719353 400.5386 0.67728269 0.18621105 -0.71176803 0.019271035
133.05479 -78.401337 399.73349 0.63421422 0.17423451 -0.75326937 0.0085156523
133.80658 -78.648315 400.11047 0.64744717 0.17800362 -0.74103093 0.01270533
134.50984 -78.598244 400.63809 0.66021824 0.18146989 -0.7288214 0.014559197
133.03114 -77.518898 399.83377 0.6288715 0.17195717 -0.75825542 0.0051848101
133.73805 -77.720222 400.11893 0.64120561 0.17572883 -0.74697715 0.0097989971
134.67175 -77.755791 400.41522 0.64877176 0.17753625 -0.73998386 0.01298048
-8.7597017 -11.206405 400.5112 0.017298339 0.71082371 -0.70315742 0.015107218
-8.9477711 -10.333074 400.13019 0.018335121 0.70131463 -0.71261597 0.014677712
-9.6770115 -8.6341753 400.33694 0.019031815 0.68293625 -0.73023003 0.017609291
-8.9385262 -8.8723278 400.21997 0.0095881941 0.67962664 -0.73349547 0.014992618
-7.776526 -8.8886547 400.09073 -0.0016027362 0.67599791 -0.73690176 0.014157986
-6.5613222 -8.8733215 400.22626 -0.010598811 0.67660028 -0.73627412 0.01699044
-5.4270763 -8.8372612 400.14011 -0.021822667 0.67738396 -0.73530596 0.016990108
-4.1559153 -8.7918348 400.13492 -0.032073669 0.68007731 -0.7324385 0.017085947
-3.0549779 -8.7187042 400.04999 -0.040728915 0.68966359 -0.72298366 0.021277128
-10.026062 -8.0306759 400.58096 0.012913807 0.67033058 -0.74195021 0.014977634
-8.9418707 -8.1976843 400.68384 0.0032933189 0.66771543 -0.74440926 0.016093796
-7.9648843 -8.3149738 400.75049 -0.0026123174 0.66756165 -0.74454993 0.016563861
-6.3665709 -8.2730665 400.62485 -0.01509603 0.66544926 -0.74629039 0.017852554
-5.505331 -8.1661177 400.62332 -0.02340617 0.66424936 -0.74714452 0.017531659
-4.1455126 -8.3137274 400.7211 -0.032027863 0.67249596 -0.73940748 0.019754542
-2.8941915 -8.0245686 400.52939 -0.042943031 0.67737365 -0.7343846 0.021844698
-2.2247248 -7.8566055 400.05215 -0.051983826 0.68381274 -0.72780335 0.022173705
-2.3548248 -6.6081443 400.50204 -0.054448102 0.66014814 -0.74915951 0.023265056
-38.438984 -1.3249607 399.7103 0.19677208 0.49955252 -0.84363979 0.0097312508
-37.79789 -1.3329654 399.72656 0.1933524 0.51112151 -0.83747816 0.013532942
-36.686703 -1.387187 399.74158 0.1914892 0.516756 -0.83444303 0.014790255
-35.236095 -1.4183381 399.84332 0.188293 0.52518529 -0.82989526 0.015989963
-34.261711 -1.4099468 399.80078 0.19457138 0.5073778 -0.83946991 0.0080906786
-33.057522 -1.4764651 399.92725 0.19431782 0.5040502 -0.84153068 0.0053286939
-31.732353 -1.4263723 399.92908 0.19107288 0.50430226 -0.84212255 0.0036320128
-30.48871 -1.4406855 399.95831 0.18062849 0.51687175 -0.83678967 0.0075300261
-29.486 -1.4616624 400.06256 0.17485642 0.52431875 -0.83337569 0.0094823427
-28.479761 -1.3267875 399.93106 0.16814364 0.53954446 -0.82499659 0.013594516
-39.968647 -0.49293873 399.84796 0.1958479 0.49881509 -0.84429091 0.011886429
-38.93372 -0.53718859 399.91592 0.19542995 0.50440377 -0.84106123 0.012904304
-37.779022 -0.61343962 400.08676 0.19535641 0.50799483 -0.83891428 0.013366555
-36.643612 -0.68128628 400.3414 0.19332068 0.51286566 -0.83641845 0.014517552
-35.455509 -0.70602322 400.33151 0.19061433 0.5206964 -0.83219075 0.016065015
-34.209805 -0.92712635 400.34427 0.19539252 0.5054692 -0.84042996 0.0092488388
-33.137653 -0.86894727 400.48199 0.19696699 0.49774283 -0.84466332 0.0061429958
-31.78882 -0.97632813 400.5079 0.19216014 0.49810994 -0.84555364 0.0050785984
-30.675621 -1.0552443 400.46155 0.18331832 0.50755847 -0.84188998 0.008175483
-29.424551 -0.98562336 400.58899 0.17808881 0.51408917 -0.83904505 0.011989
-28.096659 -0.92914903 400.44171 0.17357743 0.51463127 -0.83965796 0.0092258332
-27.117109 -0.75656587 400.39038 0.17065582 0.50886154 -0.84376335 0.0042839451
-42.250328 1.0907925 399.83289 0.20073766 0.48161435 -0.85308385 0.0095724966
-41.24844 0.86984861 399.68985 0.19846879 0.49121577 -0.84812564 0.012093269
-40.210762 0.58355027 399.99899 0.19645427 0.50018334 -0.84334004 0.014177044
-38.954437 0.54703552 400.46243 0.19917074 0.49835429 -0.84378552 0.012797815
-37.900875 0.36861017 400.50644 0.19794466 0.50340754 -0.84107006 0.013556984
-42.353951 2.2433004 399.67148 0.20041324 0.48759246 -0.84975767 0.016041819
-41.415939 1.8227704 399.83743 0.1983404 0.49340087 -0.8468864 0.015450465
-40.2094 1.7550007 400.27991 0.20052662 0.49205881 -0.84715241 0.01382621
-39.223858 1.7906448 400.66898 0.20479918 0.48650345 -0.84933597 0.011480323
-41.373272 3.0397882 399.80154 0.20300956 0.48433137 -0.85100538 0.016259862
-40.098217 2.9410803 400.34512 0.20677939 0.48006123 -0.85251606 0.012833268
-39.310093 3.0047574 400.7132 0.20816411 0.48038191 -0.85199815 0.013172379
-39.899315 4.1248155 400.29822 0.21119297 0.47257236 -0.85561252 0.015363378
-39.194817 3.9382203 400.63583 0.21217321 0.47112387 -0.85616869 0.013124758
-38.37262 4.0299897 400.67569 0.21166162 0.47195008 -0.85584021 0.013753597
64.301666 -125.19938 401.03885 0.20143738 -0.026404239 -0.97914541 0.030918015
65.285278 -125.29829 401.23499 0.20248263 -0.027099917 -0.9789108 0.034694999
66.528999 -125.04911 401.03564 0.20189154 -0.023322575 -0.97913015 0.032158401
64.251839 -124.28647 401.35275 0.19993803 -0.02526316 -0.97948277 0.027435839
65.366989 -124.2455 401.47931 0.20178242 -0.023997413 -0.97913635 0.033494499
66.658318 -124.237 401.32251 0.20336406 -0.026717041 -0.97873861 0.034476086
67.777611 -124.24014 401.44193 0.19995265 -0.03636805 -0.97913039 0.024858503
68.933502 -124.08278 401.18277 0.20034987 -0.04051001 -0.97888649 0.028524894
69.949135 -123.84496 401.1131 0.19647643 -0.03260953 -0.9799661 0.027106509
71.027397 -123.74848 401.04871 0.16817892 -0.038132422 -0.98501873 0.024442816
64.522316 -123.03173 401.22025 0.20041758 -0.0258497 -0.97936946 0.029633077
65.440979 -122.98253 401.45917 0.20158803 -0.025169298 -0.97914696 0.032920312
66.627068 -123.07336 401.62598 0.20342407 -0.038640939 -0.97832787 0.031757906
67.799835 -123.03296 401.69852 0.20014717 -0.040302891 -0.97893655 0.027510753
69.001846 -123.00391 401.28784 0.19912222 -0.035657957 -0.97932565 0.025258174
70.22963 -123.01016 401.34009 0.19067882 -0.032023877 -0.98113006 0.021581287
71.110168 -122.98946 401.03351 0.16339236 -0.034389082 -0.98596162 0.015619231
64.518379 -121.79805 401.11951 0.20050602 -0.02580375 -0.97935259 0.02977049
65.462669 -121.7677 401.4249 0.19804859 -0.022391943 -0.97993636 0.026354821
66.606941 -121.73794 401.76477 0.19725481 -0.029441519 -0.97991002 0.021750595
67.799667 -121.73809 401.9046 0.19649647 -0.029154791 -0.98007101 0.021418678
69.007004 -121.79839 401.48605 0.1937312 -0.025607875 -0.98072046 0.016564844
70.222473 -121.77913 401.33792 0.1871098 -0.032461494 -0.98180252 0.01692709
71.446266 -121.69651 401.02472 0.14806151 -0.051549971 -0.98763376 0.015837897
72.502357 -121.9624 400.82919 0.092604011 -0.06401509 -0.99364311 0.013390658
64.45784 -120.67458 400.95596 0.19951186 -0.030136444 -0.97943187 0.029269464
65.351883 -120.60897 401.14624 0.19592918 -0.022709286 -0.98035502 0.022334693
66.592514 -120.59113 401.40427 0.19365706 -0.021017551 -0.98084414 0.012669936
67.821327 -120.63383 401.54288 0.19484061 -0.027242249 -0.98045653 0.018142479
68.98101 -120.61173 401.53439 0.19070932 -0.024758169 -0.98133427 0.011918542
70.144676 -120.62148 401.29187 0.18027489 -0.037440944 -0.98290342 0.011898701
71.276161 -120.76402 401.17538 0.14838761 -0.063980706 -0.98685741 0.015110485
64.5896 -119.48215 401.02426 0.19614409 -0.031861871 -0.98005736 0.023258014
65.52079 -119.46235 400.99753 0.19253592 -0.01917897 -0.98110247 0.014540697
66.567543 -119.37335 401.09955 0.19474024 -0.020731436 -0.9806357 0.017823456
67.741203 -119.40517 401.05103 0.19532968 -0.024655316 -0.98042762 0.019728277
68.978722 -119.44195 401.15634 0.19046287 -0.029379381 -0.98125464 0.016547987
70.153915 -119.5692 401.06946 0.17348835 -0.050946411 -0.98351723 0.013392966
66.701065 -118.34593 400.8772 0.19456653 -0.021220047 -0.98065978 0.018463736
68.192764 -118.62651 400.91171 0.19369341 -0.02773899 -0.98066992 0.018893825
69.178932 -118.59031 400.91498 0.18525794 -0.04290257 -0.98175293 0.01822808
69.958267 -118.65201 400.91553 0.17017524 -0.062360007 -0.98343867 0.019748691
134.3205 -78.414955 400.95956 0.65470874 0.18002377 -0.73413074 0.01341189
134.72411 -78.678986 400.95169 0.66195434 0.18191096 -0.72713476 0.014793238
-8.1161766 -8.5233269 400.95062 0.0018057148 0.67178833 -0.74074095 0.018239042
-7.0848351 -8.6345043 400.87671 -0.0076120221 0.66927683 -0.74297416 0.018025246
-10.00141 -7.610198 401.15384 0.0091506587 0.66197723 -0.74946803 0.015936425
-8.9690361 -7.7136617 401.1954 -0.0010073656 0.65901333 -0.75213057 0.016620403
-7.8266964 -7.7881217 401.30386 -0.0080231912 0.65849018 -0.75254655 0.018254831
-6.6066642 -7.8136816 401.3653 -0.015903093 0.65825909 -0.7526235 0.019707127
-5.3314085 -7.7351851 401.44434 -0.027562728 0.65497935 -0.75514388 0.017906588
-4.2304034 -7.8574219 401.35779 -0.036446046 0.65892434 -0.75132573 0.017988078
-3.2344191 -7.5852599 401.08328 -0.043715019 0.66303033 -0.74731511 0.020147476
-11.05414 -6.4737229 401.81122 0.0080502182 0.64509624 -0.76405895 0.011310919
-10.255783 -6.7643957 401.6752 0.0047239373 0.64988846 -0.76001495 0.014573187
-9.0998564 -6.9109521 401.69348 -0.003359382 0.64937043 -0.76046479 0.015655883
-7.5057054 -7.0946088 401.85471 -0.014363293 0.64813769 -0.76138771 0.016468877
-6.7608156 -7.0491242 401.8736 -0.017265072 0.64960462 -0.76007617 0.018624876
-3.9145963 -7.1274986 401.92142 -0.041372038 0.65014744 -0.75868088 0.018197624
-3.0488343 -6.7672062 401.58777 -0.050359868 0.64861721 -0.75944692 0.017046941
-2.3943956 -6.2689519 401.05597 -0.058114484 0.64575279 -0.7613318 0.016430937
-2.8279109 -5.5828161 401.61597 -0.05604526 0.63945228 -0.76678532 0.017495735
-2.3825178 -5.8654613 401.0668 -0.058714554 0.6435405 -0.76315671 0.015678
-36.751862 -0.24151881 400.91089 0.19519046 0.50740093 -0.8393122 0.013458502
-35.078148 -0.27609032 400.94232 0.19589083 0.50630033 -0.83981353 0.012595145
-34.22126 -0.3130466 401.11557 0.1987951 0.49385035 -0.8465178 0.0076276683
-32.992344 -0.3055428 401.0874 0.19713597 0.49602613 -0.84563315 0.0085582789
-31.798113 -0.40616792 401.24191 0.19169578 0.49332383 -0.84845996 0.0075055296
-30.520527 -0.51043439 401.29413 0.18313505 0.50306267 -0.84462392 0.01125045
-29.393349 -0.41837743 401.36627 0.18070543 0.50382459 -0.84469306 0.011221092
-28.248423 -0.38106933 401.35211 0.17719837 0.50141287 -0.84686834 0.0089798765
-26.925688 -0.34893665 401.36649 0.17224434 0.5046429 -0.84597129 0.0094034681
-25.916046 -0.32628566 401.44394 0.16568579 0.52308577 -0.83601999 0.01864177
-38.691517 0.97829664 400.81769 0.20260558 0.49308196 -0.84606218 0.012327939
-37.718765 0.91789627 400.96936 0.19808337 0.50331014 -0.84109563 0.014780173
-36.638416 0.613065 401.13004 0.19536334 0.50803995 -0.83888531 0.015889389
-35.35693 0.55840915 401.341 0.1969565 0.50197697 -0.84215629 0.013582692
-34.093918 0.62250137 401.6604 0.19981585 0.49229553 -0.84718275 0.01075619
-33.07394 0.34141067 401.58383 0.19871603 0.4891504 -0.84926081 0.0089378627
-32.02784 0.11434005 401.75543 0.19296601 0.4907757 -0.84964895 0.0089497101
-30.520178 0.25620118 401.87949 0.18396586 0.49943668 -0.8465929 0.011385346
-29.011087 0.0011044058 401.89075 0.18068802 0.49702254 -0.84871697 0.0086819287
-28.61396 0.080275267 401.67993 0.18004186 0.4953877 -0.84980935 0.0073610218
-27.214983 0.0014464513 401.87857 0.17591043 0.48978671 -0.85391128 0.0030190453
-25.662868 0.073129222 401.68048 0.16590229 0.52623862 -0.83399606 0.022809021
-23.62077 0.23719886 401.95227 0.19219142 0.54059154 -0.81903809 0.027456466
-38.614864 1.8267463 400.91272 0.20392299 0.49198532 -0.84638405 0.013664008
-37.764896 1.8367274 401.25641 0.19966048 0.49992445 -0.8427403 0.016781293
-36.672634 1.8031178 401.55423 0.20081118 0.49341232 -0.84629726 0.014026158
-35.486629 1.6057123 401.75204 0.19984972 0.49389985 -0.84624046 0.013757929
-33.983414 1.3586631 401.92801 0.20117158 0.48956603 -0.84844279 0.012298679
-38.70237 2.9609349 401.05707 0.20648336 0.48597208 -0.84923244 0.015615876
-37.805225 2.991328 401.40222 0.20637546 0.48501277 -0.84980696 0.015460592
-36.625996 2.9753981 401.79337 0.20639654 0.48113257 -0.85200459 0.013602988
-35.877163 2.7355211 401.89755 0.20455544 0.48267493 -0.85157615 0.013107873
-38.727589 3.7655048 400.892 0.21184069 0.47258675 -0.85544449 0.013538028
-37.84779 4.199038 401.20129 0.21516927 0.46611944 -0.85815787 0.013645291
-36.649147 4.2331295 401.72729 0.21409938 0.4662866 -0.8583346 0.014044402
-35.844669 4.3720536 401.89172 0.21010995 0.4749853 -0.85454243 0.016588407
-37.730637 4.9360766 401.15115 0.22166762 0.45075288 -0.86468804 0.012233064
-36.388359 5.048295 401.69791 0.21684442 0.46356559 -0.859119 0.017943542
-35.815071 5.1870308 401.54834 0.21513635 0.46723345 -0.85756004 0.018022073
66.968063 -122.61156 402.08228 0.19923148 -0.038010325 -0.97921503 0.024298642
67.810425 -122.41382 402.31766 0.19760604 -0.036362126 -0.97960693 0.022053452
67.118011 -122.1127 402.10025 0.20036073 -0.034170683 -0.9791261 0.027425801
67.765602 -121.9863 402.04648 0.19757323 -0.03234195 -0.97975451 0.023136958
-8.432375 -7.2020402 402.15237 -0.014956431 0.64226413 -0.76633751 0.010714212
-8.1793098 -7.2170887 402.19159 -0.01632035 0.64248788 -0.76612198 0.011662486
-6.6375518 -7.4552436 402.09268 -0.014845328 0.65464789 -0.75578821 0.020275153
-5.4064484 -7.2972832 402.26904 -0.025224978 0.65133822 -0.75836807 0.018191993
-4.5078549 -7.3407521 402.25888 -0.030710075 0.65565896 -0.75443232 0.021897167
-11.28523 -6.3426642 402.19159 0.012839416 0.64127207 -0.76720607 0.011546986
-10.06715 -6.2437925 402.25818 -0.0034869635 0.63906342 -0.76914608 0.011915691
-8.9066601 -6.3951926 402.41583 -0.0092941802 0.63992494 -0.76838118 0.014130346
-7.7975354 -6.5243144 402.40909 -0.016325533 0.64070469 -0.76761383 0.015781267
-6.6541591 -6.560698 402.47772 -0.022347627 0.64184475 -0.76650882 0.017320637
-5.3580155 -6.6087222 402.69675 -0.025700888 0.64714581 -0.76193303 0.021115048
-4.1906848 -6.5785074 402.56128 -0.036092136 0.6474297 -0.76127017 0.020303367
-3.4343777 -6.2469549 402.32407 -0.045023765 0.64557594 -0.76236773 0.019579627
-12.038379 -5.1081204 403.10367 0.036955908 0.61584896 -0.78699696 0.014943569
-11.335234 -5.3518147 402.66174 0.022048002 0.62643284 -0.77916354 0.015545135
-10.278745 -5.4829135 402.73462 0.0045002615 0.63173962 -0.77516764 0.015358471
-8.9340744 -5.5181961 402.97357 -0.011161035 0.63293779 -0.77412218 0.015660303
-7.9141774 -5.4981713 402.95105 -0.020013673 0.63120931 -0.77535427 0.015263882
-6.9743357 -5.7960014 403.02917 -0.027139161 0.63193846 -0.77454323 0.017298212
-5.2594643 -5.9126277 403.04153 -0.026624048 0.64429641 -0.76431233 0.025553472
-3.9646235 -5.5140009 403.0553 -0.040699955 0.63967425 -0.76756787 0.025287701
-3.4019556 -5.4548249 402.52808 -0.049965139 0.63704014 -0.76920962 0.022187799
-12.150309 -4.5624919 403.09399 0.047541097 0.60882384 -0.79187965 0.014414919
-11.766495 -4.685648 403.05865 0.028405856 0.60882515 -0.79279572 0.013689745
-3.799633 -4.1807318 403.11435 -0.043861147 0.63051844 -0.77493399 0.024926929
-3.3800044 -4.7748494 402.52301 -0.054776929 0.6297608 -0.77485538 0.02307912
-30.812096 -0.037343014 402.00348 0.18419304 0.5002259 -0.84607744 0.011593572
-29.53075 -0.042606819 402.00903 0.1834372 0.49607843 -0.8486796 0.0089132758
-27.998466 -0.08486063 402.1105 0.17618856 0.50124651 -0.84717739 0.010438785
-26.968117 -0.058640301 402.03516 0.17327276 0.50162452 -0.84755498 0.0098077767
-26.200151 -0.069405153 402.05872 0.16891785 0.51830107 -0.83835012 0.018944746
-34.634624 1.0495708 402.02945 0.2007111 0.49179158 -0.84726393 0.012380559
-32.900196 0.90992218 402.25436 0.19810314 0.48475945 -0.85191751 0.0085863508
-31.817528 0.66519338 402.36536 0.19219594 0.48628446 -0.85240138 0.0077243429
-30.547235 0.79407883 402.48486 0.18656789 0.48965603 -0.85172135 0.0079581719
-29.430737 0.60805672 402.6348 0.18247531 0.49768358 -0.84794682 0.011002677
-28.267088 0.61093134 402.65482 0.17860501 0.49362826 -0.85113537 0.0081054857
-26.984587 0.54943168 402.60797 0.17471363 0.49998838 -0.84822559 0.011240494
-25.807087 0.51620615 402.62393 0.16876727 0.52002507 -0.83731204 0.021847524
-24.657808 0.46440512 402.49536 0.17607342 0.52292067 -0.83399767 0.02410733
-23.379114 0.59567958 402.58746 0.20975834 0.52470165 -0.82503915 0.022086611
-22.226526 0.79307574 402.7789 0.23595257 0.53717792 -0.80979395 0.014275516
-21.299456 0.84565431 402.7211 0.24512438 0.55284035 -0.79641807 0.007467655
-35.232113 2.1502991 402.14166 0.20170003 0.48898497 -0.84865236 0.013827631
-34.105633 1.8488601 402.27621 0.20206562 0.48671624 -0.84986871 0.012087774
-32.996193 1.830042 402.55951 0.20009901 0.48039922 -0.85391861 0.0084823975
-31.916088 1.7056439 402.85489 0.19537975 0.47481963 -0.85812193 0.0041912701
-30.674957 1.4227122 403.0184 0.18864129 0.4818072 -0.85573149 0.0055749239
-29.638987 1.4306525 403.1333 0.18411349 0.49227625 -0.85074455 0.0099038128
-28.528261 1.4349208 403.11572 0.17992833 0.48962191 -0.85316837 0.0080838557
-36.129921 3.4500873 402.16422 0.20996527 0.47031665 -0.85715628 0.011742759
-35.295872 3.0322034 402.3512 0.20453341 0.48335481 -0.85119569 0.014130845
-34.13324 2.9822853 402.71823 0.20418993 0.48184752 -0.85213226 0.012571252
-33.017551 2.8971665 402.91772 0.20094883 0.47996745 -0.85396188 0.010367849
-32.258236 2.6229579 403.11044 0.19706544 0.4773775 -0.85631526 0.0076406598
-36.123657 3.7299893 402.1445 0.21013261 0.471636 -0.85639 0.013433051
-35.316422 4.1765122 402.32663 0.20952477 0.47453183 -0.85493791 0.014270385
-34.177635 4.1540494 402.92578 0.20755601 0.47265163 -0.85645837 0.011493751
-33.336113 4.0730772 403.07101 0.2053123 0.47327775 -0.85665339 0.010663299
-34.98394 5.2737308 402.46024 0.21624787 0.45932031 -0.86154616 0.012100152
-34.216076 5.4150047 402.78812 0.21335177 0.45893595 -0.86247247 0.010244908
-33.419132 5.3522835 403.06216 0.21014208 0.46227947 -0.86147428 0.009554171
-34.800468 6.1167507 402.30756 0.22313341 0.44697806 -0.86626911 0.013052814
-34.044373 6.008842 402.57996 0.21458593 0.45693913 -0.86322629 0.011758189
-6.2572861 -6.2256579 403.3439 -0.024426397 0.63959283 -0.76832575 0.019845538
-5.8525004 -6.2115669 403.36429 -0.023390258 0.64319873 -0.76534188 0.02213265
-4.6455917 -6.2570558 403.23648 -0.02819353 0.64822745 -0.76092464 0.026180929
-10.107361 -4.994452 403.36847 0.01126922 0.62068373 -0.78398007 0.015112136
-9.045146 -4.9874892 403.28128 -0.0049644597 0.62827986 -0.77797151 0.01485703
-7.4793906 -5.1604075 403.51993 -0.022662273 0.62756974 -0.77823049 0.013233107
-6.5696945 -5.3510647 403.80008 -0.031612195 0.62577313 -0.77936429 0.013527664
-5.4157739 -5.4034109 403.77371 -0.034899313 0.63029706 -0.7755692 0.018772187
-4.4476323 -5.3824654 403.58829 -0.037792433 0.6353451 -0.771303 0.023639875
-12.35091 -4.0170188 403.68893 0.076677509 0.60384482 -0.79340535 0.015283599
-11.337714 -4.1531491 403.73965 0.028251002 0.60368586 -0.79672158 0.014251876
-10.244042 -4.219718 403.89932 0.01142374 0.60695666 -0.79465288 0.013777127
-9.0208397 -4.232595 403.94211 0.00769431 0.61602205 -0.7876913 0.015627187
-7.7458849 -4.3517284 403.88181 -0.012107035 0.62129706 -0.78348154 0.013942766
-6.9986806 -4.6347799 404.34525 -0.019525925 0.62389225 -0.78126651 0.014837883
-5.5454483 -4.4160209 404.21106 -0.037595768 0.61963195 -0.78399163 0.013212392
-4.374404 -4.169385 403.81131 -0.04232407 0.62382627 -0.78041619 0.019224545
-13.416627 -2.8598602 404.09973 0.16741131 0.60777861 -0.77625936 0.020445509
-12.592849 -3.2247663 404.16141 0.11848488 0.60411173 -0.78804207 0.018487999
-11.616462 -3.470469 404.22495 0.055972181 0.59948868 -0.79842377 0.015785508
-9.7707815 -3.2535925 404.28644 0.011425324 0.60095519 -0.79920107 0.014862508
-9.5240145 -3.4118736 404.34598 0.010997209 0.60250694 -0.79803795 0.014576965
-4.3858085 -3.0144184 403.76767 -0.041236069 0.61665082 -0.786156 0.018798303
-4.9439735 -1.7062486 404.35257 -0.019152232 0.61185992 -0.79073423 0.023882084
-4.4438953 -2.2725668 403.815 -0.039395113 0.61111838 -0.79055828 0.017272599
-5.0927839 -0.98331153 404.35443 -0.0097481683 0.60862809 -0.79339582 0.026637185
-29.052166 1.1273737 403.21249 0.18175524 0.49143642 -0.85173666 0.0089211129
-28.288225 1.0987959 403.28268 0.178864 0.49159044 -0.85225964 0.0087573919
-27.008091 1.0482004 403.26556 0.1750406 0.49795988 -0.84935081 0.011680335
-25.712677 1.0506219 403.46457 0.17151648 0.50749999 -0.84440857 0.017883211
-24.584541 0.91550106 403.38568 0.18748011 0.51649982 -0.83551133 0.022625936
-23.603006 1.0274909 403.44247 0.21386705 0.5172345 -0.82869142 0.021175537
-22.012819 1.0797682 403.29755 0.24276653 0.52348202 -0.81671965 0.010634258
-21.060558 1.0886097 403.44684 0.24923645 0.546179 -0.79973102 0.0060056727
-5.5637698 0.1375875 404.26474 -7.1292576e-05 0.5956012 -0.80328035 0.025687907
-31.526056 2.1451128 403.40619 0.1937608 0.47128719 -0.8604331 0.0028936083
-30.567593 1.9701906 403.46301 0.18920773 0.47575843 -0.85898447 0.0035755411
-29.253454 1.8631977 403.6741 0.18294992 0.48391676 -0.85577679 0.0067680641
-28.168829 1.8681864 403.66965 0.17908217 0.48274738 -0.85725409 0.0055331727
-27.039719 1.8040839 403.85345 0.17604199 0.49114767 -0.85310215 0.010145915
-25.799959 1.722105 404.0246 0.17304046 0.50154179 -0.8476513 0.017419938
-24.632572 1.5007623 403.8327 0.18990044 0.51350033 -0.8368125 0.02199401
-23.435535 1.6671318 403.9624 0.22183 0.51873779 -0.82565278 0.020846246
-22.196083 1.4826276 403.90079 0.24380347 0.51363897 -0.82263893 0.011490818
-21.0264 1.48842 403.90137 0.25189218 0.54298246 -0.80107456 0.0072050407
-19.88574 1.5778615 404.00418 0.2558057 0.57937741 -0.77387673 0.005622617
-19.097509 1.7298856 404.06708 0.25889036 0.59541851 -0.76056075 0.004521586
-6.29214 1.7374969 404.34738 -0.0010454492 0.56642461 -0.82411289 0.0183169
-32.59486 3.2723255 403.30826 0.19895305 0.47837487 -0.85532165 0.010066313
-31.815323 3.0427628 403.51117 0.19468702 0.47904551 -0.85592777 0.0088634938
-30.555643 3.041203 403.81384 0.18956907 0.47639185 -0.85855359 0.0059761191
-29.400217 2.9713464 404.16986 0.18449521 0.47582069 -0.8599745 0.0050300318
-28.209593 2.737905 404.284 0.17980725 0.47469699 -0.86158699 0.0030983125
-27.282398 2.6694365 404.31271 0.17701817 0.48886001 -0.85421336 0.011768623
-23.553587 2.9992156 404.14355 0.21622182 0.51437128 -0.8298617 0.021240592
-22.416319 2.8537915 404.33865 0.24121334 0.50234222 -0.83034241 0.0124933
-7.0091467 3.3868866 404.30551 0.013012902 0.5763402 -0.81710631 0.036047466
-32.871777 4.2757459 403.48093 0.20372008 0.4718554 -0.85781729 0.010389834
-31.827211 4.1900215 403.74286 0.19680825 0.47726086 -0.85643947 0.01096565
-30.76358 4.1057181 404.11603 0.19192986 0.47653031 -0.85795212 0.0088414792
-29.646101 3.8538716 404.36411 0.18628415 0.4696146 -0.86299497 0.0033537589
-24.613506 4.2138224 403.92624 0.18177672 0.5160327 -0.83705872 0.028342152
-7.2476931 3.7008786 404.19858 0.0096684322 0.57282078 -0.81962365 0.036172532
-6.9889355 3.8272028 404.22314 0.011438183 0.57673174 -0.81685358 0.039488021
-32.812218 5.3997097 403.43625 0.20693137 0.46837413 -0.8589558 0.012161669
-31.775354 5.4013853 403.93405 0.20065485 0.47533518 -0.85661781 0.014362649
-30.784742 5.3108177 404.25168 0.19507305 0.47276139 -0.85932714 0.011384298
-32.541573 6.1969285 403.4855 0.20849793 0.46873483 -0.85838008 0.016024524
-31.734241 6.2429838 403.78128 0.2044163 0.46971208 -0.85882741 0.015232956
-30.626211 6.4530449 404.2822 0.19714788 0.46290082 -0.86420804 0.01021643
-30.368851 7.5417047 404.21353 0.20328851 0.43497831 -0.87719309 0.0059634596
-29.738838 7.4690647 404.39511 0.19693682 0.43566144 -0.8783024 0.0027789329
-66.159492 -126.97787 404.9324 0.25321633 0.1962733 -0.94729 0.012272263
-65.505753 -126.59589 405.16229 0.22683452 0.17358349 -0.95833963 0.01869631
-64.831207 -125.56252 405.48618 0.1775057 0.12003715 -0.97677159 0.017289855
-64.588661 -125.56721 405.49414 0.17006595 0.11902922 -0.9782176 0.018034086
-67.24527 -124.555 405.55441 0.23631741 0.089962907 -0.96750236 0.026837869
-60.050026 -112.35366 405.35712 0.018394876 -0.28728184 -0.9576695 0.042859897
-59.804039 -112.29866 405.05682 0.0090893125 -0.30024272 -0.95381951 0.040994398
-6.5029349 -4.8196163 404.4751 -0.02915127 0.62142986 -0.78292722 0.012729758
-13.68883 -3.7066128 405.15256 0.16564372 0.60878295 -0.77585143 0.021419944
-11.073305 -3.6999221 404.40042 0.028592648 0.59919494 -0.8000924 0.014976492
-8.5281429 -3.7684989 404.56934 0.015347556 0.61437023 -0.78886867 0.019031523
-7.7950234 -3.8055255 404.72403 0.0035102116 0.61342281 -0.78974682 0.017449778
-6.6276846 -4.1549482 404.75403 -0.018882209 0.61750638 -0.78633922 0.015537118
-5.3241868 -3.9423788 404.62265 -0.035444077 0.61682338 -0.78630322 0.015347552
-13.559982 -2.8156073 404.73541 0.17526458 0.61073291 -0.77219665 0.023794254
-12.535388 -2.6455257 404.66345 0.13189535 0.60598308 -0.78446674 0.021857908
-11.288589 -2.9323843 404.9505 0.052981429 0.59321135 -0.80330145 0.015838236
-10.235933 -2.9261758 404.9873 0.013644351 0.59064752 -0.80681431 0.013996377
-9.0246038 -3.0253081 404.89832 0.012746556 0.60126394 -0.79894882 0.017292429
-7.9749465 -3.2921658 405.27811 0.01356055 0.60850024 -0.79343778 0.020153046
-6.5970993 -2.989207 405.18549 0.00067372731 0.611615 -0.79115516 0.021263812
-5.5049515 -3.0290496 404.77875 -0.021810347 0.61424589 -0.78881317 0.019712178
-13.747732 -1.8280281 405.23398 0.18805391 0.60617834 -0.77277648 0.023026094
-12.665527 -2.029537 405.17197 0.14849906 0.6055733 -0.78181142 0.023726497
-11.462281 -2.1439328 405.37143 0.078116924 0.59229743 -0.80192357 0.017809384
-10.094581 -2.2273841 405.51364 0.014250921 0.58194286 -0.81310481 0.011918427
-9.4430494 -2.2976766 405.33875 0.0085622752 0.58795804 -0.80884612 0.014846394
-6.6168146 -1.7833219 405.39713 0.012346745 0.60409355 -0.79681778 0.023122786
-5.4532881 -1.8092388 404.81711 -0.0058486676 0.61132383 -0.79135889 0.024796208
-14.784547 -0.7359463 405.52899 0.21809243 0.6107676 -0.76118237 0.023861263
-14.033316 -1.1642635 405.58368 0.19917116 0.60406655 -0.771644 0.022864258
-6.5425763 -0.59662998 405.38016 0.011549911 0.59194374 -0.80589652 0.022252366
-5.6663308 -0.66375017 404.87173 0.0025268714 0.60022306 -0.79982865 0.025169533
-7.2113395 0.18627851 405.56345 0.0035687161 0.57430393 -0.81863439 0.016043497
-6.5050306 0.60321635 405.0387 0.0060449596 0.57937026 -0.81504202 0.020247566
-26.528671 2.2920892 404.40723 0.1741578 0.49894044 -0.8489567 0.01734597
-25.516581 2.1302762 404.5401 0.17588952 0.50991565 -0.84205049 0.023363896
-24.602116 2.0538526 404.81396 0.1969579 0.51512301 -0.83417982 0.023346806
-23.38784 2.1631324 404.6084 0.22589281 0.51903009 -0.82436651 0.020647014
-22.14468 2.044811 404.80634 0.24823351 0.50668508 -0.82562125 0.010231151
-21.010988 1.9024389 404.88742 0.25492543 0.53182864 -0.80757123 0.0065168627
-19.776897 1.9300261 404.74969 0.25864756 0.58265978 -0.77046031 0.0064419284
-19.139946 1.8665824 404.77063 0.26034322 0.59156257 -0.76306963 0.0042139823
-7.3978839 2.016614 405.39026 0.010274567 0.5710094 -0.82087922 0.024682978
-6.8239856 1.6196842 404.95816 0.0076204478 0.57321888 -0.81936681 0.02262551
-28.877373 3.2762711 404.5072 0.18201843 0.47016224 -0.86360681 0.0027506866
-28.096691 3.3072336 404.59854 0.17923526 0.47413164 -0.86201739 0.0051921019
-26.989534 3.0809712 404.70978 0.17580688 0.48883814 -0.85447592 0.013562473
-25.792786 2.974906 404.92572 0.17587703 0.5098269 -0.84210676 0.025401397
-24.621117 2.8178561 405.20285 0.19564304 0.51430297 -0.83499479 0.024192264
-23.464375 2.5525963 404.62115 0.22291102 0.51360875 -0.82856303 0.019562492
-22.702333 2.5701668 404.72272 0.24027371 0.50850385 -0.82685691 0.014847206
