ply
format ascii 1.0
comment Created by CloudCompare v2.11 beta (Anoia)
comment Created 2020/4/24 下午7:52
obj_info Generated by CloudCompare!
element vertex 1810
property float x
property float y
property float z
end_header
-153.261 -31.6238 24.1308 
-177.916 -34.3979 33.2372 
-158.995 11.7832 42.2338 
-150.459 -15.7941 35.8033 
-164.263 -53.5746 28.9088 
-171.794 14.4023 44.7058 
-176.171 16.0208 42.3312 
-148.319 12.3713 40.9897 
-187.372 -26.5738 34.687 
-111.585 -3.77317 31.3499 
-144.349 -38.407 28.3215 
-162.473 -5.7144 39.3208 
-120.137 12.6827 37.0768 
-145.19 13.2962 40.8471 
-164.375 21.9623 39.5185 
-185.675 -59.5193 24.7433 
-166.768 -51.3729 29.891 
-198.331 -0.616383 22.2753 
-159.148 -5.75588 38.8671 
-130.64 18.7999 39.2923 
-122.897 -5.32616 32.3938 
-120.385 -11.7174 30.1749 
-107.875 -2.05136 31.3651 
-137.478 21.8419 37.8785 
-190.433 -23.8394 35.9001 
-169.02 -40.6796 29.8761 
-158.77 10.3454 41.7798 
-187.592 -51.3341 27.4124 
-157.687 23.1706 39.8683 
-148.481 12.8059 41.1395 
-154.249 23.1324 40.8201 
-141.948 -28.1066 31.0413 
-172.881 -19.0933 36.7563 
-170.245 -5.71734 43.8203 
-126.375 -16.2184 31.4293 
-158.639 -28.8153 33.0484 
-150.533 -31.7269 24.4083 
-188.016 -33.1004 32.8473 
-188.801 -6.55511 40.782 
-187.042 -19.2334 36.8084 
-168.63 -67.3423 20.1724 
-146.121 8.7303 39.6238 
-103.689 -14.3263 27.1883 
-152.55 -42.2565 27.2134 
-131.988 4.15569 36.3978 
-117.401 -9.71089 29.9368 
-174.562 -4.74054 39.4266 
-132.048 21.2064 31.7612 
-129.44 -21.9517 30.145 
-190.979 -46.3261 25.9856 
-137.692 -8.69007 35.1526 
-156.724 -2.65969 39.4586 
-164.671 -72.3082 17.8771 
-158.968 -33.4465 31.7259 
-165.328 20.9589 41.6865 
-104.604 -12.9078 27.7284 
-177.716 1.76491 41.7643 
-105.551 -18.6515 26.1597 
-118.223 -10.7354 30.1774 
-193.671 -13.9857 39.2367 
-177.105 -48.6216 26.82 
-174.398 -52.367 25.3558 
-175.907 -1.21015 40.6465 
-133.826 23.8748 24.086 
-191.886 3.10689 37.8523 
-199.684 -3.26016 21.6552 
-161.565 -30.2795 33.0051 
-160.738 9.22539 41.7107 
-140.833 -8.78151 35.5322 
-165.567 -51.4404 29.5622 
-199.718 -3.79564 22.2042 
-154.52 -33.8507 31.0161 
-144.28 -23.219 32.5715 
-116.555 5.63457 34.7849 
-171.21 13.8683 44.4708 
-168.542 8.99173 42.678 
-171.835 -2.2657 39.7946 
-131.999 15.8216 39.8406 
-179.306 -49.3124 26.9085 
-102.055 -19.9333 24.1209 
-157.466 23.2792 39.5651 
-169.657 -16.3921 37.125 
-166.585 13.0336 43.6104 
-156.906 5.86343 40.2102 
-131.331 -10.3816 33.809 
-140.854 21.4256 42.6695 
-154.726 -19.8199 35.1824 
-119.087 11.8157 36.8744 
-179.153 -23.4412 39.7749 
-153.172 -35.5315 30.3413 
-172.419 -62.7964 22.0164 
-110.649 -3.48797 31.3097 
-138.217 -4.2522 36.5315 
-190.494 -26.6732 35.0723 
-188.861 -25.4225 35.2244 
-127.136 17.7202 35.902 
-187.982 -24.2286 35.4599 
-189.157 -45.5211 25.8347 
-177.111 -51.5006 25.9716 
-109.743 -20.1424 26.2766 
-127.795 -27.4745 28.2974 
-146.556 -2.16716 38.2538 
-121.562 -21.5702 32.6798 
-169.831 10.2952 43.2337 
-173.342 -59.9495 22.9788 
-195.04 -1.78036 36.9995 
-167.224 -16.7484 36.6863 
-114.288 -21.4794 26.4857 
-165.123 -49.1945 26.8908 
-149.984 -9.147 36.6394 
-143.121 6.1552 38.4659 
-177.735 10.3946 44.3125 
-196.26 -18.8475 38.1463 
-160.476 -59.8812 21.2906 
-151.14 -43.2486 26.7335 
-175.609 -54.7863 24.8028 
-105.166 -23.3413 24.7253 
-159.113 23.4205 38.3251 
-139.411 -12.6619 34.1987 
-180.127 -34.4475 36.6575 
-158.841 -59.5215 21.1796 
-184.102 0.071535 42.1127 
-152.162 11.6313 41.2817 
-164.275 -17.2033 36.1605 
-119.099 -11.8679 29.9598 
-177.195 -2.07947 40.5612 
-118.516 -14.3426 29.1523 
-190.241 2.30431 43.5866 
-151.268 -38.9704 29.0741 
-137.331 -10.458 34.5727 
-161.883 -41.8309 28.5783 
-179.899 -56.3814 24.9019 
-172.798 15.2235 45.0814 
-144.062 -17.2598 34.5215 
-115.526 -18.653 27.4838 
-169.395 8.75786 42.7223 
-134.746 -30.635 28.2776 
-178.967 -4.69827 40.0239 
-126.109 -23.4923 29.2483 
-127.419 -14.9472 31.9428 
-121.635 -19.7585 33.224 
-176.333 -44.4568 33.1076 
-153.251 0.689859 42.6357 
-180.193 -25.3764 39.3421 
-171.537 -12.4126 38.5485 
-139.366 -35.3789 28.5532 
-126.698 -16.3359 31.4374 
-138.951 14.9693 40.5122 
-157.566 -10.8567 37.1419 
-193.385 -7.62909 41.0739 
-110.929 -2.47091 31.6468 
-169.712 -21.5086 35.6126 
-179.311 -25.4876 39.1341 
-159.258 15.5453 43.3785 
-181.906 -55.3362 25.4768 
-184.339 -38.2827 30.8304 
-174.954 -61.331 22.7854 
-161.895 -43.1594 28.1879 
-188.922 0.703051 42.9391 
-125.929 0.628733 34.5529 
-111.19 -0.728905 32.1954 
-130.297 19.8942 33.9265 
-168.934 -4.14998 44.1086 
-152.43 21.2931 44.1674 
-180.685 12.1464 44.4499 
-140.548 -4.97675 36.6272 
-168.785 -64.9545 16.188 
-151.09 -4.73755 38.0976 
-173.989 -67.3922 20.8693 
-185.29 -46.9608 28.3967 
-124.356 -6.80714 32.1507 
-194.176 -51.3464 28.2701 
-151.239 1.22492 43.3446 
-143.085 -18.0986 34.1444 
-176.071 -26.6318 34.9561 
-185.6 -18.8499 36.7302 
-164.757 14.0841 43.6777 
-129.858 18.992 36.9148 
-164.074 -6.96709 39.1639 
-188.701 -26.0217 35.0264 
-155.953 -15.5599 36.6019 
-169.976 2.1407 40.8475 
-173.515 11.9276 44.2044 
-160.247 8.58819 41.4577 
-199.348 -25.086 36.7161 
-193.843 -47.5206 26.0194 
-168.5 -65.4632 17.8616 
-147.162 18.6155 42.6781 
-162.595 -10.3673 37.954 
-191.05 -51.8766 27.7114 
-192.114 -21.5171 36.8083 
-134.448 20.5874 38.5923 
-161.457 -31.769 32.5513 
-187.124 -17.6613 36.8202 
-177.448 -61.768 22.9876 
-147.111 -38.7436 28.5891 
-156.881 8.74869 41.058 
-178.147 -60.3743 23.4915 
-173.329 18.2344 40.5118 
-164.935 -65.0835 17.3727 
-141.197 -36.4627 28.4766 
-201.526 -27.6837 30.7048 
-126.568 -28.9471 27.7001 
-170.98 -30.4972 33.1294 
-135.402 -17.3732 32.2767 
-129.423 6.30443 36.691 
-185.357 8.23944 43.7698 
-194.377 -16.1392 38.6953 
-179.784 1.89091 42.0762 
-168.809 15.5689 44.6537 
-160.05 17.3857 44.0265 
-164.355 -52.5373 29.2271 
-142.056 -37.308 28.3413 
-158.516 5.0909 40.1961 
-200.742 -19.4428 35.2991 
-154.224 2.45194 43.2687 
-200.742 -15.9859 32.4934 
-180.65 -59.2406 24.1583 
-190.261 -54.7497 26.7591 
-165.89 -46.2181 27.8267 
-188.457 -34.7587 32.4167 
-157.415 -11.0133 37.0757 
-184.035 -43.9165 29.1281 
-110.531 -13.4413 26.9371 
-130.105 -25.5913 29.1491 
-158.886 -12.4071 36.8598 
-129.973 -18.5046 31.2325 
-144.947 -34.9975 29.4067 
-137.688 -1.60039 40.7118 
-190.58 -55.3978 26.6103 
-111.671 -13.8865 26.8646 
-166.372 10.4137 42.8094 
-195.735 -2.76512 36.1685 
-169.696 -26.3848 34.172 
-129.609 -22.5369 29.9947 
-121.907 12.563 37.5394 
-187.59 -59.6399 24.4685 
-161.144 17.1275 44.0956 
-155.217 12.0482 41.8103 
-168.714 -16.3168 37.0115 
-144.182 -39.1763 28.0725 
-132.794 4.40924 36.4613 
-158.127 -52.7645 25.3135 
-160.721 -62.3391 20.598 
-119.458 12.657 33.9787 
-109.259 -0.154823 32.1083 
-142.021 -23.7041 32.3496 
-170.217 -25.1407 34.6082 
-159.262 1.53493 42.9624 
-176.297 -1.48062 40.6186 
-174.727 3.36596 41.8398 
-166.94 -65.4728 17.2414 
-195.423 -29.5299 34.8841 
-175.956 2.29883 41.6882 
-142.427 17.0463 41.5864 
-111.086 -21.3631 26.0948 
-168.83 -38.4677 30.5032 
-178.557 -66.2876 21.8016 
-198.804 -3.85726 26.487 
-159.157 -14.0285 37.0122 
-176.553 -2.93099 40.2247 
-171.645 -28.7793 33.7245 
-131.567 14.4237 39.3708 
-162.521 -41.1708 28.8577 
-162.998 -30.9552 32.996 
-108.284 -16.504 27.1561 
-165.059 -64.8222 16.4799 
-146.207 7.76182 39.3496 
-130.776 -3.50363 37.5706 
-176.995 15.9047 41.3606 
-180.626 -22.0355 40.3852 
-188.954 -26.3395 34.9662 
-200.707 -21.8887 36.9337 
-158.16 18.5178 44.1096 
-175.938 -61.9401 22.7364 
-142.982 -35.8622 28.8908 
-200.947 -20.3887 34.8429 
-184.736 8.9873 43.5679 
-200.951 -28.3904 35.3063 
-105.002 -21.8744 25.1362 
-153.111 3.04822 41.7974 
-148.891 -38.2653 28.9665 
-150.638 -4.5178 38.1024 
-144.641 -19.4473 33.9532 
-177.28 -25.2665 35.5194 
-176.16 9.91581 43.9621 
-177.662 -13.3003 41.4475 
-130.956 -24.4975 29.5848 
-167.623 -40.1719 29.8402 
-108.789 -25.3113 24.6252 
-126.859 -24.8956 28.9338 
-198.734 -22.1283 37.5071 
-197.668 -39.653 31.5175 
-175.149 -22.0149 36.1956 
-120.068 13.0068 35.1586 
-155.793 5.87975 40.0672 
-157.133 -35.6522 30.8316 
-185.572 -28.7134 33.8169 
-171.544 12.4861 44.1075 
-199.78 -34.1906 34.0877 
-199.625 -37.5704 33.0701 
-195.597 -15.6359 39.0056 
-122.61 -20.6487 32.1712 
-112.963 -23.7672 25.6348 
-153.37 -38.8306 29.3944 
-172.877 -48.4142 31.1361 
-171.691 -14.5932 37.9257 
-111.864 -2.28887 31.8247 
-150.203 2.13765 43.4763 
-139.558 -3.08871 37.0527 
-101.925 -25.0503 22.5267 
-110.541 -23.249 25.4661 
-161.69 -49.3487 26.3455 
-185.173 -41.3239 30.0441 
-141.871 6.87047 38.5109 
-178.241 11.2897 44.6437 
-127.416 -22.0045 29.8607 
-185.248 -37.6134 31.1485 
-145.642 16.7118 41.9147 
-129.88 -22.1558 30.1432 
-133.545 0.741167 35.5973 
-185.79 -16.6066 33.844 
-155.51 -5.55089 38.4446 
-146.994 14.2985 41.3823 
-118.624 -1.00819 33.1 
-132.03 20.2779 35.8902 
-130.933 18.7449 40.1044 
-157.398 -55.1083 27.545 
-155.747 -14.6517 36.8424 
-152.597 9.2394 40.6339 
-124.672 16.4671 34.8095 
-143.216 8.48206 39.1649 
-134.713 2.38481 36.2373 
-174.015 -47.2587 31.4367 
-133.106 19.6217 40.5645 
-111.846 -25.4211 24.9986 
-134.514 15.4396 40.0618 
-184.784 -39.1939 30.6206 
-180.223 -4.4583 40.2616 
-138.983 4.31015 36.28 
-182.08 -48.9501 27.3837 
-144.821 -9.09187 35.9702 
-177.196 -31.6845 33.615 
-191.352 -20.34 37.0544 
-117.749 -13.291 29.3607 
-166.327 -40.1843 29.654 
-172.773 -46.7088 32.0642 
-110.368 -3.23982 31.3456 
-189.446 -30.8478 33.7017 
-175.385 -42.8898 33.5375 
-139.183 -22.0011 32.4752 
-181.963 10.4852 44.9006 
-109.532 -23.5931 25.2306 
-166.542 -32.6838 31.8952 
-182.348 9.51496 44.6655 
-179.851 -18.0281 40.2093 
-148.592 2.78147 42.7561 
-133.107 -24.708 29.8083 
-130.446 6.34871 36.84 
-200.506 -34.6987 32.1343 
-170.084 -16.5288 37.1414 
-137.837 -18.3793 32.9137 
-165.108 -53.7658 28.3884 
-150.57 23.5356 39.5502 
-192.666 -30.1187 34.3443 
-197.778 -13.6213 39.8895 
-136.899 4.14004 34.2797 
-126.441 17.354 35.6534 
-180.344 -5.24678 40.0449 
-192.867 -1.72022 42.7481 
-136.968 0.139612 40.1529 
-154.705 -32.6397 30.325 
-174.945 -54.2473 24.8737 
-179.283 -38.2904 35.4118 
-169.482 -40.9308 29.8633 
-140.804 -32.2777 29.6589 
-187.992 4.64546 43.9785 
-180.243 4.61575 42.9409 
-172.116 -58.2032 23.0813 
-159.248 -22.441 35.0096 
-154.295 -6.41078 38.019 
-178.69 15.748 38.7386 
-187.395 1.74287 43.0431 
-188.443 -51.5251 27.469 
-144.882 -18.1318 34.3732 
-179.321 -30.9579 37.2478 
-160.191 -17.6292 36.5542 
-176.627 -35.1067 32.5319 
-183.752 0.054838 42.0615 
-147.632 -18.6587 34.583 
-171.752 -33.3605 32.3978 
-179.741 -32.4662 37.1908 
-188.56 -53.8158 26.8088 
-134.062 15.1486 39.916 
-175.634 -12.3706 42.5733 
-163.644 -41.0377 29.046 
-148.092 -17.553 34.9702 
-129.23 -11.6967 33.1421 
-184.164 10.1492 42.0139 
-188.767 -31.9008 33.3009 
-155.175 -5.95799 38.2799 
-130.931 -17.4298 31.6769 
-128.217 -20.3769 30.4472 
-147.162 0.55237 42.5813 
-162.225 -36.3397 31.305 
-173.295 15.4196 45.2052 
-170.14 -17.79 36.7663 
-161.626 -28.3073 33.5949 
-175.118 -42.6052 32.9713 
-108.949 -13.9269 28.0047 
-142.86 -9.4055 35.6173 
-116.982 -10.7297 29.4501 
-139.973 -35.989 28.4538 
-140.543 5.36435 37.7199 
-157.631 21.7999 44.3092 
-130.747 -29.9322 27.9539 
-163.435 -25.0877 34.7848 
-190.286 -5.42069 41.3138 
-172.073 -55.3466 24.1681 
-163.047 6.21442 41.1292 
-198.312 -25.5279 36.4482 
-175.934 -68.1063 20.9168 
-164.914 14.2611 43.7507 
-146.786 15.8437 41.8105 
-155.559 -35.6851 30.6129 
-163.272 -45.6439 27.6484 
-178.648 -21.1936 39.923 
-146.182 -17.9572 34.5973 
-174.148 -15.9434 37.8537 
-135.922 -10.7143 34.3205 
-157.395 23.1706 39.9386 
-155.545 -43.7628 27.1667 
-141.89 8.52864 38.6908 
-127.52 4.69986 35.9651 
-136.59 -2.34414 39.8267 
-200.329 -18.9648 37.2778 
-134.924 -18.8098 31.7895 
-195.447 -4.53521 40.3028 
-149.495 11.6344 40.9285 
-125.936 16.5544 37.9569 
-196.294 -17.9057 38.4286 
-135.003 -23.4161 30.4411 
-125.516 -5.17236 32.7869 
-173.242 2.51179 41.3906 
-145.952 11.1972 40.3291 
-127.879 17.8237 37.5091 
-178.318 13.6503 44.8276 
-151.812 -5.28539 38.0318 
-191.4 -54.4154 27.0091 
-171.243 -56.8405 23.2036 
-107.041 -23.3884 24.9602 
-103.271 -15.1546 26.8885 
-175.574 -26.577 34.9062 
-173.814 -8.79638 43.386 
-194.074 -50.177 28.6143 
-164.572 5.49014 41.118 
-188.046 -5.57104 40.972 
-200.895 -22.4771 35.8079 
-162.221 -41.0081 28.8658 
-196.275 -7.32847 41.5463 
-104.997 -10.9061 26.2226 
-156.024 2.12754 43.5933 
-177.392 -40.3214 34.5617 
-130.384 -11.4576 33.3659 
-178.231 7.64667 43.5677 
-181.557 -1.0978 41.4299 
-181.08 3.10955 42.6077 
-153.336 -31.3831 23.2851 
-145.81 13.4174 40.9651 
-121.448 -26.2956 31.2709 
-162.098 -23.3805 35.1109 
-146.568 17.7371 42.3401 
-153.044 -48.6482 25.4041 
-143.673 -26.3731 31.1743 
-177.799 6.81747 43.2659 
-156.215 -17.183 36.1578 
-124.287 -13.2983 35.4818 
-199.364 -15.2951 39.1769 
-136.439 -17.9183 32.2536 
-184.924 -6.47193 40.2917 
-176.146 -42.5319 33.7441 
-137.608 -11.018 34.4443 
-123.481 -12.3015 34.512 
-153.041 -35.9421 30.2029 
-152.333 12.2077 41.4745 
-198.074 -18.8825 38.3769 
-164.108 -38.9343 29.7281 
-185.966 -57.5528 25.3621 
-162.741 -18.6861 36.5811 
-170.388 -30.3877 33.0831 
-180.713 -52.8477 26.0524 
-141.878 -1.56491 37.8122 
-173.044 -31.5707 33.0973 
-196.198 -27.932 35.4583 
-171.811 18.217 42.668 
-124.466 2.55485 34.9269 
-135.184 21.1621 37.3298 
-181.522 -25.8515 37.9109 
-190.764 -46.2079 25.901 
-152.471 -30.1294 18.5693 
-160.099 -45.4116 27.2956 
-145.368 0.377691 42.1531 
-172.064 14.7772 44.8523 
-113.759 7.20355 32.1913 
-128.906 2.38035 35.4649 
-144.305 -30.0997 30.7663 
-185.669 -22.7829 35.5792 
-196.774 -25.7854 36.168 
-141.494 -34.3284 29.1457 
-198.392 -8.57786 35.1556 
-175.437 -29.4148 34.051 
-173.456 -46.3483 32.2613 
-191.376 4.03938 37.2954 
-171.612 -17.2595 37.1288 
-155.531 -17.2738 36.0403 
-160.611 -53.5315 28.3489 
-130.642 -16.0118 32.0568 
-198.355 -8.53853 35.2588 
-125.945 -27.993 27.8988 
-116.973 10.8048 31.5548 
-154.062 15.4268 42.6536 
-123.749 6.64448 36.038 
-132.21 -10.1504 33.994 
-184.638 -41.1195 30.0332 
-117.712 -8.96495 29.8999 
-174.921 -23.4683 35.7366 
-153.503 -17.8182 35.6103 
-160.119 -35.5553 31.2567 
-134.68 22.6862 30.0202 
-181.585 -64.4152 22.756 
-123.578 -2.82042 33.2233 
-151.081 9.99282 40.6549 
-161.566 -50.7665 25.9471 
-158.54 -27.0493 32.3382 
-198.675 -12.6276 39.3462 
-137.203 -16.9066 32.6535 
-122.483 -21.2721 31.8397 
-196.163 -6.01773 40.2581 
-201.439 -22.4196 32.0378 
-171.457 7.46474 42.6147 
-135.973 -23.1644 30.9344 
-131.915 -21.9957 30.4501 
-123.289 14.9607 37.4927 
-165.996 12.4899 43.3719 
-154.122 -16.6803 36.0283 
-126.335 -24.0362 29.1177 
-181.341 -0.841999 41.4768 
-187.56 5.96818 43.605 
-128.202 18.2807 36.2874 
-159.894 -53.5337 27.088 
-147.708 -31.7593 27.5944 
-158.686 -39.582 29.7433 
-184.834 -32.8424 32.5009 
-146.225 -8.0282 36.4704 
-173.62 -40.7814 30.4568 
-156.892 2.2644 42.6415 
-142.492 15.3629 41.0986 
-191.308 -18.3127 37.6466 
-151.113 -19.0135 34.9404 
-201.549 -22.898 31.4201 
-142.744 -23.2221 32.5878 
-136.073 -12.2534 33.876 
-179.699 -49.6908 26.849 
-166.825 9.42824 42.5788 
-199.368 -39.3962 32.0529 
-193.082 -47.0924 25.6937 
-133.958 20.8304 36.9092 
-165.773 -12.1821 37.8407 
-191.01 2.49754 41.6017 
-191.983 1.03498 41.6056 
-144.835 22.0094 43.2523 
-156.257 8.70611 40.9626 
-160.281 -19.5814 35.9903 
-128.951 15.4648 39.3306 
-162.504 19.1199 44.864 
-172.285 -14.9356 37.9036 
-163.99 -52.4646 29.2001 
-184.297 10.6193 40.5859 
-130.074 10.1761 37.8605 
-152.822 -35.1615 30.404 
-166.271 -24.725 34.715 
-172.766 -14.8089 38.0048 
-146.97 -6.10609 37.1363 
-155.471 -53.1913 24.8226 
-172.145 11.7937 43.983 
-158.015 -13.4032 36.9977 
-180.676 -10.2217 38.6215 
-175.254 -9.93498 42.6926 
-142.978 -30.1001 30.59 
-194.093 -33.9139 33.4142 
-134.229 -2.5902 39.9606 
-191.083 4.49825 37.1382 
-153.786 -40.0936 29.0771 
-159.429 -60.9568 20.8343 
-139.48 -10.6136 34.8122 
-184.215 -23.8413 35.0739 
-121.503 -8.53609 31.2618 
-164.323 -19.8062 36.4607 
-160.877 -61.0777 20.8995 
-197.538 -35.733 33.3351 
-174.823 -59.1108 23.4228 
-167.696 -49.966 29.2748 
-169.153 7.58783 42.3451 
-131.826 22.4545 25.5838 
-139.646 17.222 41.2691 
-168.745 -30.9469 32.6999 
-158.704 12.3185 42.3532 
-176.066 12.8951 44.8286 
-172.129 -66.7852 20.8014 
-148.259 16.16 42.0994 
-111.151 -21.3096 26.1192 
-175.749 -61.7973 22.7534 
-144.784 -6.10786 36.856 
-137.633 -4.14494 36.4855 
-145.928 -31.3743 30.1792 
-133.379 22.0785 30.671 
-198.597 -36.3143 33.3042 
-150.483 -9.70432 36.5414 
-136.291 -29.8645 29.4417 
-154.046 -50.0814 25.1143 
-130.142 11.0223 38.1783 
-198.696 -5.91375 29.7039 
-109.886 2.30353 30.0498 
-179.761 -28.4251 38.3854 
-166.95 -38.3709 30.2716 
-121.43 -7.06384 31.6863 
-122.284 14.8624 34.1482 
-107.883 -24.7099 24.6823 
-167.428 15.7186 44.5145 
-157.267 -43.5375 27.4619 
-170.888 -64.8085 20.8652 
-118.942 12.7978 30.4494 
-120.532 4.56101 34.9963 
-189.514 -24.7183 35.5188 
-169.6 -4.61559 44.0597 
-158.33 -6.54278 38.5264 
-180.019 6.21248 43.3822 
-182.137 -42.0608 29.4235 
-153.977 5.7297 39.7819 
-192.486 1.63088 38.8323 
-154.351 22.7759 41.9657 
-159.865 -54.9044 27.9327 
-197.563 -9.96907 40.6444 
-131.159 -4.21094 39.0748 
-142.461 -1.70316 37.8469 
-150.385 -29.4057 17.5194 
-119.366 12.1145 36.6238 
-128.443 -5.67974 36.8852 
-155.195 0.658703 43.7028 
-168.951 -32.247 32.3438 
-154.855 -42.646 27.4046 
-182.307 -16.1503 37.0892 
-136.281 5.03789 31.1623 
-167.942 -65.6413 18.0289 
-165.329 -36.4032 30.6369 
-191.058 -33.4143 33.1586 
-174.658 -56.405 24.1991 
-118.132 9.34786 36.0896 
-122.631 14.6834 36.3912 
-194.295 -19.1662 37.7914 
-199.371 -5.60504 26.1923 
-146.299 -17.0251 34.8878 
-124.12 15.5656 37.455 
-142.926 0.055759 41.2523 
-189.24 -16.2816 33.0941 
-131.49 6.15141 35.2706 
-182.65 -7.53027 39.6776 
-118.166 -6.55367 30.7394 
-201.695 -26.4903 29.8308 
-188.221 -15.688 30.1736 
-164.359 -13.8965 37.1472 
-127.612 -15.3994 31.835 
-111.315 -23.0986 25.6133 
-159.645 14.4692 43.1125 
-179.93 -0.242796 41.4661 
-160.744 -16.3878 36.9939 
-160.944 0.542847 44.2648 
-168.445 -13.4616 37.8286 
-132.445 -24.0531 29.9136 
-151.373 16.0923 42.4929 
-161.954 -32.7117 32.3391 
-185.964 7.90541 43.0548 
-177.713 -3.52844 40.2025 
-117.237 -6.15468 31.3978 
-163.289 12.1565 42.9142 
-180.598 -26.6867 39.0093 
-110.315 -15.0797 27.8459 
-158.625 -60.0755 20.9875 
-184.111 -20.695 35.9882 
-141.769 -2.62159 37.4841 
-147.521 23.2899 39.9553 
-130.984 22.4902 20.127 
-140.847 1.42726 41.7971 
-148.021 -33.0404 30.3923 
-184.338 11.5483 38.2296 
-127.5 16.7413 39.5144 
-122.623 0.380308 34.0407 
-143.664 -38.8088 28.112 
-142.626 -13.7805 35.2898 
-157.762 -36.1572 30.7663 
-157.776 7.49685 40.8075 
-120.076 5.539 35.2242 
-151.774 -37.2524 29.648 
-144.698 21.733 43.2706 
-193.437 -36.0559 32.6952 
-159.353 -26.225 33.9073 
-169.125 18.9591 43.7173 
-181.474 -27.0091 38.3203 
-185.219 -46.5527 28.5077 
-149.352 9.64905 40.324 
-187.529 -17.9787 37.2434 
-192.501 -47.0011 26.1188 
-105.133 -11.5128 27.796 
-120.945 -3.039 32.8092 
-194.826 -23.1138 36.6975 
-131.079 -26.0122 29.1544 
-152.042 -8.03986 37.2393 
-144.458 15.0963 41.2809 
-193.634 -4.61113 41.9972 
-165.813 -64.6654 15.3177 
-151.362 -31.1418 22.2051 
-181.422 13.8361 38.7711 
-152.987 7.56436 40.1917 
-132.956 5.5394 33.3095 
-154.676 7.87467 40.5074 
-115.795 2.49993 33.7593 
-157.362 -51.15 25.2395 
-138.727 -30.0216 30.0486 
-129.205 -5.18472 38.4173 
-118.871 -14.7183 29.0887 
-176.474 13.7124 45.1238 
-139.242 -32.6019 29.3559 
-143.725 23.2746 38.1321 
-165.051 6.58902 41.5058 
-183.332 -3.6805 40.9038 
-181.558 -9.14381 38.0861 
-116.449 -0.056286 33.0921 
-142.41 -15.8109 34.7296 
-157.399 -51.1515 25.244 
-174.979 -35.4805 32.2009 
-139.98 1.13359 41.5197 
-122.919 14.9292 36.238 
-189.817 4.36845 40.9603 
-164.212 -2.32769 44.0192 
-134.91 3.89375 35.3731 
-163.158 -25.1605 34.7266 
-194.907 -9.39499 40.755 
-145.206 0.888058 42.4442 
-165.795 12.8717 43.4578 
-120.933 -7.63351 31.4523 
-152.65 8.12868 40.3133 
-178.638 -8.14836 38.9626 
-116.978 0.068819 33.1993 
-177.461 14.1295 45.1192 
-133.244 -21.5226 30.7662 
-127.951 -7.34587 37.7242 
-126.516 -21.7534 29.8153 
-158.338 -29.1772 32.9017 
-153.729 -13.7387 36.8438 
-125.182 11.4691 37.6514 
-160.569 -31.113 32.627 
-173.864 13.725 44.7809 
-171.727 -45.2644 29.3002 
-161.601 -8.69462 38.3154 
-119.007 -3.17573 32.5116 
-148.201 -30.4425 23.2735 
-188.726 -31.6707 33.3633 
-159.674 -65.3333 19.5758 
-150.838 8.32521 40.1306 
-176.905 -67.0621 21.3537 
-123.064 2.76335 34.8021 
-164.081 -18.951 36.0797 
-192.181 0.313757 42.3731 
-148.468 -1.89723 38.5873 
-128.357 -20.4027 30.4581 
-200.618 -23.3334 37.4018 
-141.234 -36.7632 28.3929 
-193.056 -0.270138 40.7062 
-164.375 -43.5825 28.4029 
-181.295 7.35379 43.8882 
-166.531 9.90697 42.6811 
-162.883 -29.2501 33.4837 
-146.454 -10.5897 35.7452 
-173.824 18.4543 39.18 
-194.894 -15.5072 38.9502 
-136.486 -28.0489 30.333 
-177.813 -5.24673 39.7089 
-129.281 -0.425381 34.6871 
-199.821 -4.3475 22.4617 
-120.936 -25.3437 31.4836 
-185.443 -17.5066 36.8412 
-160.954 6.21083 40.8501 
-169.274 -40.7168 29.8987 
-146.637 -41.8276 26.5547 
-118.009 -26.3322 25.5482 
-148.119 15.257 41.8145 
-198.974 -4.73533 26.8647 
-189.503 -4.00229 41.6282 
-158.727 -19.6633 35.7597 
-200.589 -15.2957 32.8065 
-180.669 -21.0678 40.1194 
-147.195 23.1148 40.4268 
-150.574 16.7805 42.5899 
-134.003 24.3829 22.2921 
-162.354 -33.1545 32.2617 
-157.328 0.730282 44.0071 
-171.195 -47.2804 31.1257 
-151.756 22.8303 42.106 
-164.054 8.59399 41.9648 
-146.362 21.445 43.4065 
-120.407 1.6973 34.135 
-176.514 -14.4266 42.0837 
-157.82 -15.5764 36.8449 
-173.688 -41.1365 30.366 
-135.539 24.4168 24.2624 
-106.604 -14.8242 27.4286 
-159.574 -16.9376 36.6762 
-106.973 -15.3153 27.3327 
-115.459 -0.599106 32.8005 
-134.26 19.7949 41.3129 
-112.244 -16.0948 27.8026 
-139.58 -21.3135 32.7307 
-101.878 -23.4997 23.6721 
-170.69 -70.4588 19.5267 
-188.73 -1.48568 42.2679 
-120.884 -8.67031 31.1399 
-164.924 -42.881 28.6828 
-116.562 -1.57274 32.6597 
-164.382 -41.45 29.0224 
-167.462 -41.236 29.505 
-193.654 -0.797771 39.819 
-177.57 -6.84328 39.2057 
-121.598 12.3997 37.4501 
-161.34 -2.52248 40.1189 
-173.667 -35.3427 32.0673 
-179.866 13.3369 42.8721 
-123.005 3.04281 34.8768 
-107.687 -12.1048 26.4737 
-166.995 20.0258 43.0182 
-151.653 -6.82001 37.5475 
-122.813 12.3832 37.6066 
-146.897 -37.8108 28.8358 
-159.725 5.09799 40.3587 
-183.803 -35.5928 31.5527 
-152.894 9.75568 40.8257 
-201.725 -24.9003 30.3372 
-128.154 -17.0188 31.4294 
-144.702 -21.9015 33.2373 
-188.261 3.37189 43.6386 
-123.803 -4.83072 32.6601 
-169.254 9.91412 43.0447 
-163.018 11.488 42.6809 
-130.708 13.3967 38.9539 
-178.233 -5.7036 39.63 
-186.638 -17.228 35.3587 
-186.18 -22.6163 35.6961 
-151.55 -15.6094 36.0027 
-174.992 -44.9613 32.8743 
-183.958 -62.1258 23.7464 
-115.912 -19.013 27.4289 
-139.368 -7.97448 35.5863 
-148.808 21.1164 43.6344 
-189.226 4.08416 43.2202 
-167.511 -9.40767 38.9003 
-134.141 14.7441 39.5355 
-185.424 8.35902 43.3321 
-181.446 -5.61703 40.0821 
-118.145 -2.1655 32.6951 
-155.254 2.64418 42.2413 
-167.334 -50.9975 30.0769 
-192.65 -25.2437 35.7802 
-149.035 -38.7435 28.8445 
-200.488 -14.918 33.08 
-159.138 -55.9424 27.3824 
-134.048 23.8928 24.3183 
-156.863 -54.2056 26.5759 
-165.796 -15.4389 36.883 
-130.367 -0.701797 34.7497 
-116.302 -17.882 27.8143 
-162.883 -23.1225 35.2912 
-195.83 -31.6419 34.3151 
-155.292 12.4514 41.9393 
-174.605 -24.787 35.3057 
-201.639 -22.1454 30.5849 
-142.455 14.4708 40.8304 
-171.63 -69 20.0818 
-117.834 -10.2314 30.2746 
-152.178 -39.8649 28.9311 
-192.978 -51.5926 28.0513 
-139.955 22.0957 39.4283 
-201.581 -29.6832 28.7246 
-198.484 -31.1895 34.8009 
-170.717 -6.14837 43.7559 
-120.134 -7.86682 31.2774 
-125.084 16.9817 33.5735 
-147.626 -13.8909 35.9886 
-179.268 -39.1845 34.3951 
-131.106 -20.8269 30.6875 
-102.674 -15.1087 26.1376 
-124.114 15.962 35.5288 
-163.639 -29.1606 33.6105 
-167.257 -46.8186 27.8311 
-196.364 -5.37547 38.4039 
-137.213 -19.498 31.9159 
-131.198 -15.6855 32.2268 
-167.237 20.2592 42.1073 
-193.02 -0.221405 40.729 
-130.621 -10.2852 33.7432 
-134.882 -29.7014 28.571 
-173.889 -8.3408 43.1573 
-130.346 7.56958 36.8725 
-143.791 0.666664 42.191 
-144.342 -3.08642 37.6887 
-198.33 -11.6106 39.8108 
-163.459 -47.1605 27.2259 
-176.673 -39.9414 33.7374 
-170.991 -6.57619 43.6661 
-167.175 -51.2438 29.9832 
-156.639 -0.078594 43.3407 
-194.714 -2.37691 39.2347 
-191.603 -7.30068 40.9341 
-131.949 20.9774 32.5497 
-118.935 5.95363 35.1951 
-192.674 1.24252 38.987 
-138.164 -23.1487 32.0013 
-124.103 8.86798 36.7409 
-173.696 -56.3835 24.0778 
-174.997 -60.8525 22.9323 
-188.896 -5.23172 41.185 
-170.997 -67.6555 20.3943 
-105.619 -18.1212 26.3253 
-157.798 17.2305 43.6818 
-153.244 -30.6106 20.4044 
-170.542 -29.4285 33.3865 
-187.108 -57.2305 25.6088 
-173.75 16.5789 44.397 
-193.82 -50.4883 28.4888 
-106.455 -18.1682 26.4223 
-178.552 7.68394 43.6215 
-115.168 8.4139 34.6231 
-139.485 -6.68644 35.9817 
-193.065 -18.72 37.7597 
-190.594 -52.0188 27.6089 
-196.03 -24.9137 36.3264 
-121.939 6.41253 35.7292 
-132.755 -2.48586 39.7957 
-145.596 -4.81238 37.346 
-155.599 -20.8897 34.6014 
-170.465 16.4008 45.119 
-142.383 -10.7353 35.1617 
-130.063 21.3958 22.7221 
-126.981 17.2446 37.6811 
-172.899 -29.9054 33.5692 
-148.865 18.1415 42.7643 
-155.237 -53.0387 24.721 
-161.334 -30.111 33.024 
-199.585 -21.6058 37.7742 
-126.816 -29.0519 27.7021 
-134.618 -1.26891 40.3465 
-195.581 -48.7668 27.531 
-158.162 -4.73113 39.0384 
-150.713 17.36 42.7792 
-147.272 14.0478 41.3452 
-127.962 -3.15977 33.7053 
-140.397 -25.6811 31.5508 
-181.233 -28.7742 38.478 
-196.453 -27.7612 35.5425 
-142.256 22.9614 38.2701 
-122.587 15.112 34.0319 
-118.214 -19.5121 27.5873 
-166.846 2.35502 40.4952 
-141.96 -14.85 34.9533 
-131.691 1.28119 35.5104 
-171.596 15.3355 44.9548 
-119.398 11.5908 36.9193 
-146.647 -36.7472 29.1164 
-179.882 2.64118 42.3104 
-143.935 23.5781 37.1399 
-170.87 -35.1318 31.7581 
-143.986 19.9359 42.6459 
-146.227 19.8683 42.9234 
-175.881 -43.9614 33.2873 
-126.813 10.5114 37.5856 
-121.569 10.9535 37.0197 
-192.155 2.99142 37.2428 
-164.059 -35.1128 30.8489 
-182.861 -53.6555 26.0993 
-120.519 11.9431 37.1721 
-147.881 -9.14532 36.3608 
-176.185 16.5527 40.8615 
-179.44 -32.2806 37.2055 
-138.484 -32.3671 29.3244 
-186.935 -1.54177 42.013 
-107.294 -12.7976 28.118 
-183.421 -48.953 27.5609 
-131.403 21.1318 30.4961 
-186.951 -22.2881 35.8953 
-125.393 -13.0396 35.7049 
-172.237 -6.58877 43.4021 
-142.732 13.606 40.6121 
-151.18 -32.1037 25.3685 
-185.71 -30.1673 33.4064 
-120.248 -4.40964 32.3124 
-124.075 15.8284 36.0617 
-150.338 8.09154 39.9954 
-141.117 -25.1115 31.8144 
-114.355 -2.01097 32.2374 
-157.778 21.8619 44.0314 
-187.119 -47.3095 28.5367 
-164.699 -23.3891 35.4536 
-140.31 0.532471 41.6892 
-191.719 -16.1264 38.346 
-133.156 24.1881 21.0716 
-144.102 -20.7623 33.4937 
-139.65 25.2047 22.4842 
-184.194 -43.2627 29.3421 
-165.781 -44.4903 28.3219 
-179.636 -58.107 24.3581 
-187.644 -59.1258 25.1208 
-162.888 -49.2654 26.5291 
-172.456 -33.8064 32.3598 
-179.518 -62.9222 22.9219 
-193.541 -1.45456 41.4621 
-156.687 -21.8906 34.832 
-149.2 -40.9666 28.2107 
-196.303 -15.0422 39.2745 
-158.43 -53.8673 26.7217 
-152.158 -2.08661 39.0214 
-131.66 -21.1793 30.6571 
-163.915 -64.8109 18.0961 
-167.84 -43.3047 28.9449 
-149.744 -29.4127 18.2317 
-193.709 -51.934 28.0476 
-186.343 -1.14741 42.0508 
-128.824 -18.8273 30.9849 
-165.488 11.4043 42.9842 
-140.295 -15.4165 33.9747 
-131.718 -9.2484 34.1947 
-128.381 10.7177 37.8546 
-184.524 7.82693 44.4565 
-116.776 -24.5543 25.9089 
-178.067 13.6626 45.243 
-172.736 -55.6709 24.1604 
-184.47 -54.0851 26.1864 
-147.365 10.8061 40.4013 
-197.877 -10.1344 39.5998 
-192.89 -0.862469 42.3939 
-147.191 -9.19195 36.2554 
-129.69 -22.705 29.956 
-132.567 19.2955 40.9407 
-148.953 7.23307 39.5582 
-190.944 -32.0255 33.5531 
-135.189 -15.2299 32.8807 
-178.194 -36.4883 35.7989 
-180.03 -4.36306 40.264 
-183.166 -17.861 36.6987 
-130.645 -11.6366 33.3478 
-182.491 -43.9726 28.9065 
-196.393 -4.24795 36.3347 
-127.765 -8.77133 37.2789 
-188.705 -47.1541 28.7931 
-191.285 -0.262999 42.9679 
-176.013 16.0288 42.5428 
-195.837 -5.32782 40.2541 
-166.24 -19.1915 35.835 
-158.975 -7.37136 38.3571 
-195.619 -47.6063 24.1684 
-118.969 12.8137 30.4973 
-177.38 -38.5145 34.7973 
-106.512 -24.0795 24.6862 
-194.456 -1.91264 39.3714 
-178.3 -20.2048 40.4383 
-180.611 7.98415 43.9833 
-143.729 23.4215 37.6035 
-161.318 -54.5437 28.232 
-181.943 -63.8717 22.9639 
-188.114 -52.353 27.1811 
-139.225 -16.5437 33.7754 
-165.669 -22.9175 35.7216 
-151.372 -16.9609 35.5803 
-165.864 -14.8723 37.0592 
-138.241 25.142 22.8199 
-180.854 -57.2044 24.786 
-162.435 -43.2693 28.2273 
-165.511 -27.159 34.4494 
-123.512 3.98342 35.2216 
-172.78 -52.9402 24.9718 
-198.449 -4.39135 28.7181 
-164.779 -67.6528 19.5695 
-167.045 4.62088 41.1899 
-182.492 3.1525 42.8079 
-163.958 10.9329 42.642 
-142.731 -16.1791 34.6636 
-168.289 15.9016 44.6827 
-184.314 5.39295 43.7107 
-146.081 -32.2501 30.3678 
-199.213 -14.1364 38.5271 
-191.77 -22.12 36.5849 
-178.748 -21.0123 40.4376 
-166.989 3.97714 40.9927 
-198.122 -14.5322 39.6665 
-178.151 -14.336 41.4881 
-169.731 -48.8402 31.0316 
-143.304 -10.2671 35.4222 
-130.516 19.5903 35.7141 
-160.324 -61.2642 20.8625 
-165.973 -66.0426 19.4488 
-184.202 -25.1226 34.6942 
-153.028 -1.26036 39.3806 
-200.302 -33.992 34.2156 
-133.466 -28.9859 28.5941 
-168.481 18.9375 44.5391 
-181.261 -13.5667 37.0852 
-147.654 15.4497 41.8096 
-110.498 -14.6751 27.9896 
-167.723 -64.8475 15.2026 
-124.051 -14.388 35.129 
-123.251 2.22587 34.6685 
-180.171 13.8361 41.036 
-141.698 -36.0142 28.6754 
-147.51 14.2501 41.4365 
-199.488 -11.3398 33.8451 
-156.81 -40.1159 29.4721 
-201.111 -26.0964 35.0459 
-192.309 -23.892 36.1336 
-160.496 -30.089 32.9193 
-156.58 17.1349 43.4919 
-177.355 -16.7682 39.433 
-180.208 13.2792 42.4099 
-187.787 -17.5751 36.6845 
-141.138 16.3478 41.2092 
-180.412 6.83841 43.6189 
-165.862 -46.1188 27.8522 
-129.445 15.347 39.3614 
-141.584 -2.9044 37.3761 
-194.242 -10.3392 40.3881 
-141.812 -15.9672 34.604 
-130.231 6.45418 36.8426 
-195.467 -4.66707 40.4608 
-163.313 -10.1889 38.102 
-198.418 -1.08347 22.9887 
-192.433 -50.1385 28.4078 
-135.445 -6.35392 35.5434 
-156.156 -56.4495 26.5432 
-119.817 3.08435 34.4658 
-120.148 11.5442 37.0052 
-198.444 -8.27369 34.4877 
-134.032 21.7598 32.8435 
-178.888 -34.0218 35.2962 
-160.103 22.9857 39.1912 
-178.698 -65.9955 21.9065 
-185.848 5.38397 43.9118 
-135.608 -30.9816 28.2898 
-126.709 16.7449 39.2424 
-148.898 -16.5714 35.3667 
-129.977 -18.533 31.2247 
-161.027 7.50079 41.2404 
-147.181 -32.4606 30.2757 
-121.347 -25.5936 31.4644 
-179.673 -4.58333 40.1517 
-135.772 -26.4586 30.1135 
-184.513 10.0216 41.5913 
-140.712 -31.9977 29.7293 
-134.643 17.9681 40.8249 
-162.366 19.7078 45.0191 
-150.064 -15.1577 35.9386 
-127.505 -9.36975 37.0679 
-176.428 -63.7445 22.2691 
-158.927 22.3706 41.7858 
-115.406 3.64813 34.0464 
-126.825 -10.7778 35.911 
-175.88 -17.8564 37.5193 
-166.564 -66.2466 19.8754 
-125.428 -9.07674 33.9927 
-149.086 -29.5571 19.5743 
-179.499 6.18877 43.3061 
-121.527 -28.6861 30.5761 
-178.004 -52.3763 25.8318 
-128.246 -1.86579 34.1248 
-131.931 -18.4975 31.4842 
-161.307 -4.80932 39.4331 
-135.98 -14.2611 33.2714 
-163.497 -45.3757 27.7574 
-154.194 -15.0678 36.5135 
-161.891 -3.77134 39.8167 
-115.052 0.624872 33.1075 
-178.029 -38.1008 35.3013 
-160.205 -41.6302 28.4146 
-109.764 -18.9362 26.6352 
-173.099 -63.503 21.8983 
-127.757 5.43588 36.2136 
-182.981 -16.45 37.0904 
-159.074 -8.8446 37.9357 
-171.482 -5.22407 42.0126 
-115.693 -15.8571 28.3306 
-141.145 -30.3047 30.2862 
-166.705 -43.0419 28.8718 
-122.176 -23.7001 31.6345 
-117.163 8.85872 35.8167 
-153.871 -35.6845 30.389 
-151.745 -49.4418 24.9975 
-152.355 -41.1182 27.5233 
-143.972 -28.3307 30.9118 
-175.52 -13.6102 41.4174 
-198.583 -31.3498 34.7668 
-175.674 -20.1439 36.8172 
-120.294 -22.0021 32.1641 
-188.061 1.57915 43.0832 
-165.984 -53.2732 28.4658 
-200.414 -31.3555 35.0082 
-162.399 -42.0477 28.5828 
-153.449 -12.2405 37.2486 
-174.683 -10.6765 42.9468 
-180.952 -57.7963 24.6244 
-178.194 -59.8474 23.6532 
-181.085 -54.492 25.6168 
-164.452 -18.0095 35.9463 
-157.586 -3.47199 39.3335 
-159.469 -21.5343 35.3064 
-175.138 3.37013 41.8955 
-121.32 11.7242 37.214 
-199.565 -19.5705 38.3719 
-145.685 -13.9632 35.7095 
-172.588 -0.513763 40.4113 
-163.118 -39.2441 29.5052 
-123.707 -16.6845 33.89 
-128.443 3.61338 35.7671 
-120.283 12.9817 36.1088 
-136.83 -9.34869 34.8439 
-173.514 -22.2635 35.9051 
-170.958 -35.4222 31.6842 
-177.131 10.0591 44.1333 
-142.514 -5.2509 36.8074 
-143.218 20.6045 42.7411 
-133.162 20.6644 36.3995 
-134.918 -28.0214 29.0713 
-140.029 -9.22417 35.2949 
-109.93 -19.3545 26.5338 
-169.174 20.5476 39.1187 
-180.976 -22.9001 39.7773 
-124.842 -5.86474 32.4931 
-165.177 5.5368 41.212 
-171.086 11.4456 43.7397 
-190.627 -27.6087 34.8139 
-132.114 20.4383 35.3877 
-138.934 -1.21211 40.3805 
-178.028 -60.6607 23.3913 
-169.889 12.8195 43.9861 
-187.34 -16.6949 33.4991 
-107.455 -12.1872 26.9828 
-103.717 -17.5663 26.2363 
-124.738 5.68483 35.8863 
-185.247 -24.1007 35.1344 
-171.186 19.0536 41.0148 
-179.472 -35.8989 36.1425 
-185.033 -58.2768 25.0246 
-189.313 0.228342 42.851 
-152.239 -17.413 35.5622 
-167.269 -65.9024 18.783 
-172.371 -29.6504 33.5744 
-173.38 -44.9649 32.0593 
-147.002 17.5465 42.3415 
-116.062 -19.0191 27.447 
-172.654 -56.9388 23.7755 
-120.64 3.72397 34.7637 
-143.317 -19.6682 33.7122 
-190.865 -31.5096 33.6949 
-122.413 -2.34995 33.2074 
-178.962 15.4146 39.1136 
-165.543 4.19893 40.866 
-155.129 -10.0205 37.0651 
-183.433 -48.8638 27.5888 
-168.401 -54.4296 23.9511 
-182.25 7.18437 43.9651 
-138.268 -27.8714 30.622 
-171.66 -16.8581 37.2535 
-199.917 -16.6442 37.7554 
-156.268 5.68931 40.0741 
-163.739 16.5891 44.2814 
-136.528 21.0546 39.6922 
-157.517 -51.8145 25.081 
-166.315 20.7261 41.5178 
-130.333 21.587 23.489 
-167.208 6.90361 41.8849 
-190.882 -30.0873 34.1167 
-154.423 -19.1237 35.3475 
-115.831 -5.51156 30.5175 
-199.142 -12.5144 36.9325 
-166.947 3.92876 40.9728 
-144.689 14.0685 41.0084 
-167.947 -9.80724 38.8404 
-174.668 -62.6161 22.3683 
-132.442 -3.44965 39.4698 
-193.454 -9.18637 40.6237 
-178.667 -17.2596 41.5339 
-141.414 11.4113 39.2933 
-178.104 -48.6324 26.9494 
-130.885 6.71755 36.0918 
-187.746 -23.7486 35.5701 
-195.428 -7.00786 41.5284 
-155.181 -7.41217 37.8413 
-161.254 0.440594 44.1901 
-178.251 -52.2316 25.9072 
-164.953 -64.0001 14.3741 
-172.712 -60.3291 22.4571 
-192.836 -19.0438 37.6338 
-195.795 -18.9846 38.0441 
-165.883 -51.312 29.7504 
-192.199 1.29156 40.4131 
-150.35 -45.9748 25.8245 
-141.682 -13.2672 34.3218 
-117.87 11.6358 31.4933 
-161.094 21.5464 43.141 
-130.58 -25.3263 29.2903 
-107.278 -24.6906 24.6077 
-159.244 -6.40514 38.6884 
-171.638 -25.3684 34.7296 
-164.646 21.0393 42.0447 
-133.073 23.1024 25.7617 
-152.731 -32.5808 27.2852 
-192.526 -53.8817 27.1407 
-168.199 -71.1065 17.7982 
-163.968 -54.3875 28.6299 
-119.279 11.0115 36.7327 
-124.613 15.4734 38.7572 
-171.61 -34.9496 31.9101 
-130.68 -10.1748 33.7836 
-137.487 -21.0752 32.523 
-167.492 3.38007 40.8833 
-166.424 -19.2215 35.8506 
-180.726 -45.8224 28.1265 
-194.847 -34.3781 33.3774 
-176.741 -5.04078 39.6274 
-199.94 -29.1781 35.5876 
-165.592 -31.6472 32.7515 
-125.557 2.94244 35.186 
-168.224 -22.6306 35.0839 
-135.105 -5.82151 35.6553 
-139.76 -26.2052 31.3116 
-135.919 -23.6321 30.8442 
-174.176 -67.4758 20.8694 
-145.607 -19.1481 34.1696 
-182.689 12.7913 38.6584 
-147.895 2.31615 43.2225 
-160.072 -38.5807 30.3581 
-154.226 -32.3619 28.2095 
-185.232 -30.7479 33.1716 
-110.925 -16.4096 27.5347 
-180.662 -22.406 40.2806 
-137.928 -8.50941 35.2373 
-194.599 -16.6891 38.5624 
-197.696 -20.7762 37.768 
-171.111 19.0874 41.0066 
-157.836 -14.9765 37.0241 
-158.989 -7.75358 38.2462 
-142.724 -17.2947 34.3336 
-167.173 -8.08305 39.2462 
-137.036 -6.95626 35.5769 
-161.315 -10.3374 37.7929 
-131.622 19.9424 36.4784 
-176.227 10.5039 44.1445 
-178.615 6.79027 43.3662 
-168.943 -50.281 30.5019 
-172.734 -34.5329 32.1824 
-136.868 -18.3067 32.196 
-163.725 3.76013 40.4952 
-184.913 3.773 43.3124 
-157.976 -5.0135 38.9305 
-118.671 -1.5852 32.9361 
-170.137 -65.3376 20.453 
-158.001 -15.126 37.0018 
-121.662 12.2562 37.4163 
-177.395 -4.90905 39.7531 
-183.398 -2.6605 41.2134 
-147.779 0.870079 42.7805 
-110.731 -1.18307 32.0005 
-186.504 -15.954 31.3144 
-175.018 -55.6043 24.4831 
-178.768 10.8807 44.593 
-192.028 -9.46061 40.3205 
-106.778 -11.3791 25.4714 
-130.955 -22.5657 30.1546 
-126.363 5.17119 35.9505 
-120.819 8.61986 36.2317 
-193.964 -8.08592 41.016 
-181.004 13.1872 41.2259 
-151.873 6.16411 39.6307 
-134.155 22.0567 31.8224 
-199.823 -13.8019 35.1529 
-153.374 -31.4115 23.4268 
-150.374 -32.0056 25.3659 
-122.108 6.17536 35.6818 
-179.823 12.0059 45.0651 
-160.89 -65.9743 19.5482 
-111.021 -24.8959 25.0441 
-183.082 -59.8096 24.3134 
-102.749 -22.395 24.6835 
-158.066 23.2533 39.5056 
-151.359 -37.3074 29.5767 
-145.661 -12.264 35.5803 
-155.859 -12.4481 36.9798 
-146.184 -8.88045 36.2135 
-182.255 -62.9052 23.2904 
-161.049 -19.8201 36.0219 
-171.206 -21.578 35.7904 
-178.821 7.91463 43.7251 
-162.16 -9.7998 38.0636 
-136.286 21.0598 39.3237 
-172.163 -9.10327 42.2556 
-163.751 -41.4399 28.9415 
-131.021 21.7016 26.1643 
-174.597 -33.8111 32.6426 
-131.798 -27.668 28.7614 
-132.704 23.304 23.9362 
-184.804 -42.967 29.4549 
-180.387 -21.9332 40.3836 
-123.471 13.4418 38.0062 
-169.465 -41.8835 29.5799 
-179.514 2.77464 42.3009 
-192.282 -52.3245 27.743 
-147.108 -33.6207 30.0998 
-201.302 -20.3707 32.3931 
-148.984 -8.6196 36.6623 
-158.615 -30.3517 32.592 
-158.649 -47.457 26.4997 
-129.189 5.95968 36.5584 
-139.622 21.7232 40.5378 
-167.57 -41.0641 29.57 
-158.326 -52.5135 25.2877 
-104.489 -14.4937 27.2452 
-129.131 -22.1204 30.0541 
-166.68 -66.4465 20.1777 
-177.245 -40.2409 34.5659 
-134.888 -11.2469 34.0261 
-140.006 25.1939 22.3009 
-167.876 -34.5145 31.5322 
-137.477 -8.54646 35.1665 
-182.132 -62.0009 23.5408 
-149.478 24.1029 37.479 
-179.079 14.9816 40.0258 
-172.602 -58.0384 23.4444 
-104.099 -18.7709 25.9317 
-164.007 -33.0909 32.5 
-174.164 13.9732 44.8939 
-121.012 -13.5786 29.7092 
-131.377 12.9658 38.905 
-168.308 -14.2522 37.5771 
-194.256 -47.3473 25.037 
-165.4 12.8447 43.3974 
-200.279 -17.8037 36.6224 
-200.957 -17.7542 32.6981 
-134.954 -19.1328 31.6981 
-165.075 -69.6545 19.0184 
-166.146 -32.986 31.7533 
-201.316 -29.393 31.6773 
-165.272 -21.0276 35.211 
-141.851 -12.6598 34.5234 
-150.029 0.853327 42.4503 
-176.278 15.3636 43.962 
-126.582 1.96678 35.0343 
-199.459 -32.57 34.5231 
-200.7 -20.4387 36.3499 
-134.492 -30.467 28.2934 
-164.702 -49.6646 26.7413 
-140.915 16.916 41.3473 
-153.868 11.9318 41.597 
-167.189 -51.3794 29.945 
-190.683 2.24332 43.0607 
-146.312 15.8196 41.7405 
-176.573 15.7479 42.4794 
-144.738 -29.7874 30.2278 
-133.487 3.12815 36.2938 
-192.954 -0.002478 40.5134 
-121.44 -9.42631 30.9909 
-125.971 16.7339 37.2182 
-134.919 -30.5294 28.3317 
-171.772 -25.8169 34.6152 
-194.265 -10.9922 40.1986 
-200.934 -25.473 36.3992 
-191.34 -33.8378 33.0711 
-185.872 -17.1604 35.4386 
-177.411 1.52052 41.6518 
-124.645 -22.7699 29.2669 
-144.351 -9.93961 35.6577 
-152.243 -19.2516 34.2863 
-132.662 -17.6047 31.8446 
-179.725 -37.9704 35.3013 
-136.98 18.4509 41.2776 
-155.761 -10.9924 36.8623 
-188.613 7.35446 37.861 
-184.28 -16.5687 35.4781 
-124.675 13.2735 38.1164 
-178 -63.728 22.4828 
-135.449 -9.59324 34.5884 
-183.829 -59.8061 24.4135 
-126.028 13.7172 38.427 
-162.679 -38.7095 29.6047 
-163.112 11.0342 42.5595 
-138.343 18.6056 41.5042 
-119.52 -14.2163 29.3229 
-161.316 -66.0365 19.5865 
-131.646 22.0529 26.9471 
-173.129 -6.94692 42.1254 
-151.128 23.672 39.1422 
-140.54 -27.2541 31.1057 
-184.958 -16.8703 35.3957 
-150.186 10.9039 40.8048 
-191.879 -49.6987 28.464 
-111.178 0.993155 32.7017 
-161.788 -63.4646 20.2112 
-136.591 25.0129 22.7172 
-116.002 -0.428522 32.9229 
-168.302 -17.4979 36.6084 
-171.33 -42.6088 29.6136 
-197.234 -8.32794 39.6197 
-152.455 -6.79459 37.6615 
-165.503 -39.6308 29.7078 
-188.491 1.19015 43.0256 
-150.288 -42.2722 26.9085 
-170.131 -9.20341 39.3085 
-137.661 24.594 24.7073 
-112.466 -2.00183 31.9893 
-154.929 -6.26785 38.1454 
-193.881 -15.7828 38.7346 
-191.894 1.13568 41.6934 
-125.486 -21.4844 29.7578 
-145.01 23.2877 38.7207 
-179.406 -52.2983 26.041 
-143.776 15.1294 41.2001 
-178.79 -66.5795 21.3178 
-151.184 19.9268 43.599 
-133.286 24.229 21.2105 
-172.03 18.178 42.5214 
-145.638 -30.6399 29.2586 
-160.68 -24.5594 34.5748 
-140.282 -9.81009 35.1557 
-177.652 -1.31119 40.8484 
-150.145 -15.7009 35.7891 
-190.946 -3.00628 42.1136 
-199.347 -23.8059 37.0935 
-129.364 -18.8866 31.0391 
-189.507 -25.5997 35.2579 
-164.491 -46.738 27.4875 
-130.587 1.87531 35.5391 
-201.121 -29.4325 33.343 
-164.79 15.2883 44.0373 
-174.936 -57.5671 23.8933 
-189.665 4.30308 41.525 
-196.202 -5.77953 39.7032 
-173.962 1.73935 41.2584 
-161.756 -70.1825 18.4219 
-131.202 21.0647 30.3003 
-145.477 23.1609 39.41 
-128.721 8.31359 37.1906 
-132.019 -22.7051 30.2547 
-126.027 -4.49494 33.0546 
-196.206 1.64104 22.6564 
-128.3 10.0131 37.636 
-181.709 12.7726 40.7653 
-201.017 -28.794 34.5432 
-152.184 18.2092 43.225 
-157.062 12.5228 42.1953 
-158.176 -4.23091 39.1879 
-123.064 3.78875 35.1047 
-157.809 -3.03696 39.4914 
-176.394 16.7672 39.9675 
-161.954 -17.3035 36.8844 
-156.722 -39.7692 29.5626 
-143.614 -5.61775 36.8453 
-156.1 -21.3189 34.5772 
-102.304 -17.2404 26.056 
-170.605 8.90867 42.9274 
-135.62 -31.3694 28.177 
-167.284 -66.1999 19.8224 
-176.048 16.8412 40.2786 
-117.42 -21.6187 26.8605 
-195.708 -4.83595 39.8713 
-117.256 10.7577 33.317 
-183.929 -60.7158 24.1586 
-169.08 -68.7114 19.8283 
-101.96 -22.8773 24.4364 
-194.001 0.113686 36.9321 
-121.039 -18.5282 32.9338 
-174.3 -19.3503 36.8689 
-174.815 -40.5491 30.8349 
-159.458 11.8115 42.3037 
-178.139 4.99043 42.772 
-146.56 21.4479 43.4336 
-137.425 -5.51232 36.0546 
-167.155 -7.12628 39.5261 
-159.477 -36.2226 30.9746 
-185.619 -58.1864 25.129 
-114.73 -0.865644 32.6251 
-144.815 -19.9186 33.8373 
-183.649 2.232 42.6899 
-200.588 -21.0383 37.4766 
-162.582 8.01672 41.599 
-156.458 11.6905 41.8696 
-162.066 -25.2979 34.541 
-141.815 22.5002 39.6165 
-139.357 -18.1008 33.6488 
-133.073 4.51381 35.7296 
-179.935 -26.9649 38.8392 
-183.894 -26.8394 34.1469 
-165.202 -68.6046 19.3449 
-169.362 -51.2421 29.5245 
-128.924 11.8722 38.2672 
-123.979 15.6728 36.4909 
-147.622 -8.1411 36.6226 
-156.802 6.32714 40.3332 
-164.616 -48.4831 26.9893 
-179.715 -17.6156 40.338 
-185.378 -1.64701 41.7753 
-145.685 -9.8797 35.8525 
-174.836 -9.61264 43.1853 
-199.966 -14.7476 35.5859 
-107.111 -12.2062 27.4441 
-154.387 -50.1913 25.1272 
-168.478 -29.3175 33.1452 
-162.545 -72.6893 17.3529 
-162.168 21.7154 42.0029 
-155.935 14.7695 42.7085 
-163.322 -43.8022 28.1983 
-131.211 19.411 37.8776 
-196.573 -10.2004 40.7387 
-122.702 -13.9231 32.7184 
-126.603 -2.88743 33.6052 
-140.477 19.3847 42.0173 
-147.356 11.0982 40.4863 
-163.753 11.8302 42.8795 
-121.317 10.3053 36.7949 
-108.748 0.269741 31.802 
-117.838 -16.5531 28.4103 
-164.175 22.1904 39.0109 
-170.998 3.64127 41.4259 
-167.41 6.3855 41.759 
-174.924 6.57586 42.8128 
-104.761 -26.5581 23.7225 
-199.001 -3.13315 24.505 
-124.993 -24.1134 28.9169 
-136.408 -32.0982 28.0667 
-147.581 -37.683 28.9642 
-131.946 -28.6562 28.4895 
-196.466 -12.6952 39.9885 
-169.477 -36.1001 31.2771 
-171.266 -49.6783 30.9881 
-184.192 -1.39341 41.6927 
-119.463 -15.2083 29.0227 
-166.096 -52.385 29.5032 
-173.589 -67.3085 20.8408 
-160.656 1.11291 42.9741 
-170.801 -56.3229 23.7112 
-115.423 -20.5781 26.9023 
-128.896 -24.8269 29.2246 
-146.731 -40.7814 26.876 
-155.747 -15.6696 36.5422 
-126.754 9.04957 37.1464 
-128.969 13.7194 38.8181 
-126.096 -17.0441 31.1487 
-154.612 22.3141 43.4183 
-189.975 -45.8601 25.838 
-155.505 7.12014 40.3949 
-172.732 18.1287 41.6845 
-156.673 -14.3896 37.0428 
-155.492 17.5182 43.4605 
-165.72 -41.3681 29.2242 
-148.541 -7.71178 36.8713 
-186.503 -5.24519 40.8633 
-122.475 14.011 38.0418 
-186.174 -4.17947 41.1339 
-139.367 21.7403 40.2356 
-157.181 2.09001 42.9395 
-147.753 9.43859 40.0495 
-133.593 23.4999 25.2617 
-168.066 -0.68564 39.7602 
-147.177 22.2331 43.6032 
-148.714 -41.0347 28.0265 
-126.155 16.7754 37.5435 
-199.206 -10.7495 34.5097 
-173.16 -39.7121 30.711 
-148.232 -10.5327 35.9981 
-144.919 22.1509 42.7831 
-153.16 -16.855 35.849 
-162.418 15.6059 43.816 
-116.037 1.62238 33.5325 
-160.993 -0.376026 44.1674 
-124.423 -3.41358 33.1605 
-169.015 -39.6268 30.1858 
-152.568 23.8496 38.6897 
-131.777 -10.4792 33.8396 
-199.844 -5.19724 23.1091 
-185.493 -16.3667 33.4045 
-155.944 21.8961 44.4701 
-146.802 15.5221 41.7178 
-169.347 -12.3584 38.2737 
-127.25 14.1505 38.717 
-168.26 -46.0142 28.2014 
-177.607 -1.84275 40.6857 
-129.924 -12.5986 32.9683 
-120.027 -25.2793 30.9578 
-139.788 22.4838 37.7951 
-180.965 -11.5312 37.3656 
-149.639 7.51053 39.7312 
-162.624 -14.7598 36.6622 
-119.644 2.90814 34.3907 
-165.414 -44.8706 28.161 
-124.824 5.46534 35.8329 
-147.177 23.3206 39.6744 
-161.596 -31.8489 32.5462 
-168.574 12.7647 43.7953 
-186.12 -48.0031 28.1994 
-174.918 -12.9864 42.1515 
-147.08 -13.7984 35.9433 
-167.705 -66.1677 19.8135 
-201.042 -24.7693 35.4529 
-196.878 -7.91906 40.4806 
-195.485 -11.0667 40.3386 
-168.629 -26.7161 33.9326 
-195.681 -28.3825 35.2568 
-129.929 0.712038 35.1086 
-175.473 7.24864 43.0841 
-166.756 -40.8515 29.5247 
-158.265 -48.5263 26.1333 
-175.038 -44.2074 33.1028 
-126.934 13.2458 38.4082 
-185.981 -19.3791 36.6246 
-158.707 4.93187 40.1746 
-131.672 -16.6313 32.0108 
-157.76 -33.1602 31.65 
-135.662 20.4216 41.0047 
-194.632 -3.63976 41.7314 
-161.139 -58.5484 21.6981 
-140.962 12.4428 39.053 
-142.852 -11.6438 34.9559 
-128.205 3.46601 35.6921 
-169.014 -50.4795 30.4528 
-201.082 -24.8021 35.1891 
-186.796 -38.1558 30.578 
-199.023 -10.4446 35.0409 
-138.837 0.844412 40.7098 
-138.555 -9.29672 35.0778 
-139.835 21.8192 40.3699 
-155.816 -33.9293 31.1651 
-150.403 -33.4129 29.8797 
-194.872 -49.2589 28.9912 
-122.121 -27.3727 30.2609 
-174.465 -16.8067 37.6411 
-176.172 16.219 41.7895 
-192.028 -37.4914 32.0848 
-132.226 -21.4938 30.6395 
-149.432 -35.5172 29.8489 
-158.028 23.393 39.0563 
-165.929 8.3141 42.1312 
-187.475 4.79555 43.9542 
-191.791 -29.3526 34.4542 
-152.575 -14.0793 36.5901 
-121.338 -17.4032 33.5874 
-147.527 -19.5779 34.2978 
-146.725 -31.2579 28.1378 
-164.464 -33.6876 32.3846 
-167.909 -69.419 19.464 
-171.257 -12.9044 38.3663 
-183.476 -54.142 26.0375 
-142.222 0.919994 42.0574 
-120.62 -20.4682 32.8798 
-156.045 -46.756 26.3607 
-123.8 -1.70118 33.5829 
-138.22 19.215 41.6676 
-109.052 -15.1813 27.6483 
-161.279 8.36219 41.528 
-178.573 -9.39837 38.5851 
-163.123 18.7125 44.826 
-171.803 6.66628 42.4251 
-177.606 12.9229 45.0412 
-146.198 18.0651 42.3877 
-154.279 -39.6555 29.2718 
-104.105 -21.0421 25.2626 
-195.465 -14.88 39.2111 
-133.04 5.38006 33.5446 
-181.367 5.34487 43.3052 
-188.166 -50.8196 27.6403 
-135.693 -10.0578 34.4837 
-139.32 4.47643 36.5415 
-147.874 15.0166 41.711 
-173.573 -40.4768 30.5404 
-170.684 13.9661 44.4299 
-175.391 4.98161 42.4045 
-160.707 -38.2786 30.1175 
-146.496 12.3483 40.7409 
-195.08 -4.28519 41.2123 
-196.15 -26.7611 35.7973 
-198.479 -8.27364 34.3377 
-170.678 -18.7487 36.5549 
-169.776 -45.3084 28.6109 
-166.616 -12.5114 37.866 
-164.054 6.81617 41.4404 
-182.486 -15.4999 36.4921 
-135.876 5.32005 30.4124 
-136.573 25.1882 22.069 
-175.841 7.83596 43.3063 
-174.838 15.7459 45.0548 
-186.371 7.48686 43.0221 
-190.946 3.69369 39.2363 
-157.692 22.7672 41.1909 
-182.307 -3.22134 40.9031 
-181.507 -2.50343 41.0087 
-172.634 -63.2904 21.8993 
-134.853 21.3879 35.9431 
-195.477 -29.8093 34.8088 
-162.659 -0.129755 44.1633 
